-0.172923 0.121964 -0.395333
-0.056192 0.316885 -0.539782
-0.067309 0.379022 -0.399004
-0.149709 -0.046225 -0.465485
-0.106947 -0.022329 -0.070339
0.089726 0.260137 0.234792
0.030322 0.431695 0.017097
-0.108453 0.390562 -0.310879
-0.003654 0.483534 0.503241
-0.057746 -0.668027 0.010952
-0.044929 -0.576678 -0.662609
-0.022065 0.380175 0.171035
0.131564 -0.098192 0.086656
-0.042349 -0.047051 -0.523032
-0.057094 -0.327275 -0.717791
0.011787 0.131005 -0.668763
0.086237 -0.631869 0.005294
-0.028102 0.268284 -0.599572
0.060785 0.389450 0.434985
-0.054651 -0.717990 0.022496
0.053717 -0.001969 -0.316677
-0.024544 0.131325 0.357470
-0.055207 0.420736 0.461765
0.125433 -0.017283 -0.123835
-0.044109 0.534271 0.584560
-0.009958 0.136104 -0.664767
-0.101393 0.216926 0.241028
0.063886 -0.050989 -0.629307
0.079490 0.534450 0.451468
-0.158655 0.029194 0.089124
0.045985 -0.166990 0.072548
0.015825 -0.454737 0.006037
0.129527 0.043231 0.156023
0.104042 -0.049627 -0.451502
0.042144 0.364268 -0.476070
0.162760 0.209121 0.143637
-0.117749 -0.133557 0.086106
-0.078293 0.142912 0.257689
0.144280 0.286277 -0.001939
-0.179842 0.214916 -0.293445
-0.059100 0.522708 -0.156018
0.138958 -0.107206 -0.525564
0.092745 -0.031700 -0.098827
0.167859 0.167330 -0.314503
-0.066805 0.634426 0.437589
-0.047553 0.421386 0.001018
-0.055488 -0.715307 0.093616
0.042842 -0.086120 0.047261
0.047945 0.360361 0.380918
-0.142310 0.377402 -0.243783
-0.067255 0.262099 0.258477
-0.073796 -0.665970 -0.660241
0.102128 -0.708722 -0.646907
-0.071499 0.102507 0.232790
-0.144595 0.027414 -0.021225
0.018160 -0.477525 0.003371
0.111314 -0.020805 -0.079555
-0.075175 0.170193 0.309312
0.052673 0.480046 0.456304
-0.107296 0.369421 -0.048321
0.102296 0.064677 -0.402571
-0.094295 0.333615 0.151510
0.020754 -0.025835 -0.023778
0.025676 0.075272 0.259851
-0.000139 0.571856 -0.215421
-0.118257 0.203501 0.231101
0.050322 -0.718898 0.083056
-0.092584 0.381787 -0.023871
0.037730 0.563573 0.363534
-0.008490 0.518342 0.574285
0.177466 0.105679 0.016463
0.104612 -0.707404 0.100265
-0.019702 -0.031199 0.002834
0.052264 -0.383435 -0.027742
0.167421 0.131150 0.130123
-0.000726 0.101419 0.321697
0.156597 0.300374 -0.341603
-0.071778 -0.096836 -0.640306
-0.055138 0.481614 -0.100184
-0.181430 0.304450 -0.163477
0.141375 0.006192 0.095009
-0.098846 -0.705745 0.030043
0.007134 0.149008 -0.659439
0.168476 0.269995 -0.387271
-0.048140 0.637927 0.406951
-0.123517 0.317998 -0.480702
-0.060163 0.404883 0.442805
0.074099 0.513629 0.477926
0.195030 0.251698 -0.252667
-0.082561 -0.143458 -0.523770
-0.150466 -0.070789 -0.492574
-0.057865 0.520456 0.407589
0.038441 0.593725 0.616747
-0.149956 0.026628 -0.417832
-0.024792 -0.071273 -0.620696
-0.095077 0.052653 -0.359032
0.001889 -0.046776 -0.119132
-0.002816 0.012556 0.201155
-0.070350 -0.202955 -0.671535
-0.188591 0.144070 -0.462388
0.093330 0.381305 0.000630
-0.033742 0.323884 0.493455
0.040936 -0.316316 -0.019252
0.191273 0.284660 -0.137689
0.122377 0.045494 -0.599443
-0.146295 0.230148 -0.534772
-0.175263 0.197566 0.102121
0.156690 0.020957 -0.426529
0.078617 -0.711455 0.015684
-0.201424 0.123378 -0.069510
0.033039 -0.252996 -0.647564
0.072234 -0.081326 -0.491094
0.148064 0.310359 -0.425963
0.144065 -0.049641 -0.574453
0.057698 -0.467396 0.008190
0.026959 -0.092669 -0.628276
-0.141573 -0.025123 0.089796
0.118736 -0.179112 0.021068
-0.158318 -0.740445 -0.596906
0.107909 -0.746711 -0.572883
-0.111089 0.016501 -0.302783
-0.037107 -0.374517 -0.658467
-0.027973 0.582924 0.350680
0.048760 -0.032277 -0.047422
0.153396 0.125015 -0.335765
-0.072299 -0.305650 -0.655631
-0.117561 0.267290 -0.541453
-0.086688 -0.236037 0.056570
-0.055784 -0.012101 0.149461
-0.045684 0.176612 0.391748
0.141347 0.218224 0.198148
0.101158 -0.118675 -0.501914
-0.073037 0.121851 -0.620553
0.098521 -0.743265 0.170313
-0.072961 0.261169 0.378216
-0.189022 0.194396 -0.280522
-0.076543 -0.027835 -0.623658
-0.193906 0.255797 -0.088429
-0.074274 0.346033 -0.484308
-0.025277 0.464455 -0.062951
0.011594 -0.042993 -0.097931
0.165323 0.128257 -0.316569
-0.146455 -0.017584 -0.574337
0.051024 0.271360 0.283255
0.036204 0.394001 -0.403633
-0.004233 0.171247 0.421949
0.125099 0.098088 0.201273
0.187624 0.173949 -0.402321
0.164318 0.291670 -0.066412
0.140076 -0.741521 -0.540657
-0.137741 -0.733577 0.066912
-0.029393 -0.049688 -0.619850
0.093640 0.025897 -0.419110
-0.098108 -0.197505 -0.624376
0.045515 -0.104402 0.032887
-0.132213 0.025497 -0.288669
0.071718 0.097511 0.228529
0.169589 0.265124 -0.331238
-0.148360 -0.056395 -0.566636
-0.119382 0.057856 -0.400340
0.045071 0.055769 -0.485336
-0.126754 0.324774 -0.459314
0.100823 -0.729996 0.152886
0.155637 0.157779 -0.336588
0.053786 -0.658281 -0.644824
0.121825 -0.077503 0.020328
-0.064931 -0.293126 0.043441
0.062676 0.267750 0.304699
0.195415 0.080354 -0.212691
0.144204 -0.020241 0.052481
0.160611 -0.048029 -0.485160
0.117187 -0.049669 -0.607815
0.147020 0.193731 0.192680
-0.150164 0.344977 -0.274152
-0.106211 -0.016379 -0.044434
0.048427 0.584813 0.587878
-0.099408 -0.138689 0.094645
0.184798 0.213580 -0.447154
-0.075244 0.464576 -0.108866
0.032966 0.042083 -0.517733
-0.038412 0.528220 0.663536
-0.195230 0.170104 -0.270865
-0.075004 -0.743956 -0.599011
-0.047466 -0.114654 -0.647101
0.057487 -0.079910 0.101873
-0.162991 0.029584 -0.215869
-0.170090 0.099715 -0.407213
0.199428 0.185828 -0.057533
0.125026 -0.145397 0.072279
0.158050 0.092989 0.130112
-0.025296 -0.431333 -0.708997
0.085487 0.191606 0.280254
-0.064784 -0.040498 -0.018466
-0.204083 0.151552 -0.067607
0.040125 -0.509368 -0.682352
-0.049268 -0.046376 -0.131247
-0.121428 0.002286 -0.013071
-0.119036 0.435134 -0.261774
-0.188890 0.102075 -0.042811
-0.189665 0.143869 -0.276762
-0.073668 0.216126 0.359344
0.165655 0.202051 0.040993
-0.027274 -0.412291 -0.034575
0.043027 -0.609010 -0.636826
0.029167 0.609286 0.348713
0.144756 -0.054855 0.075217
0.175981 0.088178 -0.022610
-0.167215 0.026823 0.056112
-0.200413 0.194634 -0.261410
0.001744 0.315529 0.331402
-0.211495 0.178176 -0.099597
-0.020872 0.367576 0.502337
-0.131666 -0.746132 -0.567683
0.063623 -0.569063 -0.632603
-0.126740 0.390260 -0.130013
-0.059810 -0.215987 -0.590241
-0.129508 0.414445 -0.192360
0.120886 0.390852 -0.114633
0.210633 0.166066 -0.094619
-0.207551 0.171996 -0.080219
-0.075500 0.492063 -0.143143
0.156513 0.116163 0.140125
0.008302 0.440578 0.094542
0.020171 0.322563 0.341899
-0.198177 0.257791 -0.241115
-0.055113 0.092099 -0.623234
-0.063054 0.029620 -0.458732
0.090846 0.368382 0.085912
0.020501 0.049809 -0.599573
0.073156 0.186984 0.341123
-0.079619 -0.578787 0.029016
0.193512 0.272133 -0.238722
-0.067137 0.159960 0.325384
0.000582 0.109665 -0.453149
-0.145803 0.340058 -0.096127
0.143474 0.290934 -0.489752
0.075051 -0.181286 -0.664517
0.164342 0.027045 -0.072796
-0.101916 -0.746798 -0.516090
0.073566 0.475774 -0.119447
0.148999 0.345702 -0.115915
-0.136159 0.013047 0.007981
0.114496 0.256918 0.212932
-0.036425 0.445632 -0.051471
0.037268 -0.313495 -0.735490
-0.039489 -0.187962 0.039335
0.053093 0.076720 -0.458275
-0.089526 -0.637027 0.006511
-0.073334 0.238876 -0.589354
-0.147527 0.064137 -0.402964
-0.038197 -0.023870 0.144258
-0.139625 0.293364 0.086033
-0.093300 -0.094017 -0.632081
-0.090740 0.288408 -0.546013
0.077877 -0.019739 -0.264682
0.037329 0.532841 0.619770
-0.142885 0.324212 -0.353287
-0.162749 -0.039076 -0.480278
0.093070 -0.582902 -0.674258
0.079417 -0.045101 0.123237
-0.060914 0.382800 0.427804
0.023334 0.373719 -0.479178
0.020384 -0.337968 0.023460
-0.057484 -0.252896 -0.615714
0.005623 0.027218 0.213747
-0.026778 0.321701 -0.550897
-0.047074 0.377119 -0.435031
0.162988 0.192415 0.018936
-0.097619 0.486568 -0.190649
-0.121998 -0.149497 -0.576479
-0.074119 -0.122961 -0.513774
0.045059 0.393521 0.383342
0.046950 0.313739 -0.548606
-0.039221 0.046619 -0.501343
0.042970 -0.527852 -0.012095
-0.015612 0.430987 -0.373701
0.110767 -0.141267 0.086817
-0.124782 0.054366 -0.595510
-0.007674 0.231682 -0.642065
0.112348 -0.012495 -0.228709
-0.040873 -0.738884 0.068498
-0.038187 -0.020678 -0.286846
-0.152969 0.023365 0.025870
-0.076866 -0.646091 -0.666281
-0.091144 -0.016253 -0.259720
0.126778 -0.106987 -0.589209
0.001993 0.524489 0.352890
-0.176141 0.093190 -0.282230
-0.047879 -0.613525 -0.652777
0.067025 0.291585 0.367511
-0.086012 -0.158229 -0.647322
0.178087 0.147410 -0.512477
0.047091 -0.549342 -0.008979
0.087397 0.628800 0.357356
0.065137 -0.138410 -0.654318
-0.095614 -0.746824 -0.541205
-0.146034 0.163142 -0.563473
0.057360 0.442560 0.425723
0.156731 0.227267 0.041061
-0.062310 0.165901 0.346395
-0.074982 -0.614747 -0.672860
-0.040992 -0.123608 0.037492
-0.098002 -0.168360 -0.621636
0.167738 0.195345 -0.002240
-0.134837 0.010345 -0.035820
-0.039601 0.650303 0.485034
-0.062773 0.144117 0.312512
-0.009402 0.634947 0.542538
0.074476 -0.180696 0.080904
0.108679 0.355436 0.003368
-0.062213 -0.383132 -0.711435
-0.143027 -0.092952 0.062299
0.112992 0.021434 -0.412299
0.060608 -0.346026 0.023180
0.018824 -0.068917 -0.612320
-0.094453 0.008216 -0.427413
0.104129 0.366136 0.029656
-0.157139 0.172455 -0.547949
-0.119539 -0.744901 -0.503357
-0.020773 -0.320533 -0.001650
-0.071342 0.071294 -0.425701
0.037730 0.425292 -0.005251
-0.158709 0.238383 0.063710
-0.017221 0.099664 -0.437803
-0.059719 0.275500 0.443693
-0.192652 0.240458 -0.069036
-0.053350 0.489675 0.456037
0.015595 0.565075 0.348685
-0.019436 -0.391585 -0.032324
-0.103248 -0.746652 -0.573658
0.093862 -0.224240 -0.003584
0.100058 -0.646099 0.011900
0.016958 -0.018800 -0.599720
0.127870 -0.127737 -0.578071
0.082536 -0.623052 0.052035
0.004456 0.113497 -0.677651
-0.174510 0.012350 -0.483156
0.168444 0.065744 -0.421476
0.073047 0.033427 -0.621540
-0.025402 0.313230 0.335351
-0.147053 0.014470 -0.574068
-0.071602 -0.041537 -0.140168
0.111894 0.342338 0.064202
-0.001610 -0.062783 -0.667359
-0.137576 -0.066554 -0.582898
0.027093 0.642875 0.392005
-0.097655 0.496994 -0.212557
-0.130086 0.372665 -0.112123
-0.036966 0.375886 -0.455722
-0.170948 0.296695 -0.088037
-0.169604 0.142697 -0.002141
0.023359 0.331891 0.210464
-0.042406 -0.180810 -0.669333
0.048234 -0.152338 -0.568280
-0.034472 0.564936 0.359277
-0.172304 0.264985 -0.048581
0.103149 0.097838 0.214822
-0.208210 0.103874 -0.187386
-0.110654 -0.720265 -0.528945
0.034102 0.599856 0.585602
-0.040235 0.380150 0.377436
0.024385 0.440064 0.078982
0.106507 -0.090034 0.010219
0.005385 -0.029727 0.001352
-0.106347 -0.013013 -0.241496
-0.189319 0.147602 -0.429019
0.038699 0.064588 0.235477
0.013682 -0.353526 -0.670945
-0.145694 0.159204 0.189349
-0.191474 0.250660 -0.262561
-0.069580 0.604504 0.338927
-0.007464 0.506456 0.523711
0.062460 -0.397285 0.022535
0.210944 0.143116 -0.224425
0.165068 0.218114 0.058690
-0.048694 0.063475 -0.474025
-0.070497 0.281524 0.372458
-0.039167 0.065942 0.235802
0.003012 0.332008 0.503908
-0.091613 -0.158559 -0.537560
-0.163320 0.027473 -0.546877
0.001273 0.222700 0.465384
0.189476 0.291462 -0.175222
-0.181974 0.158155 0.056758
0.181070 0.162474 -0.294089
-0.215521 0.169634 -0.219855
0.186780 0.139237 -0.473805
-0.114765 0.230957 -0.565931
-0.052089 -0.742816 0.026215
0.035638 -0.609941 0.015744
0.046363 -0.126700 -0.555725
-0.161757 0.148641 -0.546681
-0.206838 0.127738 -0.091426
-0.115586 0.405840 -0.121448
-0.159512 0.072038 -0.554287
-0.021764 -0.487701 -0.007461
0.177480 0.062218 -0.472917
-0.102395 -0.029651 -0.127107
-0.156516 0.057821 0.114541
-0.069824 -0.381027 0.001126
0.146376 0.001577 -0.174205
-0.079283 0.355545 0.144452
0.032321 0.445783 -0.048389
-0.133838 0.253945 -0.535383
0.172626 0.030637 -0.153139
-0.135734 -0.745358 -0.598679
-0.129654 0.341126 -0.344054
0.095986 -0.242920 0.005732
-0.135993 0.291379 0.065402
-0.089266 0.480501 -0.157010
-0.172362 0.310674 -0.115338
-0.147507 0.255627 -0.517036
0.121241 -0.619859 -0.649962
-0.122331 0.413114 -0.151984
0.169819 0.025446 -0.114026
-0.040243 -0.237102 0.005012
-0.034229 -0.016119 -0.529194
0.026041 0.060877 -0.526883
0.042304 -0.637078 0.062097
0.137170 -0.002554 -0.194253
-0.071722 0.043616 -0.361820
-0.194588 0.217738 -0.057074
0.146486 0.074592 -0.574544
0.023763 0.410725 0.499488
-0.122753 0.022090 -0.597864
0.119260 0.336562 0.000638
0.141620 0.314218 -0.445759
-0.035958 0.382994 0.494522
0.096856 -0.604327 -0.626406
0.020733 -0.404599 -0.684060
-0.074437 0.534963 -0.242459
0.005806 -0.393700 0.019131
0.119442 -0.018183 -0.183491
-0.022965 -0.287059 -0.686062
0.036096 0.648030 0.434862
-0.150011 0.105058 0.143220
-0.004296 0.438812 -0.024593
-0.012135 -0.385632 0.029000
-0.089566 -0.614909 0.041243
0.072160 -0.407650 -0.691833
-0.031151 -0.045258 0.095550
-0.118924 0.439744 -0.186235
0.167333 0.151469 0.134294
-0.099946 -0.127002 -0.509665
-0.043912 0.541172 -0.164754
-0.047605 -0.645524 -0.611697
-0.073433 0.015949 -0.446566
0.079635 0.488356 -0.146894
-0.023642 0.361823 0.185990
-0.041328 -0.077596 0.058746
0.128807 0.306713 0.047184
0.093826 0.459315 -0.138684
-0.206935 0.112351 -0.106556
0.077605 0.268514 -0.572422
0.122828 0.409042 -0.279583
-0.162866 0.017984 -0.167164
-0.182693 0.148443 0.097153
-0.142188 0.376570 -0.166637
0.040113 -0.174122 0.051853
-0.121595 0.335833 -0.016426
-0.007751 0.302181 0.317577
-0.082887 0.394953 0.000653
-0.134141 -0.666717 -0.619697
0.146182 -0.004848 0.068031
0.054874 -0.065208 0.020129
0.136405 -0.071013 -0.475071
-0.170370 0.155409 -0.357151
-0.071994 0.414891 -0.343406
0.030077 -0.284764 0.029049
0.206885 0.100674 -0.186428
0.135526 0.362103 -0.108690
-0.024587 0.493790 0.497658
0.177477 0.045541 -0.075719
-0.017969 0.529555 0.355980
0.070362 -0.742669 0.171361
-0.097595 -0.209255 -0.602371
-0.167353 0.037421 -0.059005
-0.047097 0.027767 -0.353556
0.022759 -0.291052 -0.715956
-0.147310 0.293908 -0.477271
0.011801 0.112042 -0.593381
0.148341 -0.745612 0.092136
0.051500 0.605948 0.529675
-0.175672 0.223828 -0.480886
0.027133 0.524511 0.597053
-0.027455 0.510840 0.624120
0.010428 0.054925 -0.664832
-0.173982 0.179250 -0.345518
0.040194 0.434941 -0.358487
0.055364 0.073331 0.226670
-0.133373 0.391815 -0.264531
0.183927 0.124585 -0.027247
-0.084576 -0.655788 0.071534
0.145523 -0.746829 0.115614
0.057173 0.565046 0.585959
0.054883 0.449635 0.454639
0.026560 0.100859 -0.610456
0.071958 -0.239566 -0.015142
-0.018144 -0.318464 -0.664137
-0.082168 -0.046434 0.123725
-0.044934 -0.262162 0.050923
-0.177380 0.091380 -0.498531
-0.057893 0.365166 -0.456159
-0.182296 0.162794 0.077883
0.015188 0.476845 -0.346491
-0.132667 -0.047481 0.100824
0.070491 -0.667390 -0.588776
0.052640 0.550817 0.545480
-0.118877 -0.152664 0.015437
0.055110 -0.608202 -0.618407
0.068128 -0.457066 -0.694883
-0.186749 0.167253 -0.476376
-0.075478 -0.025820 -0.250044
-0.137982 -0.715810 0.083703
0.092948 0.275379 0.220467
0.012639 -0.049521 -0.197738
-0.129606 0.416105 -0.217128
0.140685 0.375735 -0.262247
0.088055 -0.241977 -0.644225
-0.164625 -0.741809 -0.517910
-0.104143 -0.020975 -0.613152
0.203368 0.105028 -0.100251
0.143017 0.105152 -0.348453
-0.095612 -0.067203 0.010243
-0.046085 0.585783 0.612219
-0.153764 0.032105 -0.565387
0.007929 0.245164 0.477972
0.082666 0.417135 -0.064560
-0.039492 -0.037075 0.002419
0.048033 -0.665921 -0.624361
0.065195 -0.198460 -0.573247
0.131422 0.068346 -0.590816
0.059210 0.392997 0.459108
-0.041469 0.495788 -0.322819
0.184701 0.203179 -0.372936
0.173829 0.035843 -0.450044
-0.054169 0.478469 0.403579
0.120773 0.359180 -0.323352
-0.068700 -0.189984 -0.010218
0.121509 -0.725879 -0.646102
-0.069831 -0.297309 -0.011029
0.028095 -0.030770 -0.271355
-0.111363 -0.205561 0.019976
-0.056684 0.489096 0.435331
0.188679 0.192043 -0.450065
0.027910 -0.452392 -0.021293
-0.143133 0.357253 -0.120706
0.005402 0.631048 0.354074
-0.005345 0.162319 -0.672274
0.193225 0.155731 -0.274335
0.115945 -0.198415 0.046751
-0.185692 0.103342 0.042959
0.173621 0.164784 0.119153
-0.018485 0.563186 -0.184448
0.144469 0.217294 -0.544092
-0.004778 0.535116 0.620732
0.147918 0.278103 0.084561
-0.096672 -0.077819 -0.471073
-0.101110 -0.221531 0.006078
-0.036171 -0.658179 0.062984
0.033072 0.640722 0.522025
-0.195344 0.072382 -0.103776
0.035726 -0.235384 -0.636117
-0.121231 0.371243 -0.086962
0.146374 0.087927 -0.335273
-0.165793 0.168395 0.005160
0.161881 0.015613 -0.547870
0.104594 0.357118 -0.390239
0.085345 -0.604097 0.038208
-0.066189 0.202904 0.373437
-0.047207 0.584871 0.369432
-0.101848 0.491834 -0.232573
0.047231 0.538231 -0.163393
0.017822 0.165980 0.409618
0.048464 0.428748 0.049396
-0.114318 -0.155450 -0.555623
0.052120 -0.415473 0.029939
-0.207719 0.101068 -0.141807
-0.072915 -0.588900 -0.000457
0.068671 -0.040189 -0.097805
0.170610 0.221366 0.085439
0.195677 0.163964 -0.048203
0.091614 -0.200670 -0.008089
0.102922 -0.022352 -0.206330
0.168355 0.142460 -0.000237
0.004267 0.539613 -0.302503
0.049016 -0.232045 -0.608365
0.170134 0.264765 -0.043048
-0.189622 0.069278 -0.212364
-0.001724 0.650935 0.521453
-0.010615 -0.034673 0.024549
0.137715 0.289408 0.026920
-0.042188 -0.144829 0.023371
0.175026 0.139084 -0.382148
0.166551 0.075534 -0.009270
0.131275 0.072184 -0.345230
0.041857 -0.594103 0.003531
-0.073663 -0.337159 -0.706057
0.094743 0.373700 0.062047
-0.079218 -0.236698 -0.661176
0.047465 0.352581 0.185094
-0.058548 0.055816 -0.456237
0.137330 0.324304 -0.053078
-0.048010 0.083252 -0.467262
0.011281 0.095269 -0.668824
-0.145181 -0.002020 -0.428859
-0.056331 0.565693 0.602651
-0.037009 -0.249226 0.036030
-0.074131 0.590384 0.486082
0.103588 -0.239596 0.025699
-0.156600 0.121298 -0.556559
0.126490 -0.161945 0.033310
-0.022091 0.063723 -0.531458
-0.024030 0.147557 0.379829
0.027225 -0.377877 -0.031711
-0.096518 0.280246 0.213074
-0.012989 0.439536 0.094855
-0.033363 0.289423 0.308746
-0.064807 0.402154 0.090569
-0.050645 -0.440557 -0.708903
0.168136 0.215312 -0.008858
-0.072937 0.632445 0.331376
-0.115673 -0.022873 -0.109473
-0.168016 0.100138 -0.301310
0.045591 -0.362391 -0.023925
0.178170 0.177886 -0.507541
-0.186155 0.138480 0.063238
0.093600 0.234472 -0.579410
-0.180703 0.085998 -0.474761
0.072874 0.521760 -0.181874
0.045877 0.278504 0.256122
0.003695 0.418663 0.503959
0.169383 0.230434 0.105772
-0.212529 0.125236 -0.131586
-0.026821 -0.320304 0.028521
-0.073319 -0.592840 -0.677168
-0.164167 0.259437 -0.478156
0.025499 -0.340663 -0.658382
-0.134958 -0.098118 0.081750
-0.115105 -0.067156 -0.460749
-0.080972 -0.659673 0.005478
-0.000318 -0.385997 0.000100
-0.020750 -0.091627 -0.614748
0.120800 -0.742616 -0.524856
0.035714 -0.033276 -0.063771
-0.022418 0.363592 -0.499640
-0.004148 0.144379 -0.571317
-0.098547 0.124403 0.228913
-0.043019 0.441295 0.478702
0.046139 0.073133 -0.621626
-0.092151 -0.687408 0.022977
-0.135603 0.000813 0.026697
-0.143167 0.105508 0.162968
-0.056962 0.357737 -0.475874
0.057552 0.549135 0.625802
-0.032329 -0.375153 -0.031145
-0.031006 -0.041011 0.028681
0.019625 0.629691 0.538497
0.015194 0.073464 -0.594535
0.132397 -0.060195 0.097841
0.049461 0.370511 -0.451981
0.120519 0.428665 -0.264806
0.149311 -0.744963 0.151429
-0.081556 -0.352756 -0.691954
-0.107616 0.028165 -0.323215
0.015847 -0.338430 -0.001348
-0.138243 0.108552 -0.371435
0.072040 -0.137673 0.096460
0.020828 0.557165 0.664324
0.048459 0.106008 -0.439739
-0.113070 0.421429 -0.135399
0.194274 0.143007 -0.046386
0.059836 0.088643 -0.438995
-0.036057 0.401672 0.377103
-0.053078 0.284678 0.461616
-0.046399 0.005525 0.180070
-0.066315 0.005230 -0.463916
-0.121414 0.440597 -0.231003
-0.041665 -0.342162 -0.738263
-0.183089 0.260611 -0.067457
0.049058 0.446488 -0.062542
0.057418 0.048724 -0.372755
-0.037731 0.346032 0.493263
0.153651 0.305609 -0.362450
0.032780 -0.657152 0.049124
0.014981 0.521604 0.569497
0.048897 -0.097362 -0.641388
0.209713 0.236724 -0.137862
-0.000069 0.524427 0.643075
0.092354 0.153107 -0.606781
0.025198 0.612115 0.548548
-0.071915 -0.720223 -0.563409
0.152236 0.206484 0.176246
-0.072745 0.509644 0.462467
0.074325 -0.553576 0.003610
-0.152630 0.027769 -0.040390
-0.121971 -0.092405 0.019474
0.204028 0.259273 -0.144580
-0.127823 0.146530 0.216472
0.065588 0.628622 0.506280
-0.001049 0.611988 0.625719
-0.084190 0.271357 0.230498
-0.026626 -0.504051 0.020181
-0.102349 0.186580 -0.591761
0.048838 0.359761 0.481482
-0.041723 -0.459162 -0.657000
-0.096116 -0.098764 0.110845
0.148608 0.012721 -0.063507
0.031726 -0.154190 -0.621742
-0.049187 0.308618 0.476702
0.031671 0.121341 0.333195
0.009667 -0.438312 -0.010615
0.097493 0.413279 -0.089223
0.158576 0.291968 -0.419250
-0.101212 0.360591 -0.385112
-0.019542 0.113766 -0.510947
0.136669 0.007956 -0.045633
0.095337 -0.028487 -0.004716
0.076178 -0.335207 -0.667548
-0.063956 0.039909 0.192557
-0.025825 0.079934 -0.516657
-0.081419 0.582617 0.468280
0.048798 -0.404889 -0.031383
0.217345 0.149185 -0.183048
-0.047987 0.126734 0.319399
-0.022883 0.288079 -0.585419
-0.060774 -0.382947 -0.659312
-0.053572 -0.191098 0.071835
0.193921 0.087304 -0.068303
0.121891 0.278091 0.184094
0.042408 -0.021947 -0.286029
0.060999 0.460375 -0.331446
0.216457 0.184800 -0.135563
-0.169130 0.223207 -0.014449
-0.014841 -0.044206 -0.596384
-0.048228 -0.552918 0.037476
0.036884 -0.654006 0.028847
0.032241 -0.040109 0.023288
0.065710 -0.046768 -0.002255
0.170057 0.014075 -0.451815
0.062911 -0.707881 0.097635
-0.040702 0.131010 0.338918
0.171448 0.070940 0.010902
0.062221 0.172328 0.356307
0.188034 0.176575 -0.466120
-0.116715 0.211678 -0.573081
0.063234 -0.132253 -0.530973
0.181296 0.084498 0.026483
-0.025766 0.609522 0.613556
-0.113797 -0.059543 0.016396
-0.052365 -0.037890 -0.079314
-0.110522 -0.106387 0.008555
-0.049891 0.607273 0.371804
-0.086883 0.002258 -0.617758
0.046114 0.099602 -0.622727
0.023305 -0.038073 -0.080760
-0.162249 0.094179 -0.547600
0.025896 0.548203 0.355907
0.183173 0.073572 -0.046942
-0.062915 0.361749 0.431572
-0.044589 -0.010088 -0.304087
-0.054084 -0.046382 -0.170492
0.091898 0.383492 -0.027642
0.103235 0.162273 0.238113
-0.022457 0.289589 0.491760
-0.122686 0.424128 -0.173077
-0.174266 0.188807 -0.511362
0.043566 -0.126458 0.028365
0.098391 -0.143030 -0.524898
0.174837 0.015206 -0.478733
-0.175835 0.040251 -0.080388
-0.020527 0.026644 -0.599605
0.144767 0.270503 0.020449
0.059755 -0.029295 -0.486387
-0.188821 0.179797 -0.454112
-0.137007 0.323506 -0.425902
0.036769 -0.064551 0.055728
-0.107296 -0.658118 0.058547
-0.146389 -0.024701 0.067990
-0.060996 0.003376 -0.620416
-0.161740 0.314607 -0.093730
0.195464 0.269145 -0.116037
0.055134 -0.441633 0.013505
0.041831 -0.037644 -0.521083
-0.108187 -0.224029 0.030959
-0.124977 0.342200 -0.367880
0.109680 -0.061508 0.014801
0.122091 0.439761 -0.207266
0.022927 -0.505381 -0.000080
-0.025003 -0.067950 -0.568592
-0.155154 0.244815 0.006018
-0.214487 0.151976 -0.122093
-0.055991 -0.311952 -0.017145
0.065722 0.639825 0.358310
-0.022149 0.542376 -0.141270
-0.021154 0.081579 0.273681
-0.033325 -0.309134 -0.652769
0.027382 0.589894 0.650481
0.086759 -0.745997 0.115344
-0.150217 -0.718851 -0.598121
0.092575 0.291797 0.206796
0.001178 0.562054 0.668825
0.072755 0.252424 0.281436
-0.048195 -0.578381 -0.634108
0.050719 -0.142734 0.084721
0.145895 -0.002645 -0.124759
0.046565 -0.593428 0.047701
-0.042720 -0.103488 0.045127
0.070784 -0.736209 -0.662282
-0.086640 0.495020 -0.172084
0.046075 0.339429 0.370829
-0.051163 -0.406119 -0.716743
-0.017255 -0.405177 -0.711752
0.088778 -0.032055 -0.193657
0.134192 0.374130 -0.127045
0.130935 -0.129406 -0.554407
0.128510 -0.720273 0.121216
0.124656 0.293030 0.161208
-0.176021 0.176688 -0.011213
-0.030762 -0.424935 -0.669196
0.006492 0.397187 0.504988
-0.013470 0.302112 0.243113
0.132989 0.346230 -0.312691
0.064431 -0.707389 -0.600515
0.132289 -0.736472 0.142807
-0.049130 0.529783 0.607664
0.047695 -0.714184 0.056298
-0.050896 -0.736179 0.126262
0.023003 0.417996 0.370844
-0.023048 0.513324 0.509830
0.050418 -0.740422 0.089952
-0.050895 0.566033 0.379827
-0.032459 0.216845 0.449110
0.056309 0.464818 0.415796
-0.171882 0.027314 -0.141450
-0.172458 0.165261 -0.523591
-0.144210 0.290797 -0.010520
-0.012727 0.397500 0.157279
0.147240 0.319290 -0.330254
-0.131398 0.226458 -0.553563
0.144961 -0.722164 -0.546813
0.181163 0.109980 -0.285194
0.063476 0.581677 0.393081
-0.085549 -0.746518 0.142735
0.058734 0.352577 0.464786
0.112867 0.335804 0.085967
-0.049715 -0.434752 0.023662
-0.170153 0.217664 0.114688
0.167620 0.144010 -0.363172
-0.111841 0.003618 0.141383
-0.098064 0.151929 0.238385
-0.054917 0.554807 0.570713
0.159971 0.334197 -0.132570
0.096255 0.444772 -0.300936
-0.019808 -0.028818 -0.048304
0.051109 0.493607 0.476502
0.072026 -0.430750 -0.689740
0.071046 0.405657 -0.009545
0.121894 -0.744161 0.120063
-0.107283 0.391627 -0.082786
0.081515 -0.560934 -0.640238
0.047001 0.432652 0.475108
-0.167845 -0.021323 -0.522688
0.032584 0.281464 0.286890
0.085060 0.513498 -0.257628
-0.012639 -0.306742 -0.680217
-0.057942 -0.460824 0.003977
-0.117922 0.309817 -0.500000
-0.038810 0.094304 0.278256
0.073051 -0.093343 -0.639207
-0.076121 -0.698509 0.093778
-0.138372 -0.098210 0.037413
0.088720 -0.131874 -0.642154
-0.120156 -0.009248 -0.225992
0.031104 0.345956 0.196376
0.059381 0.122159 0.285124
-0.151633 0.308854 -0.366282
0.169905 0.326444 -0.193124
0.145640 0.285889 0.120196
-0.158499 -0.723624 -0.532098
-0.152948 0.259621 0.139384
0.074456 -0.356327 -0.668508
0.199874 0.106494 -0.079399
0.084289 0.049313 -0.417411
0.142522 0.044951 -0.579041
0.021613 0.003495 -0.602574
0.036448 -0.175869 -0.610651
0.134842 0.327868 -0.404633
0.049267 0.636600 0.403887
0.145724 -0.717699 0.106630
0.015008 -0.374482 -0.679149
0.130371 0.396923 -0.153850
-0.000651 0.595078 0.344199
-0.063614 -0.676183 -0.593446
0.010277 0.183115 0.431071
0.016904 -0.310112 -0.724445
0.058012 0.430965 0.444844
-0.008668 0.497399 0.645914
-0.074089 -0.326796 -0.662753
-0.114832 -0.631266 -0.621350
0.161203 0.267616 -0.477202
0.115908 -0.164694 0.070921
-0.057483 -0.552047 -0.682283
-0.087460 -0.041481 0.002213
0.149384 0.193872 -0.549525
-0.056474 0.545384 0.619134
-0.033143 -0.197867 -0.659002
0.061393 0.219652 0.402024
-0.041670 -0.166619 0.021809
0.058870 -0.081030 -0.508156
-0.079122 0.526958 0.472796
0.105536 0.484177 -0.228227
0.203015 0.129354 -0.076232
0.070738 0.617460 0.352199
-0.012664 -0.363346 0.018960
0.185787 0.061174 -0.209413
0.097067 0.010182 -0.306794
-0.126765 -0.712080 0.101197
0.059671 -0.726784 -0.589447
-0.052981 0.322613 0.370036
0.006277 0.121197 -0.570921
0.067800 0.624632 0.407926
-0.074628 -0.386634 -0.675482
0.082847 -0.297769 0.015118
-0.164832 0.219075 0.059637
-0.148424 0.365853 -0.227350
-0.120738 0.027037 0.154678
-0.194135 0.067072 -0.175593
-0.009859 0.099886 -0.549810
0.077987 -0.039059 -0.120705
-0.075221 -0.743242 -0.531931
-0.066200 0.509626 0.438498
0.047571 -0.153865 0.013238
0.023841 0.433196 0.497487
0.049284 -0.034460 -0.624368
-0.129024 -0.652507 -0.647543
-0.145612 0.008672 0.089209
-0.020270 0.067328 0.251994
0.161797 0.286572 -0.359707
-0.183017 0.303160 -0.216316
-0.077866 0.240751 0.301938
0.058191 0.417100 0.424983
0.118461 0.443740 -0.250823
0.110987 -0.743253 -0.639673
-0.049977 -0.481348 -0.014965
-0.053148 0.339028 -0.513169
0.100686 -0.746815 -0.528372
0.112392 0.238327 0.225869
-0.137498 -0.007222 0.100170
-0.196020 0.216832 -0.265735
0.055231 0.181633 0.381667
0.080547 0.536203 0.478640
-0.096818 0.315717 0.174554
0.049493 -0.112455 -0.540641
-0.053930 -0.194442 -0.583887
-0.051652 -0.604111 0.000050
0.077517 0.070439 -0.418014
0.135689 -0.116490 0.069841
-0.178070 0.053109 0.039679
0.047682 -0.019787 -0.505200
-0.092264 0.379425 0.057414
0.059101 -0.719267 0.015004
-0.145693 0.210188 -0.546128
-0.067618 -0.229099 -0.676575
0.017899 0.151645 0.390285
0.110247 0.318064 0.148941
0.037241 0.460671 -0.346726
-0.155268 0.268096 0.119542
0.119870 -0.020699 -0.161150
-0.076422 0.292136 0.218519
0.068244 0.037042 0.189087
0.073631 0.605861 0.503156
0.182155 -0.745543 -0.525470
-0.147575 0.298877 -0.036087
-0.145537 0.229143 0.182300
-0.003037 0.352308 0.199134
0.115483 -0.070524 -0.611508
-0.138128 0.295127 0.010373
-0.018344 -0.047261 -0.126164
0.162757 0.248872 0.092719
0.154336 0.294416 -0.446412
0.071483 -0.127461 -0.001856
-0.044018 0.130872 -0.623599
0.081287 0.318155 -0.521776
0.023435 -0.020710 -0.553111
-0.020020 0.527198 0.634756
-0.049988 -0.649644 -0.641584
-0.065280 0.339315 0.432232
0.075253 0.170535 0.312436
0.073362 -0.706395 -0.579064
0.121137 -0.133415 -0.533163
-0.196402 0.276479 -0.167705
-0.121803 -0.737999 -0.522781
0.073627 0.535169 -0.242409
-0.034469 -0.486415 -0.668792
0.074568 -0.296095 0.037224
-0.072892 -0.146639 0.093212
-0.145144 0.273461 0.071840
0.203143 0.222182 -0.082674
-0.145328 0.271839 0.013805
-0.008999 0.050028 -0.381038
0.050729 0.232008 -0.600865
-0.180676 0.123499 -0.287436
0.024246 0.259904 0.479942
-0.151191 0.314623 -0.070751
0.145642 -0.094356 -0.551358
0.131727 -0.011153 -0.101319
-0.139871 0.385462 -0.222873
0.064578 0.096775 -0.420446
-0.094031 0.386462 -0.044172
-0.103329 0.360251 0.060457
0.122115 0.021914 0.148030
0.048163 0.124201 0.315802
0.081918 0.085280 0.215235
-0.201923 0.100347 -0.218490
0.093493 0.084764 -0.401300
-0.038792 0.152539 -0.621441
0.029993 0.422069 -0.371757
0.171964 0.317598 -0.140301
-0.037074 0.002282 -0.323613
0.144359 0.128356 -0.354782
0.063503 -0.740766 -0.642742
0.150612 0.023670 -0.042983
0.050908 0.022433 0.189735
-0.090690 -0.207580 -0.008709
-0.129328 -0.686178 -0.625489
0.069807 0.253743 -0.585556
0.038067 0.310923 0.221910
0.079656 -0.081367 0.114915
0.072503 0.602876 0.405676
-0.075013 0.638007 0.358744
-0.142974 0.366719 -0.144157
0.050428 -0.040004 -0.078979
0.169082 0.182988 -0.525559
-0.020641 0.632214 0.356490
0.160322 0.211316 0.010276
-0.098576 0.374793 0.006339
-0.182911 0.240336 -0.047599
-0.077022 0.157750 0.284368
-0.098477 0.638629 0.320647
-0.086814 -0.746724 0.165540
0.028849 0.560711 -0.193583
0.081102 -0.038279 -0.461605
-0.013254 0.547306 -0.292761
0.196268 0.120810 -0.057386
-0.159769 0.290719 -0.372106
0.159471 0.201683 -0.533130
0.203655 0.158901 -0.067803
0.092117 -0.632592 -0.669645
0.115226 0.072385 -0.603279
-0.143799 0.265660 0.051822
-0.131895 -0.094529 -0.495421
0.170065 -0.719553 -0.555060
-0.039816 -0.166167 0.053917
0.122130 0.173528 0.227879
-0.170773 0.074423 -0.523817
0.048649 -0.181399 -0.583348
-0.152202 0.088565 -0.565550
-0.049926 0.414699 0.100710
0.059755 0.363553 0.408274
0.048119 -0.533126 -0.643338
-0.106890 0.150876 -0.598705
0.042273 -0.659262 0.070625
-0.045318 -0.068983 -0.632521
0.069292 0.559311 0.405558
-0.071804 0.615010 0.472636
-0.079916 -0.224211 -0.593674
0.177734 0.167190 0.043667
-0.003555 -0.039239 -0.083265
-0.107011 -0.741699 -0.654285
-0.081724 0.387149 -0.357702
0.206389 0.230261 -0.103857
-0.049841 -0.177245 0.004317
-0.052376 0.345379 0.477349
0.165004 0.313118 -0.099572
0.050447 0.345280 -0.504173
0.174762 0.143725 -0.303240
-0.183938 0.049812 -0.098316
0.122188 -0.710785 0.046314
0.077256 0.115695 0.236624
0.075934 0.054722 -0.621466
-0.116313 -0.060806 -0.610162
-0.155310 0.309958 -0.313289
0.071792 -0.423931 -0.667607
0.134534 -0.136326 0.054983
0.001331 0.193629 -0.638272
-0.135581 -0.116749 0.069736
0.071031 0.267728 0.334712
-0.080857 0.324708 0.185253
0.072873 -0.117301 -0.646372
0.126451 0.303951 -0.497545
0.050265 -0.533284 0.033406
-0.022801 -0.094573 -0.593328
-0.072943 -0.285400 -0.687282
0.096178 -0.259750 0.027742
-0.076903 0.401069 0.056725
-0.166395 0.009328 -0.536131
-0.045789 -0.258379 -0.009623
0.089715 0.119579 -0.613814
-0.146456 -0.050186 0.056665
-0.175286 0.311086 -0.135778
0.152731 0.297905 -0.048422
0.139008 0.376884 -0.150350
0.083427 0.025066 -0.336122
0.066525 -0.527683 0.018352
0.208110 0.131696 -0.096987
-0.133607 0.052641 -0.322439
0.018085 -0.384635 0.035069
-0.212013 0.184588 -0.234077
-0.125154 -0.630026 -0.646413
0.163885 0.277705 -0.434006
0.066204 0.318685 0.430398
0.119710 -0.149519 -0.584930
0.142277 0.234901 0.185686
-0.080996 -0.714898 -0.652596
-0.054004 0.021897 -0.478638
-0.032728 0.626247 0.530831
0.021290 0.286701 0.269510
-0.140131 -0.006517 -0.153234
-0.073630 0.122417 0.245046
0.080165 -0.362035 -0.687782
0.155548 0.331495 -0.272313
0.173844 0.196810 -0.304259
0.024863 0.164544 -0.614891
-0.073556 0.605915 0.503170
-0.039166 0.002602 -0.614893
0.117327 -0.652090 0.036932
-0.184318 0.153064 -0.397133
0.154059 0.273722 0.105453
0.065807 -0.379484 -0.011807
-0.185180 0.273153 -0.262712
-0.002891 0.630559 0.562713
-0.120432 0.120142 0.214853
-0.072262 -0.743283 -0.619830
0.218270 0.175148 -0.163422
0.101019 0.336425 0.129998
0.119521 -0.085360 0.103526
-0.042232 -0.266647 -0.635533
0.122618 0.100361 -0.596477
-0.037685 0.556460 -0.193367
-0.059613 -0.294157 -0.641618
-0.100660 0.413397 -0.095605
-0.085154 0.177960 0.270964
-0.044817 0.274661 -0.586469
0.082848 -0.743768 0.024791
-0.124854 -0.115902 0.020061
-0.088781 -0.027922 -0.051383
0.168136 0.187667 0.131981
-0.030029 -0.352209 -0.657395
-0.170115 0.029120 -0.524959
0.183231 0.124654 -0.420836
0.214685 0.177662 -0.221707
0.005141 0.324855 0.221410
0.174808 0.073733 -0.273462
0.194930 0.226935 -0.063929
-0.160534 0.165002 -0.337632
-0.115404 -0.703602 -0.635512
-0.057750 -0.603291 -0.668346
0.159752 -0.717458 -0.575539
0.082077 -0.744484 -0.519095
-0.090832 0.511577 -0.225690
-0.021191 0.528688 -0.123734
0.094132 0.051394 -0.357646
-0.178186 0.239385 -0.347527
0.020043 0.405871 -0.396706
0.133519 -0.697939 -0.592075
0.142262 0.107037 0.166321
-0.083965 0.196274 0.296866
0.040626 -0.139705 0.063549
0.032151 -0.262511 0.022033
-0.001000 0.620347 0.605658
-0.124461 -0.014606 -0.089929
0.106370 -0.220503 0.015456
0.100729 -0.633925 0.045143
-0.119594 0.338046 -0.431080
0.094208 0.307135 0.189376
0.062751 -0.062202 -0.494380
-0.073847 0.560098 0.415557
-0.170281 -0.719302 -0.550690
0.108010 -0.070576 -0.463659
-0.027767 -0.041763 -0.551740
0.024534 0.505743 0.633328
-0.025293 0.086879 -0.420904
-0.126754 0.319938 0.027371
0.111469 -0.602114 -0.644068
-0.101428 0.261833 0.222642
0.054664 0.542262 -0.182359
-0.083617 0.563864 0.457793
0.020347 -0.027332 -0.045756
0.148968 0.000824 -0.151279
-0.007152 0.588752 0.656835
0.098474 -0.721304 0.017962
-0.058083 0.407513 0.418688
-0.049079 -0.137055 -0.558762
-0.030091 -0.466615 0.024169
0.026136 0.482451 0.364735
0.085645 -0.746586 0.152367
0.048463 -0.628119 -0.648589
0.186616 0.198858 -0.284111
0.052159 -0.027927 -0.268243
-0.103624 0.420724 -0.302813
-0.094729 -0.628174 -0.608339
-0.080550 -0.068931 0.118090
0.071456 0.129441 -0.620291
0.056860 -0.174114 -0.565453
0.112930 0.408257 -0.297927
0.066199 0.161726 0.332769
0.170286 0.307948 -0.264386
0.006575 0.074148 -0.673596
-0.074222 -0.117340 -0.645822
0.066868 -0.026849 0.126744
0.028424 0.079911 -0.610519
-0.190274 0.182146 -0.429710
0.053020 0.413562 -0.361246
-0.161060 0.291215 -0.058150
0.057978 0.505821 -0.304889
0.032405 -0.237657 -0.676778
-0.123898 0.280683 0.178161
-0.053564 -0.314302 -0.649639
-0.051648 0.235350 0.434815
0.169903 0.050003 0.022325
-0.012626 0.651292 0.470436
0.129196 0.362952 -0.301042
-0.076589 0.355788 -0.459060
0.122814 -0.105919 -0.500363
-0.118231 0.335487 0.044535
0.028087 0.092368 0.287494
0.114414 -0.127659 -0.601997
0.087013 0.368255 -0.397202
-0.170630 0.316285 -0.251062
0.025224 0.359806 0.500595
0.122489 -0.746471 0.096474
-0.002821 0.513033 0.551274
0.046259 -0.023436 0.132302
-0.028346 -0.029349 -0.614630
0.214734 0.129052 -0.176226
-0.165852 0.123961 -0.312380
0.106381 -0.187675 -0.600210
0.195803 0.073320 -0.186537
0.112326 0.066322 -0.359443
-0.143041 0.121746 0.177880
0.138075 0.184665 -0.565246
-0.041421 0.339589 0.367149
0.143337 0.267624 0.041511
0.045723 -0.487874 -0.650942
-0.103864 -0.216863 0.051972
-0.055666 -0.338237 -0.655191
0.058659 0.301449 0.456886
0.072495 0.011456 -0.446052
-0.062939 -0.528953 0.024242
0.136806 -0.040067 0.095713
-0.034333 0.247944 -0.607020
-0.085877 -0.024808 -0.451489
0.086487 0.027673 0.176717
-0.065601 -0.637093 -0.600888
0.162976 0.124550 -0.546587
-0.043367 -0.118996 0.072983
-0.066173 0.064978 -0.385368
-0.001830 0.368737 -0.503005
0.041031 0.532744 0.369546
-0.040768 0.560449 -0.217185
0.081294 -0.033699 -0.071047
0.068578 0.398565 -0.359978
-0.172767 0.074412 -0.425878
0.045180 -0.644080 -0.630664
0.079452 0.401164 -0.034530
-0.102311 -0.144614 -0.002305
-0.055428 0.057970 0.211237
-0.088001 -0.202654 0.070640
-0.066650 -0.523005 -0.644388
-0.058681 0.183485 0.373619
-0.090147 0.510077 -0.246780
0.010731 -0.034757 0.025745
0.054824 0.197977 0.397883
0.194495 0.207605 -0.054045
0.123147 -0.669775 -0.603650
0.027199 0.457252 0.493065
-0.073822 -0.707322 -0.634625
-0.106255 -0.144838 -0.531518
0.073853 0.043507 -0.361026
-0.133199 0.016921 -0.268773
-0.063680 0.069065 -0.622685
-0.188328 0.294177 -0.192539
-0.196862 0.148293 -0.048520
0.078657 -0.281299 -0.674322
0.040495 0.176943 0.400108
0.128697 0.419926 -0.212069
0.119728 0.446407 -0.226744
-0.139619 0.388536 -0.199021
0.140787 -0.712128 -0.566252
-0.104795 0.448772 -0.284114
0.072991 0.107594 -0.621428
0.120141 0.204007 -0.573217
-0.118212 -0.137454 -0.594754
-0.091895 -0.731471 -0.665226
0.144827 0.374288 -0.215153
0.035451 0.306400 0.332267
-0.048747 0.488200 0.385022
-0.063583 -0.508874 0.014710
0.029900 -0.418094 -0.669811
0.046436 -0.042594 0.006686
0.051765 0.052975 -0.621400
0.025379 0.317463 -0.556522
0.059321 -0.345870 -0.657307
0.079867 0.238937 0.309214
0.103206 -0.623221 -0.617282
0.061644 0.138207 0.307822
0.042625 -0.116810 -0.646485
0.060707 0.644427 0.478763
0.159418 0.122270 -0.374521
-0.004497 0.642327 0.369086
-0.027418 0.524251 0.598015
-0.021148 -0.304640 -0.700478
0.031226 -0.633585 0.037809
0.194945 0.121439 -0.262001
0.082535 -0.730388 0.004489
0.077286 -0.290147 -0.004345
-0.126642 0.145038 -0.585776
0.016746 0.652943 0.510301
-0.121487 0.323414 0.074019
-0.038464 0.649317 0.461384
0.077042 -0.234275 -0.663981
-0.194598 0.127292 -0.047973
0.201471 0.260252 -0.222113
0.023947 0.111017 -0.454415
-0.071235 -0.685050 0.017047
0.164668 -0.033757 -0.527755
-0.178348 0.093761 0.019529
0.019336 0.139868 0.373205
-0.121680 -0.096152 0.099125
0.048046 0.481165 -0.328912
0.030746 -0.024401 -0.614758
0.094226 -0.600409 0.017711
0.039703 -0.676785 0.050785
-0.070135 -0.201932 -0.573260
0.201542 0.168083 -0.259891
0.153423 0.027671 -0.563158
0.136704 0.394446 -0.212380
0.166116 0.034511 -0.538665
0.156266 0.148253 -0.554736
-0.033918 0.543343 -0.287987
-0.034760 0.638946 0.385843
-0.147700 0.305971 -0.450907
0.146575 0.068779 -0.321693
0.186089 0.131396 0.085865
0.025481 0.495628 0.497195
-0.113381 0.007107 -0.282912
-0.077907 0.246015 0.342152
-0.209309 0.242193 -0.192084
0.051065 0.394475 -0.384477
0.123787 0.244734 -0.551402
0.047667 -0.038245 0.113298
0.148092 0.170413 0.186951
0.004982 -0.032666 -0.061961
-0.030617 0.437942 0.067515
-0.093436 -0.217730 -0.632484
-0.150237 0.072005 0.128966
0.009062 0.090428 0.297158
-0.004690 0.649593 0.424372
0.134489 -0.699311 -0.616427
0.069096 -0.609092 -0.000164
0.015790 0.433999 0.002454
0.183136 0.288366 -0.253068
0.094295 0.380741 0.041512
-0.149398 0.068697 -0.314530
0.182135 0.223832 -0.288428
-0.179797 0.158327 -0.376562
0.121179 0.148418 0.224248
0.009142 0.566760 -0.191345
0.028349 -0.125039 -0.631142
-0.056731 -0.026957 -0.267274
-0.007350 0.105118 -0.577840
-0.082039 -0.037246 -0.122850
0.067370 -0.524728 -0.688489
0.096916 0.487521 -0.189538
0.217454 0.189154 -0.203025
0.154051 0.071653 -0.402895
0.146767 0.369157 -0.242248
0.014187 -0.020144 -0.579090
0.018148 -0.040194 -0.574181
0.124896 -0.741542 -0.558469
0.087831 0.516955 -0.235811
0.027932 -0.456987 -0.689301
-0.048371 -0.435590 -0.655852
0.158488 0.267497 -0.021187
-0.114538 -0.132876 0.009533
-0.078359 0.520588 -0.264558
-0.068392 -0.409885 -0.699440
0.029130 -0.111326 -0.586208
-0.016824 -0.065393 -0.602341
0.153621 0.239286 0.018513
0.037868 -0.252946 0.042824
0.061560 0.522250 -0.159784
0.001658 0.139901 -0.550365
-0.171435 0.263505 -0.397070
-0.127175 0.296212 0.151867
0.056479 -0.156825 -0.662512
0.021171 0.452773 -0.358450
0.064152 -0.018360 -0.283058
0.019863 0.256957 -0.613299
0.167016 -0.740115 0.141469
0.156522 0.051864 -0.559231
0.161733 0.026783 -0.211317
-0.062059 -0.179918 -0.563954
-0.107889 -0.631226 0.027198
-0.174472 0.143999 0.119217
-0.073415 0.050091 -0.619542
-0.024403 0.096132 -0.608464
-0.118865 0.360920 -0.065351
0.045423 0.597566 0.361776
0.024971 -0.527367 0.006552
-0.060634 -0.501975 -0.647384
0.076617 0.459305 -0.317349
0.034209 -0.214715 -0.666043
0.051185 -0.507881 0.027321
-0.070093 -0.125153 -0.001167
-0.161657 0.080063 -0.407580
-0.094388 0.626324 0.342445
0.037388 -0.021140 0.151735
0.035213 0.437906 0.375479
-0.044158 0.549719 -0.267305
0.108469 -0.745741 0.069797
0.127153 0.090415 -0.365197
-0.011689 0.085778 -0.587500
-0.007972 -0.049232 -0.201020
-0.173113 0.203138 0.070757
0.107823 0.185566 0.238247
0.116665 -0.158734 0.011707
-0.079654 0.398258 -0.031188
0.088196 -0.097750 -0.487596
-0.049636 0.298469 0.227683
-0.048466 0.555476 -0.241300
0.091699 -0.027268 -0.446768
0.177710 0.066548 -0.253641
-0.098478 0.039516 -0.342881
-0.167268 0.099066 -0.002492
-0.108029 0.291747 0.189546
-0.061123 0.383075 0.449213
-0.169927 0.166429 -0.310304
0.078516 0.390520 0.078421
-0.049557 0.196210 0.405741
-0.122306 -0.112432 -0.507602
0.211491 0.186513 -0.099184
0.184173 0.074083 0.047797
-0.036699 0.424022 0.488791
0.196949 0.082773 -0.096673
-0.077860 -0.015931 0.133447
0.120034 0.291332 -0.519122
0.090128 0.352577 0.121531
0.175221 0.120313 -0.402285
0.072231 0.388349 0.098414
0.127000 -0.710723 0.094476
-0.045894 0.467593 0.384368
-0.057215 0.077807 0.226924
0.072530 -0.218110 -0.013808
0.045866 0.291394 -0.571123
0.076712 0.253965 0.351829
-0.169417 0.079653 0.004252
-0.004801 0.143464 0.386974
-0.075353 -0.347053 -0.668201
0.052752 0.415007 0.094753
0.171139 0.031325 -0.174133
0.092108 -0.611198 -0.672232
-0.139868 0.278947 0.034183
0.095007 0.412524 -0.317740
0.068703 -0.368987 -0.708346
-0.141995 0.084822 0.146456
-0.086327 -0.029483 -0.028432
0.155575 -0.010203 -0.558302
-0.057459 0.380050 0.404360
0.055622 -0.612385 -0.663896
-0.151915 0.093189 -0.393848
0.073422 0.581137 0.507203
-0.156940 0.280675 -0.032845
0.072708 0.246616 0.383846
-0.028742 0.389015 -0.426692
0.207818 0.112141 -0.123368
0.124013 0.007310 0.129795
0.179728 0.145083 -0.017355
0.053532 0.379193 0.474016
0.050656 -0.236551 0.057778
-0.139661 0.122662 -0.578449
0.043668 0.536305 0.568542
-0.085695 0.088304 -0.403001
0.043677 0.534930 -0.289771
0.037074 -0.436193 -0.662308
-0.062043 0.143567 -0.621221
0.080485 -0.127036 -0.512502
-0.142864 -0.050648 0.081742
-0.057727 0.267233 0.279803
0.210889 0.207745 -0.105993
0.076507 0.315290 0.198960
-0.158293 0.282497 -0.461740
-0.068538 0.485667 -0.122502
0.031591 0.382780 0.165295
-0.126569 0.018380 0.135183
-0.004923 0.435905 0.007724
-0.099088 -0.646654 -0.599016
0.138103 -0.076918 0.084324
-0.045738 0.408331 0.120019
-0.056610 0.444678 0.449865
0.093175 0.012118 0.161013
0.099541 -0.189983 -0.621483
-0.073119 -0.035906 -0.073154
-0.128050 0.418295 -0.241021
-0.157166 0.098484 -0.319262
-0.071293 0.521009 -0.176367
-0.096614 0.243241 -0.573491
0.015788 0.292492 0.304191
0.159938 -0.723263 -0.531503
0.052649 0.376326 -0.429549
0.073130 0.345957 0.166833
-0.093970 -0.027101 -0.209969
-0.190648 0.287393 -0.147813
0.075029 0.130882 0.252794
0.048478 -0.035971 -0.014873
-0.034123 0.104853 -0.484339
-0.062541 0.283822 -0.568816
-0.082487 0.472188 -0.131440
-0.076607 0.082431 0.215094
-0.203744 0.091767 -0.122917
0.138346 0.262843 -0.524261
0.048485 0.123731 -0.623543
-0.038084 0.045601 0.218906
0.118470 -0.029161 -0.605170
-0.023874 -0.356530 -0.736499
0.012966 -0.324903 -0.669465
0.016651 0.348544 0.357772
0.060570 -0.486825 -0.002160
0.109085 -0.014980 0.127469
-0.186701 0.231518 -0.279455
0.121757 -0.147973 -0.560336
0.118984 0.332448 -0.454160
-0.037262 0.602497 0.536775
0.149230 -0.072865 -0.492669
0.006053 0.496839 0.627647
-0.066348 0.632479 0.502415
0.074526 0.580395 0.412458
-0.173203 0.242916 -0.468551
-0.166759 -0.037127 -0.503488
0.061956 0.016403 -0.337043
-0.045346 0.043354 -0.370460
0.030506 0.097152 -0.430298
-0.019486 0.651982 0.490432
0.055071 -0.689383 0.043665
0.216871 0.161135 -0.141265
0.039672 0.416172 0.487075
-0.063437 0.538117 -0.260467
0.043427 -0.576889 -0.638954
-0.043902 -0.552685 -0.644978
-0.017705 -0.026629 -0.279924
0.012113 0.000940 0.190560
-0.058528 0.530106 -0.281019
-0.049183 -0.163803 -0.574344
-0.162570 0.073163 -0.295020
0.186156 0.122554 -0.458346
0.123975 0.177907 -0.579423
-0.136589 0.082671 0.170281
-0.195697 0.102853 -0.242548
0.137251 0.391541 -0.235485
-0.133988 -0.746478 0.093321
-0.075059 -0.746629 0.124443
0.049351 0.425537 0.075111
-0.051655 0.414106 -0.361920
-0.164611 0.077591 0.115073
-0.019334 -0.375929 -0.729832
-0.119160 -0.708119 0.046663
-0.096221 -0.719851 -0.513794
0.159368 0.223826 -0.519930
-0.048734 0.416183 0.390409
0.024724 -0.046092 0.051549
0.056417 0.271994 -0.582789
-0.063593 -0.248510 -0.686281
0.014302 0.198815 0.444708
-0.024397 0.098973 0.302585
0.055064 -0.007894 -0.487943
0.039385 0.469335 -0.076774
0.096177 -0.032930 -0.162728
0.069563 -0.197017 -0.011816
-0.176765 0.204548 -0.493562
-0.014268 0.548329 0.670908
0.110875 0.027891 0.165207
0.043852 -0.331300 -0.652150
0.063067 -0.554520 0.033927
0.128028 0.323717 -0.016714
-0.148295 -0.718256 0.120246
0.058875 0.416199 0.004432
0.097811 0.295711 -0.533490
0.029748 0.023096 0.205300
-0.056078 0.601804 0.526749
0.023834 0.133615 -0.612163
-0.059381 0.303731 0.456035
-0.085530 -0.136937 -0.646021
0.104183 -0.220939 0.049190
0.111984 0.464550 -0.244652
-0.034558 0.487055 0.369167
0.168643 0.215353 0.122325
0.159467 0.339935 -0.154377
-0.047060 -0.051989 0.020301
0.057593 -0.676349 -0.604519
0.056972 -0.194727 0.072683
0.009303 0.074489 -0.408629
-0.096748 -0.006059 -0.278126
0.046345 0.557330 -0.226665
-0.145245 0.329417 -0.310827
0.138060 0.267805 0.165671
0.088169 -0.743583 -0.648668
0.009989 0.078625 0.275244
0.054968 0.415985 0.463878
0.069896 -0.746292 0.100978
-0.047267 0.574889 0.634988
-0.165937 0.051710 -0.257612
-0.012514 0.291059 0.300689
0.024290 0.297650 -0.576261
0.143183 -0.091897 0.060959
0.126776 0.420607 -0.240345
0.047213 0.552490 -0.199719
0.046245 -0.300561 -0.644424
-0.036088 -0.154462 -0.649476
0.008166 0.090081 -0.568666
0.073969 0.086394 -0.621566
0.036297 -0.336546 -0.020043
-0.073725 -0.440033 -0.669119
0.040469 0.148310 -0.622239
-0.081447 0.570040 0.433175
0.050224 -0.305645 -0.720942
-0.097299 -0.745242 -0.595912
0.089395 0.640232 0.338966
-0.067384 -0.543784 -0.640540
-0.118800 0.050992 -0.338278
0.051899 0.154029 0.355632
-0.107119 0.051165 -0.606970
0.039644 -0.634234 0.017834
0.070883 -0.377229 -0.666096
-0.025101 -0.350705 0.030534
0.114530 0.459737 -0.205334
0.063699 0.572480 0.523242
0.005247 0.493417 -0.336490
0.034284 0.278679 -0.587908
-0.176550 0.072841 -0.261505
-0.122519 0.045695 0.168678
0.002252 -0.039883 0.050581
-0.118490 0.448859 -0.211897
-0.032575 -0.185865 -0.641505
0.038691 -0.560191 0.038415
-0.151648 0.004727 0.069026
-0.019327 0.425805 0.120930
-0.098163 -0.722539 0.016965
-0.136181 0.062205 0.150283
0.120644 0.271748 -0.535146
0.040194 -0.556672 -0.656239
-0.138633 -0.086653 -0.576687
-0.028289 0.586452 0.652266
0.003089 0.308182 0.500577
0.187633 0.059253 -0.092591
0.072044 0.182241 -0.609167
0.094269 0.034566 -0.616433
0.031321 -0.284612 -0.001608
0.215404 0.210037 -0.201781
-0.077554 -0.275473 -0.009017
0.076243 0.000975 -0.621564
-0.039393 0.068269 -0.491914
0.146834 0.269213 0.065407
-0.163999 0.289905 -0.303166
0.141579 -0.094352 -0.507596
-0.094233 0.353286 -0.440726
-0.085171 0.023717 0.174612
-0.073378 0.540482 0.424588
-0.062923 -0.571280 0.040120
-0.076099 0.257461 -0.579835
0.056772 0.463558 0.439438
0.055534 0.327785 0.201013
0.198700 0.194580 -0.264400
-0.028985 -0.133598 -0.612968
0.023518 -0.062494 -0.568490
0.076625 -0.473644 -0.668106
-0.040752 -0.369073 -0.732998
-0.035310 -0.274290 0.037008
-0.130694 -0.048477 -0.452290
-0.011206 0.356737 -0.517704
0.124432 -0.669915 -0.648341
-0.174987 0.026347 -0.461517
-0.005786 0.214811 -0.654711
-0.028159 0.111269 0.319988
0.174952 0.209282 -0.328925
0.044352 0.097384 0.275462
