-0.160640 0.059074 0.457960
0.357572 -0.136156 0.367545
-0.059555 0.117700 -0.160156
0.692617 -0.208745 0.276185
-0.554199 -0.141944 0.382345
0.575185 -0.128214 0.394424
0.070347 0.187538 -0.145566
-0.436574 0.125260 0.109211
-0.690734 -0.171400 -0.267473
0.095758 -0.054977 -0.385837
-0.188686 0.125260 -0.269143
-0.745543 -0.191131 -0.313304
-0.123113 0.080726 0.310463
-0.440456 0.044664 -0.400781
0.771854 -0.208745 0.561948
0.119064 0.080726 0.273698
0.212179 0.208319 0.230825
0.769739 -0.208745 0.497520
-0.388318 -0.177184 0.636549
0.041624 0.253517 -0.224318
0.382479 -0.107101 -0.440864
0.195882 -0.139664 -0.365886
-0.004864 0.080726 -0.094344
-0.600674 0.117714 -0.067887
-0.006371 0.080726 0.284912
-0.254631 0.140713 0.148218
-0.289256 0.282205 0.113605
0.702928 -0.201913 0.131068
-0.532064 -0.170069 0.240818
-0.714253 -0.141944 0.090897
0.304956 0.130690 0.240589
-0.276589 0.125260 0.359327
-0.566874 -0.102690 0.269755
-0.439727 -0.092894 -0.344025
-0.364969 0.264447 0.044725
-0.674691 -0.208745 0.382939
-0.316540 0.275555 0.146379
0.854811 -0.161913 -0.325066
0.500536 -0.199713 0.603525
0.061654 0.277550 -0.090784
0.221906 -0.208745 0.562599
0.371289 0.044113 -0.331554
-0.313936 -0.141944 0.523225
0.687295 -0.061204 -0.179101
0.319184 0.080726 -0.003375
-0.514667 0.116015 0.281867
0.507013 -0.082730 -0.396878
-0.352110 0.072665 0.401214
-0.609549 -0.208745 -0.123445
0.420232 0.125260 -0.135272
-0.063990 -0.025765 0.496794
-0.741801 -0.141944 -0.123878
-0.424091 -0.100530 0.361756
-0.683889 -0.166239 -0.409687
0.775797 -0.141944 0.074528
0.847169 -0.208745 -0.405475
-0.820362 -0.208745 0.011691
0.559626 0.113063 0.231181
0.201568 -0.167052 -0.632158
0.636244 -0.153338 0.291920
0.231973 0.121437 -0.287893
0.499552 0.079191 -0.028504
-0.027428 -0.033256 0.489582
-0.060527 0.033760 -0.446176
-0.221790 0.080726 0.424075
0.064250 0.182959 0.097784
0.689666 -0.208745 -0.298449
-0.381814 0.055202 0.442607
0.170140 0.125459 0.254709
0.697148 -0.093920 -0.122258
0.768932 -0.141944 -0.376175
-0.213831 -0.208745 -0.588480
0.695698 -0.208745 -0.064755
-0.642523 0.000549 0.041456
0.343283 0.033896 0.336454
0.480415 0.062082 0.290757
0.153378 0.105888 0.381670
-0.474722 0.052383 0.377724
-0.460357 0.044959 -0.325651
0.425998 -0.208745 0.501223
-0.123232 0.080726 0.273453
0.676915 -0.039687 -0.214019
0.594613 -0.163904 -0.415293
0.679043 -0.107522 -0.330661
-0.044562 0.125259 -0.252706
0.124015 -0.208742 0.617895
0.283147 0.001493 -0.287020
0.153419 -0.158640 0.349225
0.597102 -0.056523 -0.511884
0.584042 -0.046031 -0.384895
-0.641949 -0.088983 0.046747
-0.469608 -0.058213 0.320840
-0.004288 -0.046439 -0.432060
-0.711595 -0.141944 -0.105325
0.564818 -0.034575 -0.359020
-0.174688 0.125260 -0.335143
0.023764 0.125257 -0.256263
0.060869 0.080726 -0.111495
-0.441061 -0.145813 0.348185
0.091515 0.125502 -0.082342
0.659676 -0.141944 0.512097
-0.443473 0.125260 -0.300678
0.742876 -0.103347 0.277635
-0.094648 0.084053 0.178922
0.624272 -0.141944 0.403377
0.702925 -0.169663 -0.020936
-0.098880 0.125260 -0.292485
0.100947 0.062281 -0.433830
0.300232 -0.040522 0.336454
0.681432 -0.141944 -0.543345
-0.643456 -0.062035 0.023894
0.305052 -0.095493 -0.535258
-0.080690 0.080726 0.278137
0.462309 -0.032584 -0.287020
0.704481 0.002000 -0.178818
-0.090756 -0.208745 0.671447
0.073879 -0.100107 -0.399012
-0.310344 -0.068402 0.426528
-0.500029 -0.189660 0.580931
0.131521 -0.019922 0.420855
0.584007 0.053936 0.260090
0.821734 -0.208745 -0.069444
-0.385412 -0.208745 -0.386500
-0.274235 -0.082195 0.439239
0.504690 0.051333 -0.331554
-0.538695 0.080726 0.033956
-0.595037 0.012924 -0.058392
-0.242568 0.085069 0.487298
-0.592587 -0.023380 -0.075159
-0.548707 -0.080099 0.211732
0.325984 0.119926 0.284666
0.701096 -0.123102 0.240789
0.702916 -0.147339 -0.048105
-0.618068 0.086449 0.138527
0.192232 -0.208745 -0.406857
0.655498 -0.136485 -0.367024
-0.277143 -0.208745 0.520862
0.747258 -0.139139 0.165430
0.126303 -0.208745 0.560723
0.290047 0.072893 -0.328803
-0.033589 -0.098841 -0.440097
-0.358728 -0.190808 -0.399710
-0.064622 -0.157908 -0.446810
-0.770609 -0.208745 0.259636
0.702921 -0.171290 -0.124354
-0.468200 0.080726 0.004128
-0.241988 0.080726 -0.247802
0.153354 0.142986 -0.143137
0.666169 -0.142851 0.581651
0.085446 0.031252 -0.392032
-0.583598 -0.208745 -0.315195
0.226186 -0.208745 0.480507
0.268657 -0.128963 0.291920
0.658859 0.055826 -0.259808
-0.199807 -0.168930 -0.632158
0.685799 -0.208745 0.167839
-0.548197 -0.122560 -0.207039
0.336541 0.150946 0.204824
-0.003622 0.149923 -0.116246
0.409266 -0.091580 0.400555
0.688584 -0.100918 -0.281757
-0.324972 -0.141944 -0.593541
0.570785 0.108723 0.024117
-0.448875 -0.087984 0.341459
-0.253824 -0.141944 -0.487834
-0.552006 0.079743 -0.138744
0.244469 -0.009528 -0.334448
-0.399690 -0.175650 -0.574191
0.325808 0.153134 -0.157276
-0.070904 -0.141944 0.606492
0.682466 0.024660 0.291930
-0.091182 0.125260 -0.384195
0.037064 0.214360 0.034306
-0.743397 -0.141944 0.060047
-0.395133 -0.168600 -0.377672
0.082630 -0.020075 -0.393734
-0.203945 -0.157964 0.454258
0.425361 -0.082859 0.318097
-0.322232 0.125260 0.322263
0.044503 0.057398 0.418127
0.113719 -0.177708 0.551003
0.854811 -0.207393 -0.024113
0.063655 0.088676 0.448946
0.151194 -0.208745 -0.389400
0.250300 0.125260 0.263328
-0.374501 -0.142796 -0.632158
-0.363204 0.080726 -0.354768
-0.584501 -0.093265 0.239054
-0.284809 0.310829 -0.158903
-0.269707 0.063127 0.485871
0.489246 0.080011 0.054456
0.334754 -0.208745 0.383183
0.421352 -0.018554 -0.287020
0.588747 0.101400 0.245838
0.562164 0.112185 0.125054
-0.649336 -0.166222 0.248530
-0.502754 -0.184533 -0.278089
-0.453076 0.080726 0.148141
-0.089650 0.105724 0.479707
0.792582 -0.208745 -0.268080
0.181774 -0.208745 0.367211
0.258755 0.125260 0.050712
-0.492287 -0.086912 -0.356654
-0.003513 0.008355 0.483392
0.226193 0.125257 -0.251227
0.167621 0.125260 0.005642
-0.081130 0.056299 -0.494217
0.740444 -0.208745 -0.167572
0.211706 -0.141944 0.480138
0.334904 -0.208745 -0.631289
-0.539377 -0.208745 -0.272316
-0.757682 -0.208745 -0.277518
-0.349370 0.125260 -0.358586
0.161203 0.123848 -0.316794
0.518205 0.122500 0.115179
0.437685 -0.080120 -0.353590
0.100441 -0.168426 -0.632158
-0.593108 0.115911 -0.114769
-0.047820 0.302500 -0.153534
0.593418 -0.116762 0.469219
-0.277038 -0.141944 0.595708
-0.126765 -0.002511 0.458094
-0.074676 0.125260 -0.318205
0.770660 -0.208745 -0.030408
-0.387585 -0.073364 0.387328
-0.326514 -0.141958 -0.550757
0.708432 -0.208745 0.216575
0.230563 -0.141944 -0.366847
0.666259 -0.141944 -0.501311
-0.554904 -0.141944 0.500220
0.041478 -0.208745 -0.557727
-0.364114 0.034725 0.401821
0.759876 -0.208745 0.160152
-0.000554 0.140678 -0.230747
0.138131 -0.200274 -0.515957
0.653620 0.060186 0.114366
-0.137226 -0.149734 0.458764
-0.197679 -0.141944 -0.495313
0.725835 -0.085136 0.309077
0.584824 -0.142720 -0.349002
0.082411 0.227814 0.024697
-0.448466 -0.208745 0.346582
0.812428 -0.141944 0.444955
0.026889 0.314038 0.206797
0.343783 -0.166111 -0.499709
0.241836 -0.208745 0.317987
-0.328635 -0.172704 0.529383
0.539172 0.072063 -0.061852
-0.375189 0.128137 -0.063752
-0.436596 0.125260 0.157612
-0.504790 -0.112055 -0.275284
0.423693 -0.083769 -0.394692
0.320382 -0.009452 0.336454
0.061346 0.216482 0.146076
-0.408277 0.125260 0.286390
-0.163176 -0.208493 0.457864
0.770623 -0.208745 0.399360
-0.536378 0.051594 0.312441
0.035736 -0.141944 -0.534801
-0.046602 -0.129858 0.493637
-0.355942 -0.040213 0.405626
0.025987 -0.052922 -0.468472
0.656940 -0.007796 -0.114066
-0.260279 0.054791 -0.484187
0.129808 0.151377 -0.227884
0.626457 -0.086668 -0.363504
0.176586 0.038579 -0.382929
-0.046853 0.314527 0.160890
-0.522364 -0.096344 0.329464
0.526635 -0.208745 0.532716
-0.709331 -0.142772 -0.184805
0.389508 -0.101513 -0.318524
0.321603 0.051305 -0.331554
0.623688 0.082624 0.235346
-0.746262 -0.141944 0.282075
0.238151 -0.141944 0.621784
-0.447414 -0.208745 0.519337
0.690650 -0.206806 0.488665
0.147343 0.135702 0.144814
0.595150 0.048578 0.087960
-0.165745 -0.130898 -0.452596
0.039603 0.314529 -0.007525
-0.599523 -0.107337 0.000150
0.110768 -0.208745 -0.401528
-0.322487 -0.208745 -0.480259
0.102488 -0.141944 0.560890
-0.377328 0.080726 0.043976
0.412314 -0.074789 -0.289557
-0.639432 0.034340 0.069150
0.376533 0.125260 0.010986
-0.258361 -0.051194 -0.437683
0.101282 0.080726 -0.263713
-0.526713 0.125260 0.122868
0.610061 -0.022599 0.336454
-0.596560 0.082769 -0.198000
-0.115108 0.080726 -0.243645
-0.576030 -0.092658 -0.141352
-0.288468 0.108833 0.114854
-0.152161 0.247740 -0.223643
-0.597923 -0.037550 -0.034792
-0.236732 -0.208745 0.580233
-0.608069 -0.141944 0.189862
0.565119 -0.088593 0.395236
-0.591774 -0.141944 -0.352753
0.398908 -0.141944 0.539007
0.138579 0.105442 -0.387130
0.454334 -0.077468 -0.317012
-0.277008 0.104648 0.465628
-0.086916 -0.208745 0.588507
0.276618 0.080726 -0.229700
0.645942 0.066695 0.150128
-0.515865 -0.024141 -0.331885
-0.311823 -0.107114 0.473876
0.392508 0.125260 0.234614
0.529939 -0.179768 0.599642
-0.587002 -0.019643 0.234643
-0.673319 -0.208745 -0.006035
-0.042421 0.038184 -0.487817
0.066955 0.125258 -0.268039
0.723550 -0.035289 -0.268448
0.149818 0.041778 -0.403885
-0.610310 -0.177951 -0.491824
0.848053 -0.208745 -0.231971
0.341281 -0.110789 -0.287020
-0.529162 0.080726 0.180444
0.129613 0.289384 0.218664
0.232688 0.080726 0.222487
-0.429308 0.080726 -0.023582
0.411062 0.125260 -0.167669
-0.407536 0.080726 0.009839
0.155804 0.080726 0.294814
-0.594306 0.043539 0.068677
0.602691 -0.208288 0.340873
0.575863 -0.128802 -0.312269
-0.326154 0.118397 -0.008689
-0.716724 -0.208745 -0.091066
0.316180 -0.208745 0.605575
-0.599468 -0.186625 0.007379
-0.375277 0.125260 0.295504
-0.367219 -0.208647 0.399718
-0.513177 0.125260 -0.024816
0.140964 0.258392 0.229057
-0.725568 -0.208745 -0.007400
-0.536899 -0.048035 0.311777
0.298301 0.086410 0.328924
-0.080436 0.125260 -0.416096
-0.242695 0.080726 -0.380706
0.743912 -0.099970 0.047041
0.592201 0.050350 -0.006390
0.807949 -0.208745 0.337758
0.038298 0.203156 -0.002721
0.700639 -0.118352 -0.194801
0.708974 -0.208745 0.336616
0.449758 0.103970 0.312196
-0.093138 0.120411 0.177867
0.179166 -0.208745 0.441868
0.397509 -0.021771 -0.607978
0.815779 -0.208745 -0.295428
0.051902 -0.003907 -0.458639
-0.631816 -0.208745 -0.002038
-0.559285 0.037707 0.281025
0.731784 -0.053558 0.045240
0.080466 0.028004 0.450639
0.685372 0.027953 -0.158006
0.219086 0.131383 0.240023
-0.238944 0.125260 -0.315999
0.636501 0.074698 0.042787
0.317679 -0.208745 0.347270
0.496036 -0.208745 0.550058
0.514448 0.119373 0.285958
0.348660 -0.050488 -0.507746
-0.679919 -0.208745 -0.340481
-0.025225 -0.141944 0.562374
-0.240357 -0.141944 0.605777
0.731401 -0.208745 -0.209243
0.230342 -0.141944 0.574735
-0.395290 -0.208745 -0.611532
-0.126759 0.097004 0.184667
-0.629701 -0.102889 -0.116170
0.702915 -0.169874 -0.248688
0.322587 -0.054906 0.291920
-0.470544 -0.137523 0.320255
0.058687 0.219010 -0.139592
-0.338189 0.190832 0.120338
0.274577 0.080726 -0.096609
-0.158346 0.027698 0.503057
-0.460110 -0.141944 0.456878
0.644270 -0.208745 0.489046
-0.243869 0.116828 0.455073
0.854811 -0.175609 -0.403195
-0.533942 0.080029 -0.172792
-0.265678 0.080726 0.323580
-0.598494 0.048197 -0.205425
-0.725961 -0.208745 -0.290751
0.529513 0.027800 -0.331554
0.723718 -0.033256 -0.203116
-0.126295 -0.000527 -0.497895
0.064446 0.125260 0.325466
-0.353043 -0.073881 0.407117
0.038767 0.162001 0.232413
0.111707 -0.208745 -0.622895
0.623254 0.080558 0.279400
0.319759 -0.208745 0.456310
0.543648 -0.116374 0.503456
-0.217559 0.163420 -0.165015
-0.709253 -0.141947 -0.270084
0.104392 -0.175635 -0.558519
-0.341640 0.079392 -0.389715
0.005632 -0.021061 -0.475551
-0.382920 0.122445 -0.374542
0.085891 0.143625 0.234335
-0.492144 0.080726 0.072850
0.111137 0.080726 -0.152640
-0.610329 -0.014886 -0.177550
0.292054 -0.036452 0.291920
0.001329 0.080726 0.019204
-0.120590 -0.208745 0.488220
-0.328111 -0.174398 -0.525272
-0.097977 -0.173590 -0.451718
0.854811 -0.178317 0.100625
0.599001 -0.182130 -0.632158
0.619990 0.030007 0.159100
0.081392 0.139727 0.056178
-0.360375 -0.149845 -0.585545
-0.193041 -0.139772 0.500849
0.588805 0.101458 -0.257218
0.465916 0.037068 0.336454
0.441536 0.080726 -0.233703
-0.643794 -0.099568 0.007133
-0.132633 -0.208745 -0.616758
-0.624319 -0.029752 -0.135093
0.342258 0.080726 -0.185912
0.626090 -0.086216 -0.513618
0.217048 -0.116177 -0.347597
0.725998 -0.141944 0.408081
-0.092711 -0.141944 -0.530207
0.149719 0.125260 0.314955
0.125776 0.125260 -0.288501
0.197347 0.125260 -0.089695
-0.223886 -0.068326 0.496398
-0.441425 -0.147424 -0.342639
-0.079133 0.294543 -0.168126
0.608991 0.038230 0.021350
0.739192 -0.208745 0.113169
0.701458 -0.127151 -0.233648
0.443797 -0.142910 0.611018
0.696925 -0.093163 -0.048010
0.738845 -0.208745 -0.550323
0.540361 0.071226 -0.269518
0.422798 -0.014895 -0.506149
-0.312066 -0.208745 0.613098
-0.229250 -0.171222 0.677070
0.624741 -0.208745 -0.624952
0.237176 -0.208745 -0.512581
-0.032857 -0.141944 0.527880
0.009583 -0.208745 -0.570827
0.245410 -0.057165 -0.334260
-0.385841 -0.090944 0.440495
-0.602836 -0.208745 -0.451270
0.561978 -0.115213 -0.490631
0.465414 -0.075883 -0.569810
0.655199 -0.208745 -0.406962
-0.583708 0.073902 0.087471
-0.158621 0.080726 -0.375014
0.396809 -0.071725 0.359579
0.533383 -0.092591 0.361673
0.127277 -0.153157 -0.364559
0.112659 0.307697 0.194663
0.186639 0.080726 -0.256379
0.028413 0.080726 -0.070005
0.149199 -0.007126 -0.347888
0.493119 0.079703 -0.161480
-0.615821 -0.105579 0.167720
0.213026 -0.090030 0.302620
0.050069 0.043547 -0.410474
0.553156 -0.028782 -0.407466
-0.271265 -0.042837 0.440078
0.696899 0.014393 -0.110563
0.702928 -0.176661 0.081445
-0.097144 -0.208745 0.556275
-0.063094 0.240673 0.166595
-0.561606 0.027110 0.184246
0.397012 -0.097517 0.335723
-0.628984 -0.208745 -0.044080
0.316024 0.125260 0.057654
0.637317 -0.208745 0.376504
-0.027410 0.124135 -0.420379
-0.396021 -0.208745 -0.450321
0.744249 -0.101473 0.170649
-0.135182 0.219384 -0.180431
-0.317206 0.273502 -0.049034
-0.465243 0.125260 -0.005176
0.078240 -0.141944 -0.492402
-0.381751 0.125260 -0.099583
0.310116 0.080726 -0.093785
-0.636728 -0.141944 0.165358
0.226563 -0.097075 0.346119
0.085503 0.169386 0.013884
0.192073 -0.208745 -0.631138
0.310527 -0.143162 0.628618
-0.583523 -0.033734 -0.115674
0.650974 -0.208745 -0.493058
0.342700 -0.169265 -0.551158
-0.059325 -0.197565 0.450808
-0.625571 -0.128767 0.136091
0.260042 -0.208745 -0.349578
-0.445027 -0.141944 -0.462191
0.656955 -0.188944 -0.286980
0.244151 0.080726 0.179949
0.295771 0.125260 -0.039743
-0.811690 -0.208745 0.073072
0.228201 0.146638 0.149707
0.613041 -0.208745 -0.506447
0.341834 -0.208745 0.489245
0.252004 -0.039130 0.293313
0.638598 0.072920 -0.089954
-0.066957 -0.208745 0.646466
0.699412 -0.105523 0.070206
0.065819 0.187256 -0.226632
-0.637024 -0.015353 0.085891
0.806202 -0.208745 0.073485
-0.498504 -0.141944 0.551435
-0.262988 0.080726 0.371192
0.268760 0.108922 0.311608
0.437328 0.017778 0.291920
0.674495 -0.061260 -0.329536
0.252267 -0.208745 0.349967
-0.560473 0.125260 -0.038342
0.134541 0.080726 -0.007334
-0.057654 0.227842 -0.225211
0.702928 -0.160260 0.221924
0.495642 -0.056542 0.500128
0.393070 -0.024903 -0.378208
0.270220 0.148801 -0.228102
-0.580489 -0.135211 0.246230
-0.636567 -0.103877 -0.082378
0.056821 0.220794 0.110492
0.683346 -0.174994 -0.447413
-0.122525 -0.053250 -0.497609
0.639443 -0.163325 0.585180
0.747213 -0.138526 -0.144312
-0.013664 0.219501 -0.126580
0.197391 -0.185419 -0.308195
-0.579348 -0.051433 0.248282
-0.176806 0.080726 0.290031
-0.090718 0.125260 0.387791
-0.401413 -0.135531 0.431596
0.053395 -0.208744 0.491294
-0.314625 0.112251 0.441332
0.259328 0.130987 0.141646
0.702131 -0.208745 0.533257
0.337647 -0.190683 -0.477677
-0.241336 -0.146304 -0.632158
0.756732 -0.152067 -0.532917
-0.614676 -0.141944 -0.464364
0.495832 -0.012967 -0.632158
-0.050966 0.080726 -0.410178
0.191627 -0.208745 -0.562646
0.503139 0.089761 0.326484
-0.405013 -0.208745 0.622836
0.851845 -0.141944 0.155818
-0.079548 0.066523 0.497508
0.017462 -0.141944 0.581483
0.189050 -0.178839 0.558520
0.138533 -0.208473 0.651333
-0.131549 -0.059041 0.502886
0.726281 -0.208745 0.422552
-0.406289 0.044019 -0.423639
-0.457446 0.125260 -0.083366
-0.642556 -0.107916 -0.033974
0.484592 0.080381 -0.075890
0.108019 0.191187 0.151267
-0.468533 0.125260 0.033364
-0.097767 -0.208745 0.621105
0.140866 -0.171765 0.651025
-0.672337 -0.208745 0.192968
0.157662 -0.061967 0.345337
0.100163 -0.208745 0.650990
-0.257960 0.039921 -0.439021
0.158002 0.080726 -0.066562
0.201162 -0.208745 0.396906
0.680509 -0.141944 0.482362
-0.707839 -0.208745 -0.370406
0.617267 0.032043 -0.026121
0.104812 0.072564 0.379414
0.282226 0.080726 0.026909
-0.248618 -0.208745 -0.590324
0.736030 -0.208745 0.380403
0.511173 0.078266 -0.197883
-0.011263 0.125260 0.361145
-0.133691 0.080726 -0.272576
-0.094221 -0.090403 0.500791
-0.561698 -0.208745 0.535359
-0.571719 0.027176 -0.256889
-0.132561 -0.141944 0.661997
-0.239734 0.125260 0.252322
-0.590110 -0.175252 0.094734
-0.489526 -0.141944 0.440849
0.603681 -0.207368 0.589904
-0.595656 -0.208745 -0.484022
-0.328871 0.313993 0.060255
0.617176 0.032350 0.192824
-0.161110 0.080726 0.184209
-0.070314 0.226763 -0.163600
0.066521 0.314513 -0.192505
0.205974 0.188826 -0.226579
-0.357126 0.229061 0.076378
0.507136 0.078587 0.022836
0.398079 0.074692 -0.324830
-0.627201 0.098355 0.046850
-0.316732 0.080726 -0.264155
0.014567 0.314524 0.096926
-0.614643 0.111493 0.005670
0.070424 0.122911 -0.387678
-0.086227 -0.141944 0.504378
-0.286509 -0.141944 -0.550213
-0.642534 -0.141944 -0.329297
0.694910 -0.086485 -0.205414
0.104925 0.266305 0.228770
0.041849 -0.137503 -0.462941
0.178566 -0.141944 -0.422981
0.265225 -0.013104 0.336454
0.314944 0.015678 -0.331554
0.131107 -0.141944 -0.578954
0.024634 0.125260 0.400200
0.752553 -0.208745 -0.088137
-0.292199 -0.141944 -0.601900
-0.025380 0.314529 -0.175415
0.854811 -0.142197 0.106210
-0.499073 0.080726 -0.017100
0.527829 0.120447 -0.004588
-0.349012 0.254746 -0.091165
-0.780813 -0.182789 0.238285
0.772487 -0.141944 0.209182
-0.276730 -0.208745 0.591420
-0.419235 -0.208745 -0.379619
-0.574793 -0.208745 0.495133
0.321048 -0.155964 -0.287020
0.415392 -0.015943 -0.417265
0.370358 0.080726 0.189823
0.262843 -0.208745 -0.467910
-0.520455 0.037409 -0.254315
0.521299 0.062945 0.289132
0.598574 0.046584 0.218314
0.589776 0.101078 0.208265
-0.715263 -0.208745 0.164595
-0.510308 -0.141944 -0.395471
0.610837 -0.067566 -0.391810
-0.048385 0.125260 0.416809
-0.433170 0.080726 -0.293337
0.569657 -0.077100 -0.632158
-0.147115 0.080638 0.435565
0.440289 -0.012421 -0.443933
-0.188753 0.076578 0.447194
-0.590155 -0.063724 -0.089572
-0.469783 0.072792 -0.308293
-0.144059 0.125260 -0.348709
-0.456917 -0.059364 0.392952
-0.471427 0.001199 0.319478
0.383844 0.125260 0.052626
-0.413255 0.080726 0.156318
0.336857 -0.127958 0.477565
-0.335999 0.289087 0.118089
0.232479 0.113210 0.309893
-0.237306 0.266831 -0.153843
-0.074374 -0.208744 0.480282
-0.366212 -0.208745 -0.473708
0.478848 -0.114180 0.458923
-0.440116 -0.045621 -0.343710
0.556883 -0.157524 0.596084
-0.603536 -0.004831 0.199562
0.361691 -0.132077 -0.458398
0.066208 0.074586 -0.448425
0.841180 -0.208745 0.488197
0.643448 0.007711 0.218035
-0.651459 -0.167545 -0.246872
0.354538 -0.208745 0.618911
-0.377743 -0.208745 0.450117
0.819930 -0.141944 -0.104339
-0.569991 -0.089336 -0.259178
0.677536 0.037182 -0.239159
-0.029780 -0.208745 0.651993
-0.383061 0.001602 -0.385819
0.271643 -0.208745 -0.512537
0.279129 -0.208745 0.510525
0.737130 -0.154555 0.508400
0.773983 -0.208745 0.051332
0.002503 -0.208745 0.614455
-0.355892 -0.165813 0.647570
-0.209072 0.125260 -0.298724
0.471983 -0.141944 0.505741
0.161094 0.066666 -0.333963
0.737693 -0.072667 -0.218623
0.571446 0.108467 0.058022
-0.161668 0.022773 0.457911
0.424885 -0.208745 0.576593
-0.205661 -0.208745 0.673302
-0.607997 0.090785 -0.155723
-0.774660 -0.208745 0.035614
0.374180 -0.033606 -0.468301
-0.519449 -0.063922 -0.327769
0.460474 0.080726 -0.136359
0.696617 -0.092572 -0.246771
-0.694875 -0.208745 -0.153882
0.184506 0.124627 -0.291588
0.217102 -0.113887 -0.295377
0.232216 0.007329 0.342333
0.567224 0.029162 -0.331554
0.702357 -0.168746 0.501150
0.004846 0.021733 0.433885
0.817567 -0.141944 -0.223234
0.323626 0.125260 0.090871
0.149744 0.125260 -0.080145
-0.569110 -0.208745 -0.454302
-0.533828 -0.146604 0.558917
0.609516 -0.208745 -0.396227
0.200174 -0.121190 0.366675
-0.491557 0.001910 -0.292209
0.247194 -0.208745 -0.308875
-0.358343 -0.062673 -0.399588
-0.430351 -0.043589 0.412537
-0.412842 -0.142175 -0.365452
-0.260800 0.005803 -0.438354
0.332217 0.079757 0.327711
-0.528167 -0.208745 -0.306679
0.173652 -0.192607 0.330616
-0.639986 0.024245 -0.060035
0.096475 0.297323 0.155779
-0.222601 0.219747 0.215739
-0.413191 0.080726 -0.118321
-0.556540 0.125260 0.053720
0.055462 0.128773 0.246493
-0.287069 0.313463 0.141922
-0.566237 0.125102 -0.077344
-0.294690 0.208316 0.172680
0.545934 0.070395 -0.180663
0.676459 -0.039220 -0.121036
0.067530 -0.203934 -0.402169
0.130393 0.030870 -0.362257
0.309937 -0.141944 0.378826
0.732630 -0.208745 -0.352002
0.593054 -0.159980 -0.302916
0.021785 -0.208743 0.430937
-0.452508 0.125260 -0.046528
-0.488063 -0.141944 -0.506739
0.042273 -0.141944 0.553609
0.529671 0.074407 -0.009862
0.234189 0.125260 -0.079722
-0.663351 -0.208745 -0.266427
0.498663 -0.158367 0.603772
0.007511 0.115877 -0.101497
0.792231 -0.208745 -0.156081
0.033714 0.248485 0.045935
0.080359 -0.208745 0.567012
0.686676 -0.172891 -0.285928
-0.123121 0.312261 0.215597
-0.069817 0.080726 0.237390
-0.267514 0.020974 -0.482816
0.161742 0.273332 -0.175490
0.795626 -0.141944 -0.352554
0.692160 -0.208745 0.040506
-0.225551 0.261586 -0.207541
0.079387 0.298960 -0.220451
-0.515561 -0.186358 0.265774
-0.173946 0.080726 0.253294
-0.012204 0.108873 0.459863
0.526437 0.120882 0.245364
0.298909 -0.208745 -0.472688
0.043989 0.080726 0.202382
-0.065085 -0.141944 0.537544
-0.367763 -0.208745 -0.590725
-0.821668 -0.183402 0.047235
0.079648 0.219517 -0.043541
-0.565048 0.080726 -0.069824
0.463602 -0.010273 -0.592158
-0.464524 0.000710 0.386678
-0.590480 -0.144700 0.514713
0.493173 0.079698 0.146692
0.775227 -0.208745 -0.325829
0.842359 -0.208745 -0.265666
0.537722 -0.094900 -0.515101
-0.531979 -0.056521 -0.235696
0.827902 -0.141944 -0.058255
0.114223 0.080726 -0.117405
0.768437 -0.208745 0.010667
-0.597988 -0.030680 -0.206580
-0.733023 -0.162675 -0.335654
-0.317702 0.080726 -0.143675
0.220071 -0.182922 0.299683
-0.104690 0.084589 -0.491549
0.094859 0.080726 0.123273
0.209779 0.125260 0.284060
-0.293295 0.080726 -0.168050
0.139455 -0.007155 0.360298
0.773338 -0.141944 0.244976
0.589209 -0.110004 0.369976
-0.596907 -0.156881 -0.045916
0.765112 -0.141944 -0.414146
-0.538229 -0.042991 -0.304978
0.249566 0.080726 -0.190484
0.340165 -0.179296 0.458249
-0.326915 0.080726 -0.177529
-0.039882 -0.070887 0.446895
0.290957 -0.208745 0.371679
-0.283024 0.197940 -0.114925
0.472489 -0.141944 0.589625
0.070434 0.080726 -0.155347
-0.221990 0.125260 0.387142
0.296412 -0.208745 0.541805
-0.000131 -0.141944 0.514955
0.274436 -0.171508 0.291920
-0.558042 -0.141944 0.534965
0.700849 -0.120363 0.126538
0.028322 -0.141944 0.632006
-0.307729 0.290898 0.083620
-0.056587 0.116436 0.163198
0.027997 0.110970 0.063750
0.621079 -0.145584 -0.632158
0.433285 0.068732 -0.329502
-0.294091 0.080726 -0.206156
0.694544 0.017218 0.158766
-0.050215 0.308528 0.220455
0.305105 -0.003101 0.291920
0.227378 0.125260 0.037579
0.598851 -0.106653 -0.632158
0.770615 -0.168325 -0.438628
0.698678 0.011708 -0.230509
-0.197537 -0.104791 0.500410
-0.603476 -0.141944 -0.497175
-0.277570 -0.154608 -0.632158
-0.005945 0.080726 -0.391021
-0.339125 0.001779 0.414414
0.124286 0.035623 0.371761
0.266924 0.039556 0.291920
0.210298 -0.208745 0.641546
-0.162410 -0.023521 -0.497790
0.725850 -0.208745 0.158301
-0.489073 0.006890 0.364253
-0.700518 -0.141944 0.012770
-0.586070 -0.009463 -0.231056
-0.399533 -0.111987 -0.374929
0.053083 0.195110 0.231257
0.137529 -0.141578 -0.412190
-0.059243 0.080726 0.331185
-0.230182 -0.208745 0.524341
0.854811 -0.162841 0.285040
0.598059 -0.176222 -0.449279
0.075766 0.080726 0.363432
-0.711226 -0.208745 0.308052
-0.472312 0.080726 -0.041776
-0.279187 -0.116977 -0.432604
-0.601710 -0.208745 0.389180
0.075504 0.234668 0.060994
-0.495499 -0.164727 -0.579057
-0.603779 -0.208744 0.269124
-0.033972 0.080726 0.406914
0.077489 0.024195 -0.447078
0.217501 0.080726 -0.176430
-0.366796 0.080726 0.174346
0.339527 -0.074747 -0.287020
-0.157086 -0.141944 -0.607078
0.050978 0.080726 0.325461
-0.043498 0.243491 -0.151673
0.218602 -0.208745 0.438533
-0.234023 0.170121 -0.207965
-0.762875 -0.208745 -0.193313
-0.321611 0.285782 -0.134395
-0.476921 -0.028984 -0.370733
-0.242253 -0.076785 0.447805
-0.424369 0.071015 0.356317
-0.115660 0.080726 -0.401207
-0.066632 0.125260 -0.279195
0.064247 0.107340 -0.427936
-0.422785 0.080726 0.284435
0.068770 -0.141941 0.474198
0.522438 -0.015883 -0.488858
-0.472798 0.080639 -0.275596
0.498111 -0.080693 -0.498380
0.281036 -0.140127 -0.388814
-0.785772 -0.208745 0.150203
0.166572 0.125260 -0.112460
0.455196 0.080726 0.047991
0.659699 0.055047 0.004077
-0.660124 -0.148046 0.444352
-0.508839 -0.112996 -0.339669
-0.477794 0.125260 0.239726
0.140956 0.173383 0.150643
0.349025 -0.208745 0.530016
0.255666 -0.076922 0.292583
0.729903 -0.141944 -0.338118
0.091123 0.080726 0.251897
0.264811 -0.137040 -0.287020
-0.564829 -0.208745 -0.371881
-0.185027 0.050738 -0.451973
-0.348846 0.083192 -0.448636
0.690821 -0.072905 0.063595
-0.181848 -0.208745 0.648687
-0.660326 -0.208745 0.027314
-0.460044 -0.066263 -0.325351
0.324424 0.158443 -0.208061
0.456806 0.030377 -0.331554
-0.157589 0.122303 0.449343
-0.343532 0.028271 -0.456398
0.443640 -0.117308 0.458923
0.411646 0.080726 0.049828
-0.289377 -0.037377 -0.429924
-0.202373 0.125260 0.247558
-0.504559 -0.208745 -0.433826
-0.160955 0.080726 0.324039
-0.719849 -0.203413 -0.191885
0.017334 0.196757 0.231199
0.137276 0.125260 0.027240
-0.551191 0.029598 -0.200752
-0.782572 -0.208745 -0.000054
-0.396393 -0.208745 -0.489531
-0.064836 0.164367 0.232331
-0.144481 -0.208745 -0.491417
-0.276568 0.125260 -0.397151
-0.275297 0.000406 0.485356
0.686004 -0.056910 0.025599
-0.226433 0.051637 -0.491288
-0.315240 0.000012 -0.467862
-0.266299 0.160714 -0.191673
0.211989 0.166085 0.232278
-0.488811 -0.092232 0.364941
-0.589734 0.025946 -0.091251
0.691816 -0.076159 0.250747
0.374625 -0.116102 -0.537283
0.012264 -0.016144 -0.426135
-0.480348 -0.208745 -0.486758
0.300697 -0.101160 -0.461702
-0.007118 -0.082461 0.437808
-0.400210 -0.208745 -0.524998
0.065013 -0.208745 -0.507464
-0.619948 0.055572 -0.149906
0.591769 0.050547 0.157150
-0.256328 -0.141944 -0.601215
-0.062198 0.073126 0.444082
-0.726741 -0.208745 -0.045736
0.501907 0.123685 0.153166
-0.140757 0.110318 -0.180972
0.255002 -0.141944 -0.418635
0.482261 0.116367 -0.295685
-0.424724 -0.141944 0.463770
-0.113061 0.045751 0.502362
-0.408062 -0.020593 -0.368816
-0.821947 -0.146203 -0.036371
0.697760 -0.208745 -0.028198
0.609500 -0.208745 -0.545449
0.646319 0.033997 -0.315610
-0.309428 0.113108 -0.436853
-0.435955 -0.009768 0.408755
-0.084245 0.264181 0.228847
-0.205141 -0.141944 -0.529809
-0.595565 -0.171988 0.060186
0.290290 0.080726 -0.189589
0.135900 0.127504 0.249638
0.026962 0.140104 -0.064843
0.854811 -0.183199 -0.368547
0.573644 -0.126173 -0.520438
-0.046622 0.080726 0.029629
-0.313464 0.111541 0.067322
0.840256 -0.208745 -0.164577
0.216190 0.080726 -0.083617
0.461399 -0.078127 -0.467941
0.844854 -0.208745 0.009239
0.626413 -0.208745 -0.290856
-0.626713 -0.042297 0.131798
0.681723 0.032261 -0.012904
0.092878 -0.208745 0.603809
0.405592 -0.093043 -0.355935
-0.049151 0.125260 0.355336
0.559590 0.065301 0.074398
-0.235376 0.080726 0.341868
-0.022442 0.287170 0.228043
0.510516 -0.081871 -0.627828
0.003171 -0.079077 0.481226
0.144877 -0.208744 0.403116
-0.229688 0.125260 0.352816
0.028936 -0.141944 -0.569627
-0.429917 0.080726 -0.167269
0.689554 -0.102907 0.287924
0.840335 -0.208745 0.362019
-0.483871 -0.141944 -0.467845
0.009176 0.181669 0.101783
0.393559 0.080726 -0.023454
0.593467 -0.068678 -0.287020
0.743502 -0.188554 0.507188
0.363976 0.078504 -0.323252
0.319575 -0.141944 0.411962
-0.133460 0.215741 -0.225576
0.417652 -0.015623 -0.471328
0.714625 -0.208745 -0.143283
0.090311 0.069022 0.443124
0.617043 0.056140 -0.316146
0.854811 -0.177116 0.353323
0.577279 0.106123 -0.122404
-0.100696 0.231592 -0.225072
-0.374255 0.142856 0.010062
0.737361 -0.141944 -0.260687
-0.338643 -0.119208 -0.409638
-0.523122 0.125260 0.037647
0.595523 -0.169803 -0.546410
-0.439900 0.080726 0.022535
0.809259 -0.208745 -0.225563
-0.352940 0.006943 -0.402662
-0.140901 0.262564 -0.180995
0.482284 -0.007245 0.336454
0.551111 -0.104089 -0.597618
-0.150763 0.080726 0.384402
0.663191 0.052103 -0.111169
-0.472202 -0.170475 -0.313733
0.818129 -0.208745 0.527807
-0.562969 -0.208744 -0.231025
-0.317432 0.191099 0.149415
0.702917 -0.144083 0.014477
-0.633233 -0.208745 -0.213569
0.645662 -0.115867 0.291920
0.540916 -0.022324 -0.333244
-0.309086 0.245743 -0.074032
0.325054 0.080726 -0.050844
-0.636428 -0.069992 -0.082498
0.117311 0.119816 0.382012
0.704865 -0.003231 0.281754
0.854811 -0.173752 -0.250196
-0.146732 0.125260 0.280912
-0.548809 -0.185178 -0.206363
-0.349598 0.125260 -0.126030
-0.628648 0.012497 0.125506
0.726637 -0.040531 -0.025293
0.850704 -0.141944 0.066192
-0.168064 0.125260 -0.394099
-0.260868 0.001521 0.443050
0.196733 0.162460 0.150261
-0.007533 0.080726 0.113106
0.639027 -0.208745 0.341014
-0.723670 -0.141944 0.131429
-0.032968 -0.120612 -0.486134
0.505518 -0.032797 0.291920
-0.344505 -0.208745 0.466949
0.049504 0.080726 -0.321039
0.339271 0.109141 -0.303686
0.033614 0.120985 -0.416485
-0.179512 -0.208745 -0.518675
0.628456 0.023677 -0.073373
0.580273 0.055853 -0.209740
-0.508468 0.032191 0.345253
0.552292 -0.104522 -0.318824
0.729739 -0.048307 -0.084260
0.298579 -0.029278 -0.287020
0.649235 -0.015706 -0.283440
0.211761 -0.141944 -0.399391
-0.106582 0.157488 -0.176719
-0.407343 0.080726 -0.321938
0.688975 0.023735 0.019453
-0.410974 0.125260 0.180020
0.613882 0.088449 0.066126
0.061352 0.080726 0.053515
0.031414 0.072872 -0.464107
-0.491003 -0.032158 -0.292320
-0.693028 -0.208745 -0.309093
0.479732 -0.076819 -0.606829
0.691466 -0.075017 0.183275
-0.026870 -0.035519 -0.484446
0.718968 -0.141944 -0.554314
0.185003 0.257047 -0.199095
-0.238848 -0.172259 0.448580
-0.168512 -0.141944 -0.527639
0.527546 0.074931 0.082112
0.669427 0.046747 -0.072999
-0.197489 -0.141944 0.610263
-0.335707 0.125260 0.281955
0.665852 0.049834 0.059501
0.554821 0.114305 0.086804
0.579449 -0.148825 0.458923
-0.272110 -0.161434 0.440110
-0.278647 0.080706 -0.401528
0.745429 -0.113993 0.124298
-0.368923 0.206571 -0.024580
-0.432224 -0.006004 0.355362
-0.619879 -0.141944 0.440960
-0.124867 0.138311 0.184617
-0.729506 -0.203532 0.211551
-0.573718 0.080726 0.037903
0.088231 0.310126 0.218260
0.454093 0.080726 0.153768
-0.369633 0.124640 0.374034
-0.406172 0.080726 0.253502
-0.600969 -0.083109 0.205277
0.064829 0.285605 0.154583
0.148771 -0.192325 0.353161
0.014217 0.080726 0.318355
-0.379908 0.075175 0.381442
0.073092 -0.127013 -0.449221
0.586759 0.102370 0.095719
0.184341 0.111126 -0.338421
-0.569489 -0.141944 -0.517178
-0.261787 -0.055337 -0.484204
-0.263345 0.104038 0.139399
0.451344 0.122719 -0.278076
0.664846 -0.017880 0.201033
-0.495527 -0.208745 0.433504
-0.452136 -0.176966 -0.603098
-0.755990 -0.141944 -0.089133
-0.323164 -0.100477 0.421577
-0.211394 0.068054 0.496321
0.679029 -0.043970 0.245527
-0.450024 -0.202645 -0.334881
0.687381 -0.061479 0.113708
0.696912 -0.141943 0.365755
-0.030198 0.080726 0.202294
-0.163063 -0.208745 0.619154
0.389895 0.109120 -0.303743
0.472737 -0.076188 -0.398661
0.457668 0.125260 -0.243722
0.312732 -0.135643 0.336454
0.206884 -0.141944 -0.499980
0.037084 0.286810 0.037103
-0.231415 0.306843 0.202485
-0.454563 0.029029 0.335651
0.549280 -0.100826 0.310953
-0.450538 -0.141944 -0.510891
-0.686839 -0.208745 -0.113256
0.157439 -0.114308 -0.340413
-0.639347 -0.208745 0.203761
0.728749 -0.208745 0.287384
0.489170 -0.050219 0.336454
-0.380905 -0.141947 0.504895
-0.530690 -0.208745 -0.511460
0.343299 0.043569 -0.287020
0.309602 -0.208745 -0.603117
-0.468417 -0.208745 -0.553527
-0.359392 -0.108364 0.453800
0.312222 -0.167318 0.291920
0.745628 -0.117811 0.243097
0.702065 -0.208745 -0.234157
0.809262 -0.141944 -0.030001
-0.178685 -0.133057 0.457128
-0.762574 -0.172603 0.282756
0.047279 -0.030703 0.465463
0.032358 0.039476 0.471301
-0.277562 0.190163 0.125287
0.078710 0.080726 0.206133
-0.612979 -0.208745 0.047391
0.383958 -0.029284 -0.430648
0.149575 0.066268 0.406591
-0.129582 0.125260 0.380564
-0.598708 -0.132575 0.023144
0.349997 -0.049414 -0.541549
-0.007093 -0.208745 -0.520815
0.639105 -0.208745 -0.570279
-0.427129 0.125260 0.071670
0.368332 -0.123689 0.396717
0.350545 0.109110 0.308666
0.702928 -0.188301 0.008003
-0.496626 0.125260 0.106373
-0.223700 -0.141944 0.637109
0.122927 0.296643 -0.161301
-0.412188 -0.141944 0.542799
-0.127102 -0.140006 0.502710
0.166922 -0.172089 -0.331783
0.076903 0.151229 -0.227890
0.512715 0.122899 -0.036231
0.421185 -0.061122 0.384586
0.819549 -0.208745 -0.032120
0.768583 -0.169891 0.564416
-0.737535 -0.208744 0.243897
0.854811 -0.207919 -0.127622
0.772391 -0.208745 -0.198756
-0.047172 0.176182 0.158378
-0.327110 0.080726 -0.211853
0.071542 0.209215 -0.074364
0.529837 -0.090743 -0.368860
0.290406 -0.141944 0.563350
0.353629 0.079701 -0.267225
0.212552 -0.001180 0.302938
0.557083 0.088744 -0.314529
0.037983 0.112716 0.028640
-0.635675 0.088562 -0.010584
0.826058 -0.141944 -0.311694
-0.026407 0.070340 -0.433667
-0.014908 0.125260 0.321825
-0.064153 0.080726 0.076457
-0.290307 0.039105 -0.429373
-0.642838 0.019665 -0.026386
-0.539975 -0.132846 0.227167
0.131509 -0.141944 -0.474360
0.279470 0.042468 -0.287020
-0.692921 -0.208745 -0.212870
-0.620719 0.007758 -0.148471
0.007267 0.292118 -0.102417
-0.589775 0.075010 -0.033725
0.224490 0.221870 -0.219001
0.727621 -0.060360 -0.292726
0.092134 -0.141945 0.642595
0.019154 0.224762 -0.225322
0.197132 -0.141944 -0.598428
-0.276998 -0.207441 0.438791
0.414567 0.125260 0.265857
-0.551368 0.123178 -0.171434
0.078788 0.197111 0.054138
-0.543231 0.080726 0.090365
-0.286323 -0.175973 0.667142
-0.326396 0.125260 -0.280773
-0.587813 -0.141659 0.103999
-0.563235 0.114840 0.205182
-0.746407 -0.141944 -0.186138
0.576761 0.106328 -0.045326
0.450060 -0.054695 0.367676
-0.345780 0.125260 -0.321385
-0.030265 0.107830 -0.461253
-0.161954 0.125260 0.326447
0.613081 -0.069579 -0.600691
-0.169959 0.173480 0.229949
-0.310655 -0.035061 -0.469437
0.493981 0.124189 0.234430
-0.371919 0.125260 0.329282
-0.511151 -0.208745 -0.468040
-0.068261 0.080726 0.200269
0.561719 -0.141944 0.519646
-0.160409 -0.062427 -0.452682
-0.074661 0.014385 0.498588
0.480007 -0.009881 -0.452134
0.492248 0.016415 -0.331554
0.477824 -0.008908 0.291920
0.111107 0.028650 -0.429050
0.646833 -0.208745 -0.451821
-0.169346 0.080726 -0.238335
-0.345544 -0.141944 0.626280
0.193820 -0.032364 -0.367751
0.270503 0.196477 -0.206114
-0.356334 -0.073869 0.455199
0.101083 0.126743 0.013097
0.771348 -0.208745 -0.235575
-0.392975 0.125260 0.216579
0.348004 -0.049903 -0.580146
0.600392 -0.061627 -0.632158
-0.192538 -0.142273 0.680682
-0.118401 0.080827 0.498034
0.693470 -0.141944 -0.365651
0.390274 0.107936 0.311497
-0.595670 -0.067864 -0.054052
-0.595306 -0.208745 -0.418406
0.112464 0.149376 0.149802
0.378006 0.080726 -0.206319
0.539850 0.071496 -0.223025
0.199611 0.125260 -0.008596
-0.595514 -0.119880 0.217008
0.206367 0.080726 0.121619
0.100137 0.080726 -0.027159
0.134284 -0.127392 0.364315
-0.735214 -0.208745 0.134744
-0.159442 -0.097620 -0.497832
-0.416533 0.116336 -0.374269
0.146865 -0.073075 -0.349960
0.098762 0.216353 -0.225616
-0.453762 0.125260 -0.229699
-0.687093 -0.208745 0.050701
-0.674296 -0.175309 0.426854
-0.633652 0.066958 0.095525
0.337183 -0.059709 -0.430263
0.029428 0.183789 -0.226753
-0.136542 -0.208745 0.640794
-0.376751 0.010051 0.445141
0.714124 -0.014147 0.074781
0.032587 0.125260 0.298437
-0.039017 0.003572 0.492404
0.582611 0.049456 -0.276603
0.372525 -0.087583 0.463826
0.238826 0.080726 0.106716
-0.089569 -0.141944 0.636326
-0.538625 -0.141944 -0.414663
-0.131159 -0.208745 0.528221
0.067181 0.127782 0.127710
-0.627307 -0.141944 -0.243519
-0.498263 -0.208744 0.295910
-0.131597 0.269782 0.185178
-0.457926 0.101132 -0.365066
-0.378334 -0.049165 -0.439609
0.443005 0.125260 0.136480
-0.175873 0.271048 -0.178272
0.188320 0.150458 -0.227917
0.702234 -0.141944 -0.484542
0.262746 0.125256 -0.250933
0.028074 0.314455 0.131406
0.602438 -0.205391 -0.431001
0.319711 -0.208745 -0.513082
-0.010380 0.260889 -0.123239
-0.146885 -0.141944 0.529787
0.602745 0.042899 -0.095190
0.854811 -0.175260 -0.112660
-0.661296 -0.141944 0.027844
0.186074 0.252777 0.214658
-0.083841 -0.090826 0.454765
-0.099222 0.080726 -0.287344
0.552640 0.068488 0.108096
-0.351092 -0.028252 -0.403553
-0.658705 -0.208745 0.442979
-0.603036 -0.208745 0.355218
0.648305 0.064816 0.261963
0.700580 -0.117741 0.201365
0.565590 -0.117801 -0.569011
-0.198681 0.174187 0.176520
-0.734153 -0.208745 -0.162074
0.056366 0.301614 0.225633
-0.168223 -0.011923 -0.452623
0.146399 -0.208745 0.466536
0.053675 0.080726 -0.195535
-0.018082 0.054036 0.441121
-0.047284 -0.084396 -0.489150
-0.534193 -0.208745 0.447660
0.779768 -0.141944 -0.047457
-0.044347 0.151864 -0.152284
-0.074661 -0.208745 -0.606186
0.053727 0.080726 -0.241823
-0.008791 -0.015693 0.438467
-0.002151 0.053554 0.482948
-0.044617 0.125260 -0.390401
-0.475701 0.080726 -0.133845
-0.033671 -0.208745 -0.444180
0.263792 0.104158 -0.312519
-0.318815 -0.141944 0.593872
-0.210862 0.019848 -0.493587
0.563397 -0.033308 -0.446835
-0.044995 0.080726 -0.208735
0.428234 0.125260 0.105226
0.113081 -0.007230 -0.375164
0.157958 0.028328 -0.339917
0.052920 0.259333 0.115185
-0.791544 -0.141944 -0.091292
-0.186349 -0.141944 0.575956
0.066950 -0.208744 0.632702
0.025261 -0.158772 -0.421486
0.337427 -0.195189 0.428605
0.629552 0.079090 0.005345
-0.096202 0.125260 -0.258157
-0.613043 -0.141944 0.238587
-0.539570 -0.138138 0.308822
-0.588830 -0.135915 -0.225626
0.575366 0.009304 0.336454
-0.011177 0.125260 -0.264235
0.691133 -0.073925 0.147151
-0.412111 -0.208745 0.520569
0.461464 -0.078120 -0.506898
0.015501 -0.041582 0.430013
0.519464 -0.011566 0.336454
-0.270702 0.119227 -0.440327
0.185656 0.208700 -0.146981
-0.382033 0.080726 -0.299716
-0.199635 -0.141944 0.536717
-0.274741 0.266174 -0.180399
-0.114057 0.122850 0.446920
0.793988 -0.141944 -0.435537
-0.650991 -0.141944 0.403682
-0.166884 0.080726 -0.284116
0.352965 -0.075402 0.291920
0.738665 -0.076711 0.071189
-0.290765 -0.208745 0.643026
-0.430796 0.121882 -0.342976
0.313641 0.125260 -0.083910
0.245055 -0.141944 0.444311
0.286220 0.080726 -0.054667
0.536509 -0.054258 0.336454
0.664304 -0.038439 0.288550
-0.466719 -0.138708 -0.379838
0.112862 0.080726 0.202232
-0.485698 0.080726 0.136967
0.075023 -0.141944 -0.534104
0.672660 0.042951 0.171717
0.031558 -0.058994 -0.419232
0.729824 -0.048429 0.207572
0.131766 -0.141946 0.544512
-0.436164 -0.141944 -0.608230
-0.432365 0.125260 0.026944
0.701939 -0.131608 0.163279
0.036245 0.314529 -0.040868
-0.014856 0.080726 -0.052903
0.769562 -0.152723 0.479726
0.806857 -0.141944 0.041637
-0.175292 -0.208745 -0.589066
-0.050243 0.080726 0.110151
-0.352942 0.125260 0.192969
0.794364 -0.141944 -0.082302
0.269813 0.080726 0.210257
-0.161501 0.080726 -0.191552
0.588596 -0.110768 -0.287020
-0.594338 0.049226 -0.063224
-0.614601 -0.034242 0.171321
0.781483 -0.208745 0.097269
0.265016 -0.206783 0.291921
0.745675 -0.117369 -0.201821
0.802747 -0.141944 0.492341
-0.197107 -0.103037 0.455340
-0.053518 -0.141944 -0.618098
0.245657 0.189682 -0.146749
-0.439712 -0.007078 -0.400914
-0.643784 -0.058574 -0.010301
0.109925 -0.208745 0.422834
0.709040 -0.141944 0.526842
0.103026 0.125260 0.256784
0.442022 -0.079444 -0.597541
-0.032441 -0.141944 -0.588653
-0.623795 -0.141944 0.288571
-0.069199 -0.114768 -0.447474
-0.492808 -0.208745 -0.300850
0.517601 -0.091991 0.458923
0.007982 0.080726 0.213606
0.000585 -0.136016 0.481886
0.641261 0.070716 0.204216
0.499654 -0.203856 0.458923
0.382074 -0.186864 0.619169
0.244404 -0.208745 -0.630887
0.109270 0.042124 0.434757
0.435838 0.080726 0.118371
0.217712 -0.147385 -0.295257
-0.362534 0.164171 -0.062710
0.239711 0.080726 0.068240
0.854811 -0.175926 -0.211352
-0.408054 0.080726 0.058274
-0.624438 -0.141944 0.480459
-0.471932 0.125260 -0.194918
-0.802446 -0.141944 -0.008877
-0.335397 0.080726 0.368932
-0.031440 0.125260 -0.356832
-0.403110 0.125260 -0.272628
0.222450 0.097525 -0.327324
-0.122606 -0.141944 0.621020
-0.738161 -0.141944 0.248688
0.178237 -0.061652 -0.321475
0.671568 -0.047671 0.333713
0.354621 -0.141334 0.422655
0.713613 -0.013282 -0.040144
-0.411069 -0.071247 0.425552
0.687810 -0.062911 -0.145187
-0.637493 -0.138983 -0.077400
-0.527344 -0.195883 -0.243348
-0.646351 -0.208745 0.058419
0.606079 0.093109 -0.150480
-0.384873 -0.052046 0.440990
-0.582697 -0.060554 0.124548
0.854811 -0.150275 -0.188601
0.101646 0.080726 -0.082158
0.194433 0.079860 0.293011
0.026553 0.273335 0.070617
-0.614018 -0.208745 -0.333055
0.706734 -0.001826 0.234976
-0.194718 -0.141944 -0.565459
0.639541 -0.208745 0.582260
-0.582902 -0.191886 0.123756
-0.813609 -0.181001 -0.110646
0.160205 0.125260 0.110594
0.612475 0.011061 0.335833
-0.074812 0.163431 -0.165598
-0.641122 -0.141451 0.054732
-0.154980 -0.119702 0.503121
-0.569407 -0.141944 -0.481295
-0.221818 0.060237 0.451649
-0.206314 0.125260 -0.391830
-0.476021 0.125260 -0.267182
0.082959 0.239216 -0.008533
-0.620919 -0.006408 0.152705
0.064905 0.080726 0.157846
0.559083 0.113259 -0.225110
0.304922 0.080726 -0.254342
0.540307 0.117617 0.049209
0.034960 0.080726 -0.366000
0.641246 -0.106265 -0.584787
-0.338527 0.314302 -0.035406
0.085292 -0.141944 -0.579845
-0.181990 0.080726 0.401058
0.692894 0.019140 0.070683
0.561121 0.064599 -0.000823
0.071581 0.154068 0.148906
-0.362601 0.080726 -0.231323
-0.126150 -0.060868 -0.453192
0.007673 0.080726 -0.024154
0.597409 -0.174321 0.334508
-0.584402 -0.141944 0.473861
-0.440294 -0.090984 0.405406
-0.031024 0.228822 0.230080
0.414317 -0.008585 0.291920
0.673029 0.036019 -0.286063
-0.037252 0.080726 0.266281
-0.355626 0.125260 -0.160666
0.574650 0.058396 -0.152352
-0.093047 0.125260 0.336909
0.854811 -0.193336 -0.306922
-0.122649 -0.027196 -0.453004
-0.300506 -0.208745 -0.587128
-0.095239 -0.208745 -0.540074
0.442880 -0.074447 -0.632158
0.600213 -0.173648 0.590361
0.657312 -0.008225 -0.043272
-0.542905 0.080726 0.000648
0.653386 -0.081416 0.291920
-0.603731 -0.140338 -0.194573
0.445879 0.125260 0.046095
0.074335 0.301016 0.051039
0.658486 -0.208745 0.554059
0.192498 -0.167224 0.316374
0.183344 0.019989 0.322506
0.163346 0.080726 0.194056
0.459023 0.075497 0.333101
0.061882 0.055348 0.459167
0.254008 0.080726 -0.032848
-0.451450 -0.035828 0.338920
0.854811 -0.165093 -0.001744
-0.201938 -0.005546 0.499864
-0.313585 0.080726 -0.051461
0.503464 0.123469 -0.258559
0.340037 -0.008296 -0.331554
0.480215 0.125260 -0.167083
-0.731504 -0.164515 0.221343
-0.599025 -0.062828 -0.010504
0.657587 -0.008543 -0.165820
0.796487 -0.208745 0.374422
-0.706082 -0.184964 0.187882
-0.369996 0.170182 -0.026804
0.060620 -0.043922 0.410385
-0.326209 0.125260 -0.199368
0.847596 -0.141944 0.322316
0.255703 0.125260 0.103733
-0.254733 0.140990 0.204104
0.346076 0.080726 0.215990
0.328830 -0.208745 0.572835
0.451977 0.080726 -0.169596
0.378184 -0.112983 -0.349636
0.668868 -0.175938 -0.632158
0.460935 -0.078177 -0.431918
-0.466580 -0.172326 0.324208
-0.242816 -0.026511 0.447572
0.278152 0.121623 -0.283893
-0.318177 -0.141944 0.557177
-0.493628 -0.080241 -0.289140
0.167500 0.125260 0.065030
0.508789 -0.170360 0.458923
-0.484087 -0.208745 0.401377
-0.100391 0.044210 -0.451830
0.219626 0.080726 -0.128754
0.265721 -0.065186 -0.287020
-0.081875 0.080726 -0.319347
0.262214 0.000294 0.291920
0.006385 0.257227 -0.224187
-0.529792 -0.095059 -0.316200
0.693104 -0.080490 -0.016262
0.598320 -0.180159 0.456758
-0.399332 -0.131144 0.379879
0.422065 0.080726 0.191405
-0.565506 -0.009656 0.175437
0.639991 0.011776 0.039204
-0.429166 -0.122859 0.413377
-0.724401 -0.141944 0.178451
-0.310859 0.125260 0.370152
0.185928 -0.071827 0.320775
-0.253565 -0.208745 -0.445141
-0.281972 -0.141944 -0.511412
-0.806674 -0.208745 0.120311
-0.574157 -0.141944 0.287142
0.464165 -0.171694 0.608328
-0.109135 -0.208745 -0.469598
-0.328978 -0.175405 0.566389
0.852740 -0.141944 0.435218
0.701402 -0.126348 -0.114238
-0.440505 -0.208745 -0.489078
0.312515 -0.208745 0.408255
-0.566506 -0.141944 -0.270090
0.172664 0.181777 -0.226823
0.353261 -0.145193 -0.341132
0.134766 0.080726 -0.183130
0.136125 -0.161742 0.618807
-0.633436 -0.208745 -0.085950
0.080443 0.298569 0.017728
-0.204252 -0.054292 -0.449262
0.380462 -0.030701 -0.553233
0.673639 -0.208745 0.416062
-0.380770 -0.141943 -0.486977
0.064644 -0.174275 -0.632158
0.631233 0.021601 0.128608
0.554432 -0.080207 0.474134
-0.199063 -0.208745 0.614121
0.232705 0.150096 -0.144929
0.539911 0.071881 -0.111923
-0.600749 -0.065727 -0.201255
0.464404 -0.008638 -0.331554
-0.263843 0.220477 -0.134106
0.765340 -0.141944 0.415666
-0.177978 0.031521 -0.496935
0.745132 -0.109902 -0.028804
0.128366 0.078387 -0.413227
-0.051107 0.088849 -0.481075
-0.189173 0.080726 -0.399404
0.026728 0.080726 -0.221642
-0.576571 0.040107 0.144636
0.151881 0.258672 -0.222619
0.147901 -0.141944 0.469922
0.354099 0.125260 -0.064790
0.228177 -0.180243 0.639494
0.291540 -0.141944 0.483804
0.185445 -0.208745 0.541057
-0.236963 0.080726 0.392538
-0.006850 -0.208744 0.510567
-0.287445 0.080726 0.156422
-0.266737 0.080726 0.184903
0.139013 0.287897 -0.206940
0.206475 -0.141944 0.441249
-0.549261 -0.078335 -0.290332
-0.145633 -0.208745 -0.525661
0.801043 -0.141944 0.312666
0.020884 -0.107926 0.475554
0.363941 0.125260 0.140385
-0.312984 0.124682 0.404872
-0.149614 0.080726 0.217920
-0.088925 -0.055328 -0.495288
-0.086978 0.218378 0.176650
-0.631551 -0.141944 -0.367259
-0.136157 -0.196759 -0.453681
0.809020 -0.208745 -0.328646
-0.699277 -0.141944 0.307267
-0.553876 0.079533 0.281145
0.163478 -0.141944 0.644306
0.765543 -0.208745 -0.358564
0.289062 -0.208745 0.440993
0.172204 -0.023749 -0.326967
-0.631487 0.080543 -0.086273
0.499225 -0.079874 0.315135
-0.162199 -0.083614 0.502622
-0.369717 0.144549 0.046697
-0.030250 0.080726 0.067893
0.095578 0.126831 -0.129880
0.376685 0.049862 -0.287020
-0.236597 0.133421 -0.214891
-0.460989 -0.141944 0.563307
0.053277 0.022627 0.413999
-0.262678 -0.208745 -0.521226
0.137752 0.008917 -0.412104
-0.339650 0.080726 0.154278
0.552258 -0.105631 -0.389508
-0.281772 -0.208745 0.476002
0.362725 0.066120 0.333281
0.702928 -0.202283 -0.098881
0.347593 -0.141944 0.619603
-0.664645 -0.208745 0.091930
-0.268434 0.278252 -0.130022
-0.581317 0.060691 -0.123155
-0.335656 -0.139803 0.416174
-0.544129 -0.082869 -0.215007
0.277109 0.078543 0.279024
-0.576816 -0.141944 -0.397281
0.270103 -0.154327 0.633956
0.129780 0.080726 0.241087
-0.121209 0.076991 -0.443207
0.606590 -0.136854 0.438628
-0.389481 0.080726 -0.023958
0.364269 0.080726 0.003199
-0.467272 -0.141944 -0.414798
0.510412 -0.083319 -0.591027
0.323367 -0.095446 0.291920
-0.008387 0.080726 -0.301233
0.638166 -0.113871 0.336454
0.347617 -0.051326 -0.376451
-0.005693 -0.141944 0.630806
0.270847 -0.030448 -0.331554
-0.153890 -0.135248 -0.498080
-0.194831 0.173992 -0.220386
-0.232309 -0.082788 -0.490322
0.629665 0.079022 -0.035031
0.720819 -0.208745 -0.507154
0.733264 -0.145096 -0.403757
0.400687 -0.069384 0.433099
0.026443 -0.208745 -0.628950
-0.551173 0.123738 0.169766
0.096967 -0.141943 0.442264
-0.234382 0.024985 0.449565
0.537507 0.118264 -0.182761
0.131184 0.229201 -0.147698
-0.190617 0.210565 0.224750
0.199294 -0.013999 -0.306919
0.072296 0.071728 0.397877
-0.397666 0.125260 -0.168132
-0.688724 -0.208745 0.342477
-0.521266 0.125260 0.196915
0.831163 -0.208745 0.163108
