-0.165403 0.122195 -0.023503
0.361174 0.076200 0.097254
0.226908 0.540963 -0.212926
0.190450 0.164224 -0.202594
0.359168 0.139505 -0.084420
0.123669 0.720055 -0.147796
0.071034 -0.439709 0.253484
-0.200612 -0.186594 -0.357127
0.262832 0.089183 -0.141187
0.425338 0.008792 0.113915
0.156946 -0.290896 -0.466719
0.344263 0.884784 -0.135376
-0.229967 0.005822 0.229208
0.133912 -0.148867 -0.440745
-0.310064 -0.314989 -0.167979
0.482520 -0.260324 0.229823
0.188736 -0.430594 -0.616679
-0.106487 0.070522 0.051592
0.199736 -0.200657 -0.495564
0.085735 0.158375 -0.120021
-0.221383 0.109755 -0.055578
0.070488 0.191731 -0.204657
-0.300158 -0.320459 0.352758
0.266596 0.404730 -0.257434
0.064612 0.007673 0.286150
-0.304405 -0.584565 0.261626
-0.261727 -0.211830 0.457652
0.294398 0.102917 -0.180119
-0.055556 0.005862 0.291505
0.059989 -0.096952 0.401453
0.104154 0.025158 0.177411
-0.098570 0.702849 -0.147677
-0.126028 0.105886 -0.044315
0.221093 -0.440234 -0.554614
-0.251677 -0.561053 0.331835
0.324522 0.715905 -0.145239
0.181068 0.035953 -0.369920
0.398153 -0.032949 0.340022
-0.126464 0.091616 0.053568
0.290553 0.414322 -0.203991
0.162649 -0.209334 -0.485224
0.215913 0.006056 -0.309705
-0.354547 -0.437526 -0.453333
0.452774 -0.615944 0.128106
-0.293847 -0.098203 -0.229698
0.491630 -0.179831 0.230785
-0.183932 0.452018 -0.172584
0.336040 -0.313681 -0.203106
-0.322100 -0.566305 -0.443990
0.429570 0.038115 0.130085
0.356520 -0.002201 0.110885
0.329147 0.058532 -0.058675
0.237269 -0.100585 -0.368818
-0.088908 -0.100200 0.400248
0.332130 0.798148 -0.151803
-0.151938 0.041667 0.197533
-0.096935 -0.414707 0.276279
0.100599 0.067366 0.122603
-0.224269 0.065111 0.127663
0.485430 -0.822994 0.060620
0.236123 -0.255935 -0.410108
0.235419 0.006613 -0.391173
0.244738 -0.392587 0.232528
0.178304 -0.081601 0.332550
-0.313799 -0.095405 -0.205479
0.074999 -0.152697 -0.425695
-0.335114 -0.165779 -0.321397
0.214980 -0.421718 0.207958
0.484499 -0.005601 0.301125
0.393101 -0.100809 0.312000
0.249916 -0.044251 -0.378846
0.264079 0.242161 -0.293778
-0.161631 0.020764 0.188686
0.343607 0.913762 -0.135765
0.196379 0.472097 -0.229911
0.153173 -0.399497 -0.588017
-0.288297 -0.364660 -0.077342
0.036300 0.696133 -0.165429
0.188596 0.206438 -0.290677
-0.058998 -0.051323 0.460175
0.232620 0.334540 -0.282491
-0.023039 0.134040 -0.057586
0.280908 0.810166 -0.112918
-0.384723 0.105856 -0.158760
0.034434 0.012435 0.212868
-0.312700 -0.000698 -0.244298
0.204141 -0.030186 0.327554
0.310939 -0.097212 0.335227
0.186525 -0.334649 -0.467524
-0.225532 0.697713 -0.104972
-0.312846 -0.735125 0.249215
0.019692 -0.085447 0.415333
0.274549 -0.261624 -0.337649
0.217902 -0.034406 0.410394
0.350141 0.028445 0.023478
-0.388364 -0.614269 -0.495647
0.293915 -0.049778 0.311150
-0.090888 0.119619 -0.020748
0.173696 0.906342 -0.142750
0.212327 -0.510069 -0.637131
0.481794 -0.463090 0.100892
-0.027382 -0.120232 0.372455
-0.055991 -0.079137 0.438769
-0.259080 -0.507479 0.247178
0.209666 0.370378 -0.255170
-0.234081 -0.281584 0.419698
-0.286724 -0.136929 0.409330
-0.384807 -0.604830 -0.474624
0.283255 -0.105095 0.339129
-0.283153 -0.060019 0.473894
-0.162774 0.856175 -0.080319
0.492458 -0.390501 0.154470
0.481552 -0.848493 0.007701
0.151635 -0.022700 0.380276
-0.197198 0.463505 -0.146703
0.231037 0.158109 -0.115761
-0.294344 -0.091817 0.352663
-0.354111 0.020296 0.036629
0.262640 0.681866 -0.200492
-0.085945 -0.019638 0.293560
-0.418606 0.571494 -0.064512
-0.062769 -0.022904 0.302954
0.348611 -0.040848 0.300925
0.346770 0.016521 0.098191
0.285869 0.587981 -0.141116
-0.019821 0.179290 -0.242046
-0.167920 -0.157734 0.401797
-0.098852 -0.433902 0.319250
0.243111 -0.075778 -0.363088
-0.215354 0.419346 -0.139129
-0.463480 0.781842 0.061202
-0.424575 0.496009 -0.036571
0.348194 -0.325975 -0.179131
0.047289 0.197239 -0.267938
-0.006068 -0.075870 0.380810
0.173402 -0.499018 -0.654672
0.171933 -0.401728 0.252802
-0.331987 -0.348524 -0.198710
0.133891 0.170564 -0.219888
-0.322128 -0.605290 -0.494559
-0.144726 0.705867 -0.106877
0.435564 -0.417718 0.035008
-0.237513 -0.473880 0.289145
0.134583 -0.096985 0.382572
-0.305624 -0.262421 -0.351629
-0.244802 0.043564 0.125369
-0.251578 -0.476451 0.269414
-0.377120 -0.203343 -0.280148
-0.083753 0.131359 -0.049314
0.485726 -0.414004 0.172184
-0.303605 -0.061820 0.260943
0.182597 -0.267839 -0.434756
-0.060311 0.138804 -0.069012
0.413341 -0.008290 0.338714
-0.297413 0.074134 0.101642
-0.305455 -0.466843 0.306574
0.148124 -0.474277 -0.583264
0.207761 -0.382792 -0.582945
0.251021 0.023306 0.245306
-0.116677 0.132857 -0.052314
-0.086871 0.164938 -0.135707
-0.388762 0.428468 -0.037099
0.151717 -0.327904 -0.492680
-0.325440 -0.021761 0.152359
0.291440 -0.334134 -0.205335
0.473272 -0.434327 0.176960
0.411764 -0.401857 0.104352
-0.291220 -0.849824 0.203062
-0.282584 -0.762002 0.284216
-0.032985 0.170628 -0.219299
-0.383004 -0.605141 -0.516192
0.184542 -0.506165 -0.569411
-0.331024 0.020252 0.034024
0.235968 0.260371 -0.305433
0.221398 0.060559 0.144827
-0.360859 -0.368763 -0.331972
0.266203 0.294336 -0.216029
0.337374 -0.396088 0.212903
0.272965 0.230660 -0.275443
-0.374262 -0.283377 -0.307649
-0.241301 -0.600320 0.258667
0.434586 -0.556489 0.070463
0.129492 0.077062 0.092138
-0.073941 -0.153360 -0.352077
0.476066 -0.084217 0.243924
-0.223152 0.129966 -0.040883
0.176779 0.037235 -0.328389
0.146933 -0.491315 -0.598768
-0.243145 -0.078791 0.363424
0.347633 0.162443 -0.151344
-0.052155 -0.166822 -0.341917
-0.302455 -0.306866 0.379312
-0.237378 -0.758705 0.256371
-0.384383 -0.445515 -0.403835
-0.251113 -0.100092 0.368689
-0.308872 0.056294 0.147755
-0.254879 -0.399909 0.300585
0.392895 0.010053 0.078800
-0.391842 0.563442 -0.070612
-0.197663 -0.054242 0.472153
0.135744 0.026428 0.173404
-0.309906 -0.016698 -0.180768
-0.309726 -0.645488 0.255272
-0.251419 -0.723895 0.289445
0.409163 -0.112617 0.238657
0.482953 -0.319393 0.152463
-0.070365 0.185809 -0.190267
0.267697 0.284843 -0.280563
0.176079 0.467857 -0.193691
-0.082377 -0.448978 0.312935
0.487407 -0.530600 0.087728
0.453976 -0.208216 0.177246
0.201537 0.157140 -0.182898
-0.012977 0.169438 -0.147192
0.220236 0.352164 -0.272908
-0.096197 -0.009916 0.274647
0.437413 -0.709077 0.089303
0.445633 -0.762624 0.074633
0.109725 -0.393931 0.223235
-0.263784 -0.152982 0.392072
-0.177513 -0.105570 0.458999
0.266470 -0.049646 0.365995
-0.054474 0.133807 -0.121610
0.485796 -0.492369 0.149234
0.081374 0.117688 -0.066859
-0.226712 -0.213732 -0.319735
0.389479 -0.366553 0.159299
0.419448 -0.389662 0.050426
0.292368 0.434214 -0.218026
0.056095 -0.121657 0.366359
-0.290277 -0.646008 0.236088
-0.308602 -0.487087 0.318483
0.280954 0.154635 -0.240859
-0.376864 0.084082 -0.155903
0.373420 -0.402010 0.006247
0.349964 -0.347158 -0.166946
0.119080 0.163731 -0.201209
-0.248206 -0.170499 -0.333746
0.229578 -0.015131 0.359404
0.325208 0.737501 -0.133925
0.084071 0.014420 0.206221
0.262696 0.708316 -0.194476
0.206495 -0.015425 0.359630
0.030422 0.160706 -0.123692
-0.412269 0.364045 -0.102868
0.268076 0.797274 -0.177780
-0.080250 0.191879 -0.257686
0.367130 0.076186 -0.094612
0.306220 0.158100 -0.117201
0.448720 -0.271046 0.150724
0.068280 -0.188997 -0.392315
-0.408499 0.478088 -0.027791
0.268779 0.198435 -0.222740
-0.112304 0.021357 0.254808
0.016959 -0.022457 0.373633
-0.028153 0.130334 -0.111621
0.507855 -0.846425 0.024791
-0.073247 0.016881 0.265145
0.230425 -0.240991 -0.434321
-0.145713 0.075485 0.039439
0.021723 -0.023301 0.305091
0.307908 0.057317 -0.002659
0.439113 0.012397 0.171525
0.125371 0.178238 -0.241457
0.488983 -0.223833 0.202125
-0.250809 0.069038 0.116590
0.242342 -0.045862 -0.344316
0.459141 -0.289224 0.232949
0.048682 -0.023654 0.377353
0.294584 0.813527 -0.180446
-0.366356 0.025112 0.129525
0.204567 -0.155965 -0.378296
-0.297341 -0.409831 -0.032510
0.246303 0.661553 -0.197197
-0.304636 -0.470878 0.217510
0.149203 -0.528512 -0.613090
-0.420218 0.602615 -0.056163
-0.241363 -0.660831 0.250963
-0.367353 0.285108 -0.078238
-0.304397 -0.711496 0.233989
-0.187068 0.703551 -0.099409
-0.003868 0.138606 -0.132565
-0.188272 0.888106 -0.084736
0.179825 0.191632 -0.207896
0.222888 0.431361 -0.189619
0.429693 -0.722189 0.063022
-0.260370 -0.058387 0.478444
0.112169 -0.060530 0.403565
-0.307883 -0.050160 0.331661
0.150211 -0.372624 -0.518797
-0.088762 0.044668 0.190350
0.229821 -0.334276 -0.518804
-0.382594 0.613172 -0.045998
-0.257632 -0.464709 0.181103
0.193637 0.480774 -0.206589
0.107965 -0.435440 0.258953
0.428534 -0.398353 0.088211
0.255633 0.369377 -0.188826
0.237775 0.573205 -0.214950
-0.341632 0.056532 -0.065733
-0.380418 0.484765 -0.018397
-0.405951 0.384152 -0.114461
-0.353478 -0.631322 -0.468510
-0.249449 -0.105811 0.392091
-0.252460 0.881571 -0.056449
0.459083 -0.530987 0.151614
-0.164486 0.139611 -0.136247
0.382848 -0.363870 -0.098368
0.201312 0.321485 -0.248143
-0.218181 -0.005628 0.262130
0.223363 -0.307584 -0.529000
-0.094251 -0.018595 0.364005
0.287158 0.687907 -0.199742
-0.216091 -0.004316 0.324848
-0.037314 0.477101 -0.192783
0.136200 0.101606 0.021085
0.153322 -0.228588 -0.476229
0.498732 -0.667925 0.064716
-0.437641 0.737700 -0.019053
-0.277780 -0.054330 0.240975
-0.273215 -0.868814 0.194811
0.291575 -0.320526 -0.184328
0.483270 -0.655068 0.052116
-0.369875 0.082949 -0.125704
0.375021 0.063402 0.133500
0.022585 -0.407297 0.244733
-0.004980 -0.104325 0.370727
0.362241 -0.367904 -0.037291
-0.026654 -0.030776 0.398125
0.299800 0.492977 -0.192091
-0.305836 -0.022528 -0.247426
0.319694 0.934523 -0.139178
-0.112704 -0.156699 0.412326
-0.275605 0.077130 0.094416
-0.053163 0.163236 -0.200479
-0.127279 -0.004655 0.322739
-0.435357 0.847354 0.014578
0.161334 0.871619 -0.121937
-0.359989 0.620572 -0.029455
-0.482483 0.862067 0.047004
-0.256921 -0.181625 0.469649
0.184175 0.006714 -0.324258
-0.376167 -0.591228 -0.455919
-0.328594 0.111514 0.007554
-0.300802 0.021439 0.034174
-0.059098 -0.004985 0.323172
-0.060418 -0.182509 -0.387584
0.016643 0.107976 -0.044534
-0.038015 -0.188493 -0.387053
0.314494 -0.074839 0.341510
0.231609 0.720253 -0.162764
0.291858 0.440945 -0.192575
-0.386306 -0.581150 -0.497488
0.297777 0.754150 -0.112713
-0.305599 -0.875808 0.221244
-0.196411 0.034074 0.218478
-0.245979 0.869575 -0.037147
0.460345 -0.428924 0.093666
0.485423 -0.107435 0.287384
0.171362 -0.259992 -0.522053
-0.333499 -0.328615 -0.139850
0.105254 -0.036277 0.344455
-0.175967 0.012450 0.212714
-0.233845 -0.638971 0.263477
0.149909 -0.556426 -0.630734
0.159781 -0.521104 -0.591604
0.216970 -0.527704 -0.621640
-0.290356 0.120493 -0.015790
-0.251889 -0.473036 0.246054
0.429960 -0.431674 0.177044
-0.010481 0.026356 0.175500
-0.099643 -0.137779 0.428161
0.266071 0.141889 -0.078509
-0.300210 -0.735221 0.225957
-0.348136 0.828172 -0.025779
0.485026 -0.176430 0.260901
0.479003 -0.295014 0.219745
-0.290291 -0.100374 0.426234
-0.188507 -0.067981 0.435666
0.410466 -0.165787 0.264357
0.453904 -0.358392 0.119723
0.421511 -0.418455 0.014054
-0.358031 0.134306 -0.122091
0.145501 0.126595 -0.097283
0.149194 -0.280387 -0.495016
0.250860 0.649551 -0.144420
0.156377 -0.151714 -0.392848
0.172809 -0.486055 -0.559744
0.256431 0.437445 -0.171293
0.401217 0.056135 0.016609
-0.328620 0.028466 0.221955
-0.242031 0.693947 -0.082128
-0.358270 -0.294992 -0.290235
0.023845 0.189121 -0.265395
0.230421 0.087308 0.009043
-0.287799 -0.130837 0.475872
0.239455 0.666488 -0.158228
0.211475 0.081037 0.025826
-0.031724 -0.070115 0.469795
0.139809 0.070952 0.050829
0.492491 -0.561219 0.086598
0.486967 -0.236855 0.231910
0.025750 -0.167640 -0.359508
-0.332656 0.147006 -0.199064
-0.342689 0.062316 -0.231086
0.150029 0.465257 -0.191564
-0.383797 -0.552973 -0.488205
-0.009897 0.005589 0.292841
0.145320 -0.393378 -0.545606
0.369747 -0.001957 0.156930
0.127129 0.135678 -0.123580
0.220999 0.001126 0.310138
-0.369395 0.063475 0.112030
-0.223020 0.155865 -0.111698
-0.164047 -0.152456 0.439306
-0.049475 0.122479 -0.089649
-0.266129 -0.315655 0.416990
0.108748 -0.088499 0.391805
0.405751 -0.202729 0.207409
0.268497 -0.419538 0.221935
-0.178073 0.052700 0.162891
0.185347 0.055799 0.094341
-0.252434 -0.526193 0.263817
0.040255 0.868430 -0.115573
-0.344899 0.127536 -0.208396
-0.351423 0.409168 -0.117355
0.282702 0.845862 -0.109532
-0.218730 0.180682 -0.179306
-0.304470 -0.395130 0.333882
0.145886 0.070090 0.116020
-0.055746 -0.156213 -0.384430
-0.343716 -0.290892 -0.237503
0.068361 -0.139062 -0.404411
0.179236 0.091481 -0.315944
-0.388025 0.191074 -0.127975
0.486894 -0.381723 0.179865
0.182612 0.085306 0.070899
-0.296792 -0.422185 0.119246
-0.307682 -0.506073 0.297691
-0.297634 -0.497769 0.221635
0.163476 0.090546 0.054495
-0.381308 0.030565 0.014106
-0.266300 -0.233694 0.359624
-0.301360 -0.215650 -0.326357
0.042781 -0.431455 0.243865
-0.256225 -0.284958 0.339941
0.251782 0.111429 -0.154494
-0.351542 -0.589845 -0.442562
0.229150 0.025947 0.236915
-0.338970 -0.371318 -0.103936
0.212109 0.004113 0.228352
0.184191 0.153852 -0.297081
-0.002681 0.450832 -0.171888
-0.349435 -0.231015 -0.351711
0.164740 0.026638 0.172526
0.341768 -0.395124 0.162360
-0.059080 -0.137008 0.381601
-0.302998 0.649116 -0.073173
-0.075511 0.052887 0.166184
-0.075009 0.157452 -0.116604
0.027720 -0.076093 0.372924
0.031744 0.043206 0.127011
-0.389543 0.250194 -0.156784
-0.305194 -0.475272 0.164661
0.288694 0.392957 -0.213588
-0.272918 0.114132 0.001531
-0.208525 -0.182442 -0.302305
-0.020142 0.099690 -0.023470
0.160965 -0.365483 -0.497887
-0.292654 -0.029785 0.172665
0.218467 -0.383876 0.225911
0.213406 -0.535850 -0.645282
-0.163800 0.082482 0.079290
-0.223006 -0.233108 0.384330
0.283359 0.394061 -0.241335
0.497923 -0.564352 0.109903
0.146944 0.012860 0.272673
-0.165354 -0.066880 0.431966
0.347210 0.010370 0.075225
-0.191731 0.151080 -0.166059
-0.398447 0.621467 0.020964
-0.293538 -0.805911 0.210708
-0.069607 0.122359 -0.029896
0.291881 0.935414 -0.140687
-0.302995 0.044040 0.181891
0.245431 0.164149 -0.133881
-0.314312 -0.011588 0.122518
0.473707 -0.104767 0.231893
0.450713 -0.582418 0.060054
-0.384202 -0.489625 -0.421838
-0.308048 -0.758765 0.231403
-0.249543 -0.071495 0.328940
0.240808 0.399063 -0.265123
-0.056758 -0.046130 0.374089
0.208942 -0.100402 0.362186
0.409131 -0.314800 0.197256
0.395701 0.033582 0.014027
-0.364054 -0.176736 -0.318990
0.225529 -0.217338 -0.487382
0.344550 -0.014402 0.356886
-0.288074 0.085360 0.072639
-0.073998 0.035811 0.147117
0.427545 -0.540637 0.139049
-0.318185 -0.041878 0.206185
0.333250 0.023763 0.040473
-0.396724 0.210494 -0.138019
0.235472 0.283507 -0.298128
0.358104 -0.380782 0.200836
0.183679 0.194733 -0.262179
0.457255 -0.046305 0.335619
-0.332434 -0.279909 -0.256291
-0.380658 -0.637283 -0.498510
-0.331887 -0.005787 0.296520
0.413291 -0.469986 0.104708
-0.207669 0.068635 0.058260
0.202676 0.039764 0.200776
-0.223658 -0.216616 0.437500
0.447363 0.030205 0.229151
-0.176039 -0.058192 0.408772
-0.218906 0.017998 0.261374
0.356441 0.129697 -0.055147
0.299929 0.557462 -0.158580
0.430087 -0.524896 0.078943
-0.301980 -0.358562 -0.050094
-0.093148 0.145891 -0.152878
0.329986 -0.043540 0.350063
-0.276289 0.061844 0.135788
0.175631 0.723830 -0.155868
-0.283042 -0.154215 0.472151
-0.302075 -0.365285 0.369950
-0.235456 -0.031423 0.404233
0.111041 -0.049254 0.363744
-0.391559 0.251248 -0.104926
-0.229292 0.670289 -0.106170
0.202619 0.196784 -0.220756
0.279818 0.724429 -0.194998
0.166012 0.019458 0.254261
0.313959 0.088124 -0.141358
-0.190664 0.139738 -0.068211
0.040706 0.106349 -0.041221
0.084344 0.149581 -0.097612
0.378035 -0.029404 0.371927
0.136491 0.457706 -0.226709
-0.356635 0.265655 -0.163813
-0.034060 -0.156055 -0.393671
0.491494 -0.321815 0.173990
0.133436 -0.032318 0.333025
0.243388 0.688750 -0.189522
0.091123 -0.138008 -0.411909
-0.342677 0.219332 -0.176696
0.280764 0.121446 -0.029995
-0.423904 0.451753 -0.067577
0.428697 -0.587418 0.124742
-0.196491 0.030188 0.164427
-0.087997 -0.056825 0.405923
-0.298256 -0.395549 -0.066195
-0.320356 0.826181 -0.021256
0.221320 -0.347549 -0.492739
0.412505 -0.131949 0.225873
-0.406759 0.798753 0.038815
-0.164968 0.140136 -0.070078
-0.301174 -0.824792 0.260126
0.155711 0.031735 0.221564
0.347252 -0.378717 -0.061363
-0.194992 0.004028 0.300885
0.158980 -0.419640 -0.530370
0.247294 -0.416355 0.233607
0.365817 0.109664 -0.093709
-0.275327 -0.550736 0.338448
-0.140511 0.037507 0.142620
0.257183 -0.106071 0.311307
-0.324826 -0.356993 -0.177771
-0.061481 0.103688 0.021539
0.198023 0.049977 0.174379
-0.232689 -0.075830 0.422659
-0.103786 -0.067640 0.419689
0.255565 0.622306 -0.142080
0.189475 0.017644 0.260262
-0.309788 -0.415162 0.090577
-0.310390 -0.225432 -0.263455
-0.303675 0.064962 0.125600
-0.157348 0.049446 0.173531
-0.359417 0.516078 -0.072314
0.062940 0.039393 0.204182
-0.185552 -0.024322 0.310293
0.171979 -0.000115 -0.366716
0.267432 0.511904 -0.235558
0.220407 -0.050221 0.331111
-0.028739 -0.038686 0.422023
-0.306551 -0.791353 0.226366
0.416139 0.033902 0.075132
0.142767 0.024638 0.239459
0.095692 0.874733 -0.114278
-0.355282 0.199372 -0.184465
0.221689 0.050931 0.171686
-0.016976 -0.409304 0.255794
0.125471 0.471772 -0.192215
-0.361826 -0.313014 -0.387900
0.215360 0.134090 -0.259376
0.285026 -0.111985 0.315905
-0.390436 0.082148 0.022035
0.238771 -0.270319 -0.387591
0.352962 0.012423 0.279389
0.150924 -0.305408 -0.485385
0.372843 -0.342692 -0.094729
-0.174532 -0.129642 0.450090
-0.134355 0.192029 -0.237036
0.220236 0.029633 -0.300357
-0.256182 -0.010617 0.261949
-0.310955 -0.515750 -0.441796
0.355886 0.001516 0.242188
-0.054182 0.146944 -0.090049
0.256945 -0.239415 -0.367995
-0.339316 -0.252883 -0.268951
-0.325774 0.416769 -0.120545
-0.154549 0.003144 0.240225
0.183148 0.111627 -0.333638
0.088794 -0.179147 -0.379413
-0.393769 0.719703 0.020711
-0.351535 0.858233 -0.028686
-0.283575 -0.411512 0.085267
-0.329922 -0.013971 -0.258089
0.239112 0.693349 -0.146291
0.096129 0.164466 -0.203425
-0.187321 -0.448787 0.294159
0.460788 -0.162928 0.285754
-0.405206 0.777985 0.016248
-0.188056 0.081672 0.082027
-0.372419 0.451863 -0.029673
0.375430 -0.017200 0.296437
-0.320470 -0.439295 0.091827
0.453832 -0.853541 0.044265
-0.279527 -0.463143 0.113573
-0.326965 0.335337 -0.115779
0.295639 0.111364 -0.002890
0.023469 -0.423097 0.292200
-0.055080 0.040610 0.133847
0.224506 -0.265132 -0.445259
0.223373 -0.074628 -0.346639
-0.390615 0.693973 0.022924
0.043576 0.062526 0.136865
-0.294895 -0.429856 0.141258
-0.161583 -0.100860 0.416364
0.352831 -0.076551 0.330716
-0.422846 0.692884 0.043495
-0.029977 0.872344 -0.119668
-0.187922 0.090089 0.060038
0.240346 0.105477 -0.273873
-0.319551 -0.498631 -0.467818
-0.100870 -0.007341 0.329669
-0.277223 -0.018729 0.365206
-0.243837 -0.212655 -0.301903
-0.254738 -0.630443 0.241552
-0.203838 0.059692 0.143458
-0.317716 -0.415540 -0.433135
0.489765 -0.057123 0.282718
0.249119 -0.234717 -0.391500
-0.329519 0.006042 0.074604
0.069343 -0.055531 0.371627
0.333069 -0.102263 0.326987
0.346840 -0.096993 0.281384
0.260437 0.083570 -0.328053
0.236003 -0.220186 -0.465155
-0.110595 -0.456432 0.312608
-0.241797 -0.843151 0.232079
-0.361945 0.143224 -0.089816
-0.260743 -0.602672 0.241855
-0.278992 -0.590317 0.327361
0.384458 0.045195 0.184532
-0.352218 0.134921 -0.056009
-0.313707 -0.710745 0.258605
-0.074844 0.697040 -0.151388
-0.025026 -0.082917 0.428511
0.488510 -0.106575 0.252882
-0.155357 -0.045085 0.445110
-0.353522 0.077492 -0.141739
-0.196994 -0.127610 0.456433
-0.324445 0.660615 -0.038237
0.144396 -0.104830 0.340081
-0.309786 0.004406 0.295533
-0.259812 -0.680956 0.230970
0.169481 -0.130988 -0.391733
-0.466528 0.750225 0.048257
0.468368 -0.704130 0.033833
0.426871 -0.698798 0.070700
-0.279953 0.165253 -0.139242
0.233522 0.110445 -0.053612
0.120407 0.114001 -0.009242
-0.265888 0.051420 0.166320
0.208233 0.166166 -0.140934
-0.310311 -0.492773 -0.416438
-0.375848 -0.330927 -0.383372
-0.370162 0.533789 -0.010480
0.219190 0.896729 -0.155770
0.455390 -0.007233 0.239199
0.206429 -0.226408 -0.506027
0.018363 0.072775 0.045351
-0.298014 -0.092838 0.446678
-0.297427 -0.384837 -0.088541
0.299572 -0.026625 0.315899
-0.255911 -0.882552 0.206485
-0.301092 0.130001 -0.040539
0.116164 -0.137275 -0.422148
0.010892 0.904489 -0.130391
0.078311 0.200505 -0.227936
0.012618 0.063193 0.070840
-0.400412 0.323579 -0.130770
0.252114 -0.015422 -0.370115
-0.388709 0.085586 0.045016
-0.201395 -0.052434 0.391757
0.404947 0.036296 0.210414
0.004849 0.147587 -0.156927
-0.376879 -0.462208 -0.452151
0.259028 0.835408 -0.159321
0.126329 -0.064137 0.440949
-0.318116 -0.382316 -0.110371
0.476500 -0.628146 0.122477
-0.306112 -0.363090 -0.334033
0.198166 0.060442 0.145018
-0.134441 0.047005 0.182233
-0.347837 0.027685 0.015185
-0.280460 -0.712792 0.297280
-0.277471 -0.618261 0.237677
-0.196812 0.083514 0.020382
-0.336077 0.845244 -0.040363
-0.060453 -0.075052 0.463742
-0.293552 0.066915 0.038801
0.098459 -0.157834 -0.432784
-0.230674 -0.531506 0.285035
-0.387271 0.533143 -0.080955
-0.024430 0.193634 -0.209780
0.209147 0.110863 -0.273290
0.313270 0.177265 -0.209064
-0.060406 -0.192674 -0.343239
-0.426613 0.717469 -0.024266
0.498983 -0.586517 0.100258
0.376095 -0.405549 0.161910
0.228380 -0.325566 -0.491628
-0.129705 0.054130 0.160176
0.315830 0.053149 0.020119
0.174698 -0.211277 -0.412996
0.298126 0.625543 -0.137296
-0.388292 0.112108 -0.184704
-0.340433 -0.357400 -0.318162
-0.466491 0.683969 -0.001703
-0.323970 -0.051256 0.258109
0.156601 -0.561063 -0.673492
0.493512 -0.606094 0.074932
0.199028 0.095076 0.042994
0.271758 0.173614 -0.152763
-0.117452 -0.018756 0.364281
0.444382 -0.230682 0.257926
0.028298 -0.066535 0.436623
0.091447 0.716544 -0.177010
0.236922 0.107784 -0.354654
-0.243892 -0.581327 0.321923
0.238025 0.711081 -0.183922
0.486162 -0.063256 0.306617
-0.002669 -0.047630 0.449067
0.077497 0.129520 -0.047360
0.454317 -0.846856 0.012419
-0.251053 -0.217743 0.368376
0.244276 0.048260 0.115434
-0.345266 -0.621405 -0.532900
0.400059 0.018737 0.261956
0.190756 -0.532518 -0.587320
-0.165927 0.885795 -0.063823
0.265216 -0.289696 -0.333754
-0.001629 0.046290 0.117773
0.031368 0.018095 0.258861
-0.332327 -0.532161 -0.492623
0.376572 0.060281 -0.059850
-0.047262 0.128906 -0.043833
0.326671 -0.019708 0.370797
0.219897 0.405215 -0.255620
0.161364 0.451343 -0.226014
0.486769 -0.024711 0.284977
-0.218525 -0.171054 -0.346134
0.208060 0.105879 -0.041737
-0.223645 0.658088 -0.083236
-0.098765 0.156683 -0.114140
-0.373963 0.117958 -0.203436
0.380903 -0.393099 0.028189
-0.031028 0.149543 -0.096383
0.401882 -0.019191 0.255386
-0.206678 0.002319 0.241178
-0.286637 0.857781 -0.022128
-0.249716 -0.824998 0.261162
0.345534 -0.381113 -0.092498
0.120576 -0.033536 0.412169
0.129071 0.193281 -0.261515
-0.192029 0.428047 -0.130466
0.354768 -0.325672 -0.155900
0.410460 -0.382397 0.028749
-0.202367 0.666787 -0.105905
0.221453 0.173245 -0.159190
0.191669 0.139708 -0.333228
-0.312210 -0.061228 0.307102
-0.281729 -0.443443 0.178387
0.232751 -0.198727 -0.416219
0.171615 -0.312685 -0.554099
-0.271054 -0.340236 0.320469
0.091891 -0.073088 0.401666
-0.013397 0.011088 0.217618
0.263940 0.772441 -0.179345
0.365443 -0.385026 -0.012842
0.397155 -0.425161 0.016390
-0.052206 0.159670 -0.122834
-0.225758 -0.418394 0.355935
-0.331204 -0.458068 -0.460819
0.450579 0.003676 0.215500
-0.307129 0.012994 -0.173953
0.136014 -0.005348 0.253987
0.257637 0.121359 -0.128491
0.365388 0.009607 0.217814
-0.367704 0.001873 0.117131
-0.261480 -0.547843 0.254321
-0.327192 0.644835 -0.066800
0.160749 0.036076 0.147432
-0.305720 -0.548934 0.319014
-0.232910 -0.189969 -0.349213
-0.115540 -0.018505 0.292159
0.467249 -0.785493 0.074419
-0.297590 0.447271 -0.110112
0.074163 0.440826 -0.205480
-0.055385 0.024910 0.245075
-0.278681 -0.463129 0.239314
0.120085 0.016133 0.262904
0.238861 -0.165057 -0.441602
0.182385 0.129404 -0.302443
-0.346906 -0.335534 -0.217038
-0.116297 0.176437 -0.231611
-0.012707 0.102370 0.022296
-0.295707 -0.305989 -0.330688
0.016579 0.007122 0.288168
0.302074 0.078846 -0.116078
-0.334773 -0.366672 -0.063134
0.293940 0.030892 0.161239
0.198479 -0.081794 -0.348069
-0.252989 0.001600 0.237595
0.454653 -0.344116 0.214211
-0.019196 0.454845 -0.207900
0.437332 -0.248072 0.159822
-0.287793 -0.762984 0.213727
-0.155480 -0.447857 0.287423
0.239250 0.002040 0.235077
0.106587 0.172719 -0.156885
0.108265 0.456724 -0.186375
-0.206875 0.075746 0.098657
-0.234493 -0.022770 0.307715
0.212648 0.167226 -0.239088
0.164796 -0.113973 -0.407481
-0.331961 0.048616 -0.045531
-0.330057 0.080486 -0.140775
0.322958 0.049535 -0.034370
0.293105 0.469120 -0.181728
-0.350063 -0.149574 -0.312586
-0.384353 -0.421574 -0.395792
0.375048 0.098534 -0.073298
0.210612 0.716305 -0.180713
-0.405398 0.667251 0.032836
-0.105417 -0.445828 0.277927
-0.379089 0.039972 0.079630
-0.154500 0.002071 0.305311
0.100669 -0.414775 0.272595
-0.309547 0.098116 -0.148500
-0.316117 -0.529550 -0.472392
0.172591 -0.292266 -0.543067
0.257863 0.267664 -0.293986
-0.053807 0.057986 0.150376
-0.215426 -0.060796 0.485627
0.236880 -0.140599 -0.390645
0.020883 0.724951 -0.152418
-0.322325 -0.597158 -0.472715
0.243350 0.014307 0.201888
-0.405259 0.840082 0.021680
-0.286795 -0.400602 0.058997
0.090405 -0.413525 0.226351
0.100903 0.090055 0.052361
-0.416366 0.445823 -0.092899
-0.355353 -0.469098 -0.468871
-0.336873 -0.272053 -0.372797
-0.321739 -0.341774 -0.401218
0.061326 0.908384 -0.130241
-0.112222 0.462509 -0.153798
0.171483 -0.027423 -0.355596
0.027002 0.165516 -0.206055
0.036087 -0.017076 0.357752
-0.168376 -0.004108 0.322842
0.327291 -0.082252 0.291029
0.310537 0.695138 -0.128450
-0.312498 0.174648 -0.170576
0.179609 -0.022068 0.303656
0.271318 0.908234 -0.148096
0.277978 -0.290566 -0.231293
0.200044 0.228183 -0.305456
0.244533 0.879550 -0.161787
0.214967 0.016173 0.265128
0.408222 0.019392 0.055239
0.241864 -0.290461 -0.311050
0.196721 -0.307235 -0.551080
0.249442 0.901001 -0.141188
0.425357 0.040489 0.199033
0.089775 -0.013674 0.348219
-0.311101 -0.147432 -0.303261
-0.281351 -0.449553 0.367324
0.295123 -0.000721 0.317474
-0.278251 -0.814288 0.270122
0.165297 -0.227505 -0.428347
0.498150 -0.831094 0.010263
0.300570 0.867768 -0.100346
-0.225919 0.019374 0.191149
0.236731 0.138193 -0.133389
0.393667 0.029190 0.230862
0.027197 0.479184 -0.204534
0.488090 -0.515701 0.140627
0.132030 -0.388383 0.229994
0.210010 0.318837 -0.223085
0.066366 -0.409454 0.231343
0.145836 -0.351024 -0.534044
-0.484452 0.780736 0.034931
-0.366802 -0.022071 -0.253323
-0.220706 -0.172804 0.406719
-0.165949 -0.186661 -0.364090
0.291084 -0.019621 0.371758
-0.381810 0.377201 -0.052206
0.271795 0.658776 -0.206366
0.453479 -0.183903 0.278063
-0.312410 -0.617712 0.288842
-0.386501 0.379416 -0.127145
-0.343265 -0.356949 -0.143866
0.317950 0.067911 0.046921
-0.432573 0.549841 -0.059523
0.233186 -0.109321 0.327496
-0.289766 -0.454078 0.209270
-0.343344 0.467538 -0.070109
-0.326391 -0.450422 -0.368126
0.187404 -0.328246 -0.564300
0.319899 0.683249 -0.148378
0.051906 -0.028700 0.319918
0.228082 0.550709 -0.187124
0.230964 -0.307443 -0.506587
-0.043479 -0.016105 0.282890
-0.388637 0.116785 -0.034774
-0.090409 0.116033 -0.072092
-0.040716 -0.073714 0.390789
-0.371333 -0.106212 -0.226730
0.241821 0.518664 -0.163165
-0.220966 -0.380827 0.348414
-0.455972 0.859265 0.014790
-0.328665 -0.020403 0.257393
-0.114378 0.450857 -0.189605
0.274493 0.631167 -0.132191
0.161415 0.112617 -0.005832
0.220904 -0.421945 0.234548
-0.447520 0.854823 0.071062
0.204668 0.354370 -0.237961
-0.335276 -0.314927 -0.175058
-0.254409 0.415336 -0.116613
0.242095 0.053838 -0.369258
0.220405 -0.285327 -0.523038
-0.044443 0.168530 -0.145538
0.132725 -0.058177 0.415949
0.284203 0.480708 -0.231070
-0.425699 0.562499 -0.000599
-0.210225 0.443199 -0.123648
-0.320637 -0.030319 0.174595
0.491775 -0.425615 0.132692
-0.134913 -0.199499 -0.323759
-0.123578 0.691718 -0.140183
-0.276055 0.067629 0.056475
0.219209 0.045294 0.122830
-0.229825 -0.239913 0.434121
-0.182919 0.149914 -0.096321
-0.053003 -0.040565 0.430670
0.414756 0.063131 0.076040
-0.140361 0.131981 -0.116000
0.450285 -0.412529 0.078952
-0.285240 -0.247068 0.361390
0.205322 0.025635 0.237484
-0.327573 0.336830 -0.089874
-0.428683 0.591501 0.009852
0.280293 0.131641 -0.055024
0.118040 -0.104028 0.343865
-0.473500 0.735831 0.000238
0.324774 0.060089 0.069813
-0.176572 0.102982 -0.036287
-0.136487 -0.050979 0.462339
0.423227 -0.660429 0.085457
-0.105696 0.052593 0.098391
-0.345268 0.423411 -0.053765
-0.387050 0.293512 -0.148343
-0.195868 0.164452 -0.200099
0.193864 0.162360 -0.325391
0.476375 -0.817270 0.004532
-0.052541 -0.038612 0.351427
-0.426262 0.475835 -0.072725
-0.140884 0.095064 -0.010268
0.235647 -0.021606 -0.325802
0.364900 -0.008050 0.132551
-0.350600 0.163711 -0.195884
0.403441 -0.238324 0.209370
0.348875 0.149058 -0.104028
0.277570 0.835739 -0.174099
0.455387 -0.333579 0.128989
0.090826 0.115149 -0.012052
0.209974 0.369038 -0.220583
-0.250604 0.133967 -0.051674
0.396822 -0.427519 0.044479
0.437625 -0.788273 0.040913
0.077131 0.153279 -0.173406
0.265671 -0.271752 -0.270155
-0.139583 -0.156088 0.431464
-0.420573 0.717577 0.048559
0.245891 -0.083635 0.312642
0.328492 0.067932 0.121652
0.083190 -0.060654 0.419863
-0.301848 0.673414 -0.051429
0.216770 -0.405461 -0.583898
0.460421 -0.151263 0.204022
-0.411784 0.504249 -0.017567
-0.165756 0.436997 -0.172088
0.132318 -0.425425 0.223802
-0.207228 -0.015056 0.289087
-0.243002 0.450359 -0.119613
-0.291943 0.123972 -0.092941
0.198765 0.120101 -0.349167
-0.354869 0.050644 -0.152653
0.311427 -0.041170 0.365459
-0.244654 0.054730 0.157215
0.229221 0.067504 0.063936
-0.337429 -0.178893 -0.236129
0.493140 -0.641545 0.108021
-0.424915 0.829060 -0.005455
0.062505 -0.074251 0.409412
-0.214764 -0.106734 0.428864
0.237539 -0.068191 0.365098
-0.054056 0.706573 -0.157152
-0.316276 -0.383571 -0.337412
-0.302303 -0.114345 -0.280053
-0.316116 0.022673 -0.237315
0.484041 -0.210808 0.248090
-0.337055 -0.483421 -0.474138
0.481760 -0.289069 0.162542
0.132907 0.143393 -0.084156
-0.243885 0.084417 0.016034
0.444476 -0.053583 0.249973
0.502187 -0.743673 0.073477
0.491183 -0.786221 0.069832
0.464851 -0.317474 0.221254
-0.147148 0.864149 -0.065095
-0.355538 -0.526981 -0.409216
-0.136896 0.160360 -0.190076
0.295155 0.186896 -0.188369
0.158236 -0.094664 0.377118
-0.072895 -0.011347 0.275759
-0.290251 -0.740188 0.288015
0.389458 -0.389090 0.148870
-0.394419 0.817736 0.023712
0.254262 -0.049407 0.393295
0.226223 0.321186 -0.206434
0.343395 -0.375653 -0.121096
-0.147237 -0.461541 0.307199
-0.322022 -0.269953 -0.276609
0.366913 -0.009179 0.274186
0.197552 0.178153 -0.252712
-0.223732 -0.317318 0.351641
-0.321418 -0.336239 -0.226620
0.294682 -0.014401 0.285531
-0.264173 -0.217524 -0.311773
0.151566 -0.019512 0.295459
0.196964 0.131913 -0.276259
0.016280 -0.146836 -0.399421
-0.221375 0.459416 -0.136304
0.169897 0.129147 -0.103345
-0.240110 -0.319600 0.409321
-0.267145 -0.021485 0.209720
-0.305383 -0.327290 -0.143993
0.102814 0.192959 -0.265096
-0.326390 0.044169 0.176988
0.126473 0.686167 -0.160994
0.126681 0.438641 -0.206099
0.145005 -0.015597 0.358170
0.002253 -0.446155 0.285176
0.174836 -0.555848 -0.603081
0.483630 -0.351713 0.142297
0.212767 0.469902 -0.195943
0.233146 -0.233754 -0.358275
0.068694 0.871926 -0.131122
0.320279 0.834799 -0.104924
-0.301123 -0.001353 0.093856
0.170642 -0.087051 -0.422207
0.330276 0.080191 -0.117061
-0.379843 0.271908 -0.157779
0.150883 0.061607 0.141251
-0.150633 0.148981 -0.094231
0.250064 0.152311 -0.101883
0.018019 0.206430 -0.249388
0.103514 0.133051 -0.115520
-0.336792 0.090061 0.056924
0.234680 -0.221350 -0.422768
-0.462108 0.661716 -0.007601
-0.304435 -0.441509 0.158830
0.196740 -0.482943 -0.556294
0.489204 -0.691565 0.045613
-0.279590 -0.026423 0.387388
0.332389 -0.001968 0.251437
0.267640 0.068320 0.122862
-0.240318 -0.239883 0.363634
-0.295814 -0.074838 -0.252598
0.232211 -0.283364 -0.495726
-0.297011 -0.443839 0.299760
0.226506 0.378787 -0.268532
-0.188391 -0.426594 0.332721
0.290882 -0.073343 0.303774
0.273006 -0.089675 0.303004
-0.196551 -0.147620 0.408924
-0.340960 0.060389 0.131946
0.424760 -0.310086 0.141816
0.212749 0.277452 -0.226964
-0.181191 -0.021858 0.374451
-0.310656 0.071980 -0.087738
-0.202326 0.025540 0.241593
-0.295610 -0.340326 -0.127459
-0.368841 0.083331 0.070581
0.428408 0.011246 0.285098
0.382552 -0.381723 0.196193
-0.357055 0.374717 -0.054510
0.047991 0.103111 0.018066
-0.336377 -0.027243 -0.175404
-0.013115 -0.160285 -0.402700
-0.302219 -0.443729 -0.402383
-0.022350 0.163375 -0.200151
-0.052116 0.899536 -0.094633
-0.294974 -0.471508 0.285703
0.228530 -0.356689 -0.532146
0.338662 0.091468 -0.144661
0.427291 0.002783 0.309490
0.239714 -0.100747 0.353568
0.099111 -0.036570 0.421106
-0.351442 -0.323799 -0.195092
-0.046257 -0.001131 0.250913
0.221077 -0.332999 -0.544136
0.304934 0.544667 -0.177934
-0.014743 -0.185929 -0.394202
-0.231138 -0.630622 0.291816
0.294925 0.639457 -0.202109
-0.294450 -0.165248 -0.257707
0.277653 0.047388 0.118368
-0.236018 -0.714132 0.274857
0.502066 -0.721231 0.051884
0.473652 -0.857996 0.027874
0.278750 0.159749 -0.123350
0.260507 0.085178 0.072607
0.263794 0.853337 -0.129220
-0.291809 -0.079522 0.483409
0.186171 0.035580 0.148464
-0.014210 0.013419 0.271127
-0.354129 -0.637008 -0.500977
0.240893 0.112116 -0.003867
-0.121004 0.868870 -0.103397
-0.217160 0.164876 -0.135939
-0.048207 0.902268 -0.119452
0.381241 -0.081784 0.321746
0.448131 -0.552335 0.144415
-0.260411 -0.700077 0.299094
0.198725 -0.254476 -0.522104
-0.171423 -0.178124 -0.312033
-0.355737 0.126345 -0.032755
-0.305961 -0.463946 -0.432326
0.424605 -0.371227 0.194831
0.477195 -0.202445 0.191665
0.418745 -0.447197 0.082264
-0.350314 0.637363 -0.055823
0.061408 0.184032 -0.184750
0.323943 -0.028436 0.312359
-0.287822 -0.553114 0.256818
-0.172551 0.466669 -0.154081
0.196307 -0.354402 -0.478322
-0.400610 0.667878 -0.034935
-0.210649 0.172776 -0.157343
-0.189865 0.166733 -0.140835
-0.037419 0.010707 0.278001
0.164519 -0.058262 0.417265
-0.307064 0.172867 -0.144581
0.275519 0.371580 -0.255707
0.008639 0.199213 -0.225242
0.030456 0.027238 0.172927
-0.280490 -0.020683 0.153882
0.220866 0.683719 -0.170753
0.372410 -0.074852 0.281998
-0.124339 -0.037132 0.347077
0.087705 0.003367 0.233471
0.055839 0.059740 0.080237
-0.293530 -0.212939 -0.275600
0.353639 0.083336 -0.120390
0.057103 0.094523 0.039787
-0.247370 0.110830 0.007966
0.373706 0.034014 0.215973
-0.243795 -0.225174 0.448847
-0.125005 0.444362 -0.145198
0.427531 -0.286622 0.148384
0.153548 0.889098 -0.157167
0.371220 -0.105309 0.274393
-0.385129 0.093628 -0.035548
0.275921 0.277973 -0.236595
0.045372 0.178070 -0.169221
0.490583 -0.129974 0.250739
-0.278020 0.668262 -0.054302
0.158806 0.047636 0.115957
0.331607 0.034010 0.007707
-0.259081 -0.040439 0.258877
-0.329353 0.053660 -0.149322
-0.278549 -0.362180 0.396790
0.040527 0.006278 0.290272
-0.252706 -0.040809 0.432279
0.309094 0.003166 0.235184
0.331714 -0.042455 0.382867
0.157243 -0.282759 -0.523276
-0.413664 0.749972 -0.008684
0.148771 -0.052935 0.438914
0.051757 0.471628 -0.218494
-0.381774 -0.358117 -0.385292
-0.018307 0.122557 -0.089222
0.248505 -0.025686 0.389201
-0.288903 -0.670715 0.230581
-0.081857 0.716802 -0.139796
-0.134114 0.014748 0.207859
-0.307242 -0.452926 0.326626
0.305899 -0.372194 0.181378
0.045496 0.883285 -0.141277
-0.074159 -0.414138 0.269009
-0.210546 0.880087 -0.084027
0.207156 -0.323066 -0.464938
-0.151682 -0.104605 0.452693
-0.323269 -0.408446 -0.346408
-0.209640 -0.043683 0.364952
0.393289 0.057274 0.150498
0.015988 0.096253 -0.015341
0.240264 0.001776 -0.318429
-0.153437 0.090091 0.058752
0.393280 -0.100398 0.268563
0.375457 -0.405030 -0.041487
-0.194270 0.108226 -0.051533
-0.374925 0.434336 -0.112623
0.328392 0.125913 -0.043729
-0.380807 -0.472888 -0.405445
-0.098851 -0.047607 0.451788
-0.323326 0.313230 -0.103734
0.223809 0.369330 -0.199242
0.091446 0.473406 -0.190298
0.250956 0.085218 -0.350289
-0.236218 -0.683914 0.257080
0.164624 -0.367246 -0.580511
0.415659 -0.578211 0.107212
-0.451356 0.670753 -0.028748
-0.425647 0.673544 -0.036691
-0.101155 0.440638 -0.151564
-0.038503 -0.405947 0.276165
-0.394955 0.185997 -0.156970
0.303165 0.045931 0.183171
-0.306866 -0.620237 0.255861
0.317942 0.657145 -0.156930
0.162841 -0.417004 -0.607423
0.057641 -0.171301 -0.419631
-0.223878 -0.294358 0.358435
0.266730 0.135431 -0.265159
0.019578 0.085342 0.066338
-0.267805 -0.384166 0.391713
-0.331037 0.358871 -0.081163
-0.124262 0.047544 0.111823
-0.289323 -0.596761 0.245947
-0.302145 -0.453863 0.188609
-0.300540 -0.237298 -0.280641
0.296974 0.041758 0.132707
-0.246848 -0.566455 0.259902
0.239531 0.120723 -0.026112
-0.007582 -0.021659 0.371417
0.178460 -0.010254 -0.390335
-0.253605 -0.021595 0.288483
0.129070 -0.139555 -0.398710
-0.313953 -0.035260 0.314772
0.309488 -0.413857 0.182845
-0.224040 -0.260255 0.418345
-0.024549 0.903467 -0.101013
-0.017625 -0.038265 0.348079
0.410089 -0.262414 0.219783
-0.311565 -0.444710 0.068812
-0.093434 0.436937 -0.184487
-0.299985 -0.063790 0.362766
-0.115991 0.062593 0.071799
0.239875 0.469820 -0.171429
0.207395 0.256431 -0.300184
0.332230 0.005936 0.228316
-0.223778 -0.261551 0.368958
-0.013049 0.141844 -0.077114
0.427739 -0.662706 0.062902
-0.299978 -0.420913 -0.389075
0.192031 0.222131 -0.272877
0.405848 -0.285406 0.198260
-0.384016 -0.485658 -0.449885
0.141340 0.016796 0.199055
-0.277700 -0.451019 0.283996
0.175383 0.061861 0.140669
0.429018 -0.269143 0.236532
-0.034316 -0.185103 -0.345218
0.421870 -0.632649 0.076376
0.238196 0.198875 -0.223651
-0.295916 -0.368125 -0.118900
0.450578 -0.804709 0.016428
0.454850 -0.683765 0.039120
0.479143 -0.604434 0.127001
-0.298894 -0.361302 -0.382630
-0.040028 -0.100456 0.381160
0.162434 0.169477 -0.216687
-0.352818 0.045353 -0.033500
0.230559 0.263244 -0.218368
0.259653 0.124454 -0.243141
0.218092 0.397123 -0.202507
0.140767 0.694413 -0.144841
0.106478 0.144667 -0.087060
0.278140 0.024726 0.241271
0.490273 -0.353160 0.177695
0.382957 0.072231 0.107334
0.265487 0.574714 -0.223412
0.049867 -0.001785 0.312658
-0.129711 0.116261 -0.009819
0.490948 -0.281229 0.188536
-0.240942 -0.263492 0.352306
-0.236209 0.052018 0.102708
-0.303920 -0.525812 0.327212
0.265556 0.601616 -0.139342
-0.448606 0.830489 0.004924
0.391615 -0.364213 -0.076939
0.165441 -0.146356 -0.454366
0.237818 0.080532 0.086511
0.162668 -0.391936 -0.510462
-0.446218 0.601444 -0.004599
-0.291401 -0.693517 0.227415
0.243188 -0.424081 0.212197
-0.142313 0.888306 -0.102791
0.238361 0.565693 -0.162732
0.112715 0.183190 -0.182814
-0.138323 -0.156278 0.401602
-0.196877 0.885450 -0.058290
0.033715 0.092762 0.045765
-0.357343 -0.341625 -0.404206
0.491279 -0.856172 0.045168
-0.356860 0.036321 -0.008604
-0.363596 0.115699 -0.004776
-0.213434 -0.104520 0.473567
-0.157903 0.057885 0.148720
0.021654 -0.048551 0.449859
-0.277549 -0.784182 0.279134
0.053730 -0.062983 0.458459
-0.053836 0.191717 -0.205958
0.342146 0.892541 -0.111740
0.193140 -0.221411 -0.402088
-0.076093 -0.140598 0.421556
0.246100 0.600282 -0.153488
-0.293025 -0.399345 0.375805
-0.308601 -0.791788 0.259782
-0.252155 -0.047185 0.309769
-0.308978 0.844297 -0.012531
-0.436586 0.586623 -0.050169
0.336818 -0.362634 -0.155549
-0.252376 0.156307 -0.113149
0.241327 -0.113279 -0.422031
-0.332691 -0.630923 -0.509143
-0.044827 -0.127486 0.418366
-0.167146 -0.460941 0.325374
-0.308899 -0.292926 -0.368912
0.254851 0.039209 -0.352994
-0.056399 -0.148279 0.404986
-0.449248 0.760740 0.059897
0.485031 -0.735345 0.086701
0.149995 -0.322447 -0.535141
-0.364824 0.590100 -0.028754
0.400652 0.084569 0.053727
0.046543 0.153725 -0.106723
0.258995 0.007894 0.219172
0.347453 0.034035 0.146672
0.345190 0.090181 0.058457
0.065853 -0.174006 -0.369948
-0.327320 -0.414011 0.018122
0.179648 0.179966 -0.178031
-0.046127 -0.448727 0.274358
0.183922 0.016076 -0.383908
0.491535 -0.203886 0.225452
0.347387 0.054643 -0.043715
-0.329982 0.381012 -0.094676
-0.193488 -0.008227 0.270458
-0.483267 0.826388 0.012363
-0.224055 0.005609 0.296006
-0.328623 -0.012548 0.318635
-0.306100 -0.525160 0.284607
0.435321 -0.698101 0.047280
-0.446468 0.603471 -0.037740
0.167126 -0.311902 -0.464890
0.198014 0.158756 -0.121456
-0.221686 -0.024100 0.381485
0.017582 0.037026 0.144522
-0.402732 0.355885 -0.122542
0.093453 0.179804 -0.246471
0.413931 -0.236980 0.179070
-0.335265 -0.507264 -0.483686
-0.216998 -0.258238 0.394402
-0.387004 0.114141 -0.009859
0.276984 0.037710 0.143563
0.435549 -0.480916 0.085114
0.357198 0.152519 -0.129135
0.043646 -0.184625 -0.370309
0.289354 0.099253 0.032579
-0.241521 -0.705377 0.244958
0.487800 -0.032770 0.306837
-0.368548 0.179789 -0.187984
-0.305220 -0.338630 -0.385126
-0.262075 -0.175345 0.382221
-0.349297 0.435284 -0.114333
0.482155 -0.327443 0.204418
0.256735 0.729285 -0.186167
0.125225 0.105219 -0.040176
0.301398 0.126800 -0.044592
0.140943 0.177165 -0.169463
0.293108 -0.305813 -0.284303
0.449237 -0.453026 0.177057
0.011857 0.097679 0.033765
0.228829 0.031176 -0.386176
0.066876 -0.039530 0.352884
-0.201136 -0.027844 0.392911
-0.056365 0.086906 0.064567
0.434726 -0.519214 0.149894
-0.263870 0.054057 0.095945
-0.269270 -0.653711 0.312154
-0.277067 -0.574582 0.246667
0.406723 -0.343952 0.152159
-0.410392 0.694803 -0.027962
-0.144622 0.676970 -0.123089
0.198158 0.062828 0.074779
0.239207 -0.190257 -0.437847
0.371030 0.054983 0.157814
0.264432 0.015921 0.267400
-0.418863 0.421418 -0.086686
0.073737 0.139677 -0.073153
-0.200043 -0.060709 0.415498
0.466337 -0.751649 0.083796
0.135658 0.043826 0.126448
0.473867 -0.090595 0.310480
0.000950 0.163037 -0.199087
0.047873 0.444210 -0.210014
0.448932 -0.662369 0.046311
0.152387 -0.265049 -0.466789
0.126307 0.036155 0.211647
-0.177907 0.704219 -0.120594
-0.379755 -0.628688 -0.520993
-0.158867 0.464399 -0.172579
0.332633 0.839738 -0.156082
-0.257637 -0.454062 0.367734
-0.297473 0.054060 0.013433
0.200084 0.904383 -0.143961
0.205767 -0.281308 -0.441799
-0.079044 0.464019 -0.161338
0.263033 0.025794 0.174409
0.277957 0.304368 -0.259015
-0.284803 -0.850070 0.261158
0.090778 -0.075844 0.357288
-0.218683 -0.134790 0.466834
-0.221592 0.162079 -0.192917
0.051473 -0.043009 0.439528
0.181982 0.167032 -0.144943
0.279226 0.119818 -0.227859
-0.294674 -0.079665 0.379298
0.314216 -0.303113 -0.186258
-0.381996 -0.298490 -0.336723
-0.333257 0.311392 -0.082052
0.105343 0.150090 -0.164077
0.453876 -0.031337 0.226162
-0.305132 -0.551836 0.273997
-0.377163 -0.361771 -0.346940
0.165466 -0.276143 -0.449106
-0.310322 0.196145 -0.139881
-0.373878 0.142474 -0.196191
-0.296775 -0.284521 -0.346952
-0.006496 0.068787 0.055847
0.179474 0.039524 0.201697
-0.317197 0.031192 -0.160919
0.324131 0.044716 0.123547
-0.223797 -0.057890 0.406665
-0.316002 -0.334467 -0.116370
-0.400438 0.245004 -0.131649
0.014479 0.047335 0.181549
0.216084 -0.062260 0.373706
0.195535 -0.528446 -0.663720
-0.406849 0.747598 0.043569
-0.277829 -0.530955 0.258352
0.198078 -0.555211 -0.605569
-0.139261 0.065643 0.064271
0.113405 -0.175284 -0.383944
0.344504 0.104204 0.016157
-0.330021 0.144193 -0.081002
-0.265213 -0.308297 0.330944
0.186754 0.182749 -0.284098
-0.229033 -0.601205 0.293715
0.335553 0.006868 0.295559
0.088402 -0.395118 0.255556
0.182609 -0.372011 -0.488798
-0.315683 0.086693 -0.118955
-0.180355 0.036978 0.143500
0.288964 -0.080463 0.346841
0.099109 0.440281 -0.200083
0.252585 0.027071 -0.321570
0.402399 0.064917 0.125437
-0.343681 -0.082053 -0.197044
-0.293220 -0.139822 -0.265758
-0.278103 0.165412 -0.163086
0.235212 -0.195959 -0.461794
-0.362145 0.041531 0.153974
0.416833 -0.446147 0.160442
0.165562 -0.127818 -0.440437
-0.257961 0.134254 -0.121253
-0.341294 0.446861 -0.059991
0.341243 0.867593 -0.119653
0.006710 0.017286 0.261617
0.225754 -0.384403 -0.526444
0.189438 -0.175935 -0.483322
-0.239240 -0.006753 0.332657
0.378008 -0.057837 0.330560
0.241407 0.039295 -0.302287
0.125120 -0.023969 0.382642
-0.036333 0.441778 -0.169394
0.244902 0.138412 -0.156977
-0.017132 -0.192893 -0.359054
-0.262729 -0.022306 0.240887
-0.027574 0.162720 -0.130140
0.280014 0.306394 -0.233714
0.332742 -0.338224 -0.198570
-0.067535 -0.197451 -0.370236
0.024245 0.055984 0.156519
0.044266 -0.020181 0.295344
-0.402260 0.723725 -0.010215
0.306551 -0.321183 -0.164008
-0.280124 -0.421934 0.023788
0.171411 -0.026349 0.391582
-0.262859 0.854042 -0.027846
0.404877 -0.401328 0.194296
-0.323975 -0.340875 -0.311487
0.216577 0.114080 -0.008922
-0.336935 0.033680 0.198512
-0.081706 0.025262 0.244766
0.265691 -0.023538 0.309855
-0.328392 -0.318150 -0.298920
-0.413019 0.484059 -0.089867
-0.301596 0.050897 -0.014280
0.246297 0.019342 -0.375252
-0.224841 -0.300104 0.402983
-0.252666 0.012820 0.272840
0.263055 0.120209 -0.105441
-0.156163 -0.048164 0.379839
-0.247114 0.084791 0.074335
-0.296508 -0.368588 0.325971
-0.370695 0.193689 -0.110050
-0.327023 0.031709 0.001983
-0.009105 0.155646 -0.178951
-0.311151 -0.550911 0.296318
0.319814 0.727268 -0.170693
0.149927 -0.358417 -0.558975
-0.354168 -0.319205 -0.234416
-0.189781 0.017612 0.262666
-0.297846 -0.237937 0.384503
-0.299134 -0.240311 -0.331837
-0.303147 0.036030 0.205731
0.237350 -0.411448 0.193080
-0.155219 -0.205713 -0.347926
-0.373959 0.039747 0.106635
-0.232062 0.854186 -0.070939
0.017284 0.712166 -0.133135
0.130683 0.056425 0.155702
-0.318085 -0.387509 -0.420905
0.284295 0.085302 0.072753
-0.228303 0.031964 0.223611
-0.300766 -0.476518 0.344052
0.106098 0.122347 -0.079390
-0.087561 -0.047215 0.376630
0.138694 0.118034 -0.072753
0.291609 -0.332654 -0.229944
0.473639 -0.012800 0.323549
-0.345274 -0.345164 -0.179916
-0.261830 -0.525699 0.345843
0.413525 -0.030338 0.185395
0.336916 0.862814 -0.151129
-0.146299 0.706155 -0.132293
-0.032582 -0.045440 0.370061
0.304720 0.581392 -0.156824
-0.312898 -0.152364 -0.228908
0.273108 0.474837 -0.164222
0.210240 -0.111063 -0.451191
-0.284662 -0.165410 0.395157
0.368081 0.131992 -0.108640
-0.237438 -0.055134 0.473393
0.036114 -0.113602 0.402125
-0.493975 0.830923 0.045550
0.233765 0.519723 -0.227591
0.185325 -0.274390 -0.533841
0.443010 -0.110396 0.309006
-0.268746 0.077180 0.035196
0.237153 0.857996 -0.134717
-0.285066 -0.040299 0.427243
-0.282587 -0.105328 0.394354
0.064597 0.180356 -0.247909
0.212763 -0.066155 -0.431061
0.214543 -0.515223 -0.597533
-0.086802 0.155087 -0.177269
-0.132786 -0.453826 0.323839
0.296928 0.075206 0.037128
-0.377112 -0.043356 -0.247178
0.421894 -0.290585 0.222817
-0.377625 -0.262099 -0.342753
-0.007488 0.053951 0.162409
0.125660 0.879295 -0.149931
-0.302261 -0.444197 0.350156
-0.407244 0.804331 0.004530
0.292547 -0.420452 0.202375
0.059876 0.113203 -0.057045
-0.028658 -0.109100 0.420060
0.133002 -0.173624 -0.433211
-0.186207 0.677651 -0.119992
-0.361051 -0.244689 -0.275517
-0.333638 -0.213217 -0.251006
0.219699 -0.371629 -0.504459
-0.262393 0.653292 -0.063483
-0.302181 -0.347533 -0.173099
0.347095 0.033742 0.215974
0.259518 -0.075196 0.356945
-0.304220 0.068800 -0.163876
-0.284699 -0.517532 0.345848
0.311123 0.083972 0.077416
0.182063 -0.441828 -0.529656
0.218638 0.209812 -0.232929
0.331232 -0.058653 0.298594
-0.212148 0.051513 0.103931
0.170241 0.077882 0.092238
0.209998 0.097720 -0.362800
-0.247038 0.686474 -0.105489
0.424696 -0.038923 0.335529
-0.305216 0.089641 -0.196669
0.308094 0.138644 -0.073620
-0.128415 0.038021 0.208709
0.226134 0.084789 -0.279503
0.282770 0.418351 -0.239812
-0.302794 0.008647 0.065741
0.076606 0.460429 -0.222838
0.232789 0.084930 -0.364538
-0.317808 -0.391140 0.025884
0.425890 -0.245037 0.244789
0.335205 0.121007 -0.156014
0.108668 0.205057 -0.244760
0.225378 0.428446 -0.251100
-0.354069 -0.037913 -0.265956
0.190830 -0.401924 -0.601040
0.026853 -0.146239 -0.377042
-0.102511 0.187427 -0.194929
-0.234388 -0.050500 0.383610
-0.269419 -0.897407 0.252725
0.385583 0.108010 -0.012863
0.080112 0.026531 0.174219
-0.310282 -0.406094 0.068196
0.296853 0.916237 -0.099539
-0.043144 0.034457 0.219582
0.324053 -0.010259 0.274133
-0.372345 -0.021735 -0.193219
0.252831 0.102202 -0.032967
0.326057 -0.364740 -0.134403
0.491050 -0.246952 0.200056
-0.368563 0.169355 -0.117639
0.326729 0.749041 -0.158534
0.160860 -0.236327 -0.497502
-0.273959 -0.469820 0.270241
-0.080485 0.194035 -0.211466
0.038044 0.042012 0.197153
-0.111602 0.899526 -0.090783
0.403278 -0.005259 0.114555
0.133602 -0.431697 0.254806
0.178132 -0.582623 -0.620317
-0.145748 0.110707 -0.057973
