-0.100265 -0.330403 0.122431
0.165551 0.728131 -0.126098
0.207649 0.024308 0.122431
0.658971 0.391089 0.122431
-0.761076 -0.386578 0.059979
0.637533 -0.290017 -0.126098
-0.857855 -0.333031 0.084820
-0.104594 -0.859396 -0.000170
0.107553 -0.596133 -0.126629
0.850595 -0.163837 0.110611
0.702052 0.463498 -0.044807
0.465556 0.821942 -0.126057
0.224004 0.160688 -0.126563
0.327827 -0.722849 -0.119316
-0.217141 0.646849 -0.126182
-0.652941 0.332554 -0.126098
-0.243662 -0.292566 -0.126619
0.085483 0.849241 0.016691
0.507342 0.351343 -0.126597
-0.707502 -0.333610 0.024430
-0.232695 -0.093956 -0.126561
-0.510106 -0.657393 -0.125992
-0.289867 -0.598240 -0.126626
-0.488537 -0.715535 0.122431
-0.349094 -0.315325 0.122431
0.104693 0.568318 0.122431
0.199576 -0.700259 -0.126098
0.616255 0.485613 -0.126098
-0.857855 -0.235875 -0.078595
-0.007984 0.808240 -0.126098
-0.039411 0.849241 -0.063205
-0.489745 -0.858786 0.100861
-0.857855 0.390164 0.013718
0.850782 0.035841 -0.000454
-0.376532 0.802547 -0.126098
0.339433 -0.377736 -0.126545
0.003047 -0.859396 -0.009948
-0.499891 0.492443 -0.126098
0.009572 0.224411 -0.126504
0.538099 0.048954 0.122431
0.453112 -0.652021 -0.070050
-0.154271 0.237146 -0.126438
0.850782 0.193812 0.081792
-0.372027 0.620696 0.036929
0.357829 0.665613 -0.126098
0.049184 0.685995 0.122431
-0.410093 -0.658446 -0.126098
0.600829 -0.333565 -0.126166
-0.336457 0.599379 -0.126193
-0.593962 -0.551334 0.065249
-0.104904 0.683098 -0.126098
-0.526483 -0.782338 0.095041
-0.380425 -0.613890 0.122431
-0.332984 0.849241 0.083376
-0.652344 0.519123 -0.006788
-0.857668 -0.089136 0.112893
0.646117 -0.141047 -0.126574
-0.839004 0.509626 0.101626
0.157258 0.680088 -0.126098
-0.134424 -0.265310 -0.126622
0.367453 0.397836 0.122431
0.545060 0.341113 -0.126578
0.467179 -0.690282 0.026118
-0.706553 0.083239 0.122431
0.579245 -0.060751 0.122431
-0.837371 -0.060538 0.122340
-0.125574 -0.140213 0.122431
-0.477938 0.261768 0.122431
0.850782 -0.229956 0.038764
-0.464244 0.701097 0.122431
0.763293 -0.528024 0.088396
-0.335636 0.312926 -0.126571
-0.330913 -0.035822 -0.126541
-0.857762 -0.067450 -0.108192
0.038717 -0.859396 -0.020312
0.205479 -0.859396 0.021952
-0.782584 -0.528031 -0.081367
0.474546 0.742721 0.122431
-0.707850 -0.491884 -0.125964
0.850782 -0.148661 -0.048909
-0.333155 0.473818 0.122431
-0.222783 -0.464118 -0.126646
0.010238 0.282954 0.122431
0.557784 -0.624174 0.122431
-0.736454 0.043904 -0.126098
0.199971 0.622996 0.122431
-0.751868 0.118703 -0.126098
-0.126459 -0.440800 0.122431
-0.857855 0.355477 0.054814
0.201589 0.111658 -0.126551
0.642995 0.013235 -0.126620
0.850419 -0.311149 0.122136
0.416739 0.849241 0.056917
0.199514 -0.416634 -0.126604
-0.048592 -0.553617 -0.126646
-0.841293 -0.021394 0.122326
0.147231 -0.163205 0.122431
-0.367705 0.068359 0.122431
-0.125385 -0.813337 0.122431
0.365545 -0.139117 0.122431
-0.116903 0.327297 -0.126530
0.706377 -0.039603 0.122431
0.493896 0.795373 -0.126073
-0.798067 0.246689 -0.126098
-0.454668 0.735795 -0.018741
0.117053 -0.198038 0.122431
-0.028489 -0.814687 -0.126098
-0.181447 -0.544502 0.122431
-0.857855 -0.086006 0.007184
0.260083 -0.168672 0.122431
0.850782 0.116003 0.000869
-0.857855 -0.167690 0.060518
-0.467303 -0.029799 0.122431
-0.499310 -0.519741 0.122431
-0.513007 0.838446 0.025110
0.068578 0.840648 -0.125870
-0.076160 -0.483168 -0.126644
0.667754 0.463016 -0.059994
0.170060 0.214710 -0.126553
0.850507 0.082172 -0.125662
-0.089300 -0.611102 0.122431
0.391108 -0.624118 -0.072470
0.609232 0.181337 -0.126643
-0.045435 -0.741785 -0.126098
-0.679612 -0.471158 0.060022
0.561885 0.188780 0.122431
0.129964 -0.713092 0.122431
0.662310 -0.468199 0.122431
-0.857831 0.033205 -0.098551
0.787638 -0.149692 0.122431
-0.853092 0.081814 0.122120
0.411586 -0.859396 -0.031425
0.850782 -0.043842 -0.088658
0.391825 -0.087416 0.122431
0.109741 -0.090107 -0.126587
0.218119 0.849241 0.085562
-0.651694 -0.126145 -0.126600
0.841979 -0.512113 0.088269
-0.857855 -0.186383 -0.092476
0.850737 -0.479773 -0.031489
0.785064 0.397058 -0.126060
-0.547043 0.588897 0.074799
0.449585 -0.542317 0.122431
0.634217 -0.513804 0.122327
0.594559 0.535868 0.121869
-0.526276 0.804192 -0.106523
0.630496 -0.233492 0.122431
0.057673 0.492913 -0.126619
-0.542330 -0.011958 0.122431
-0.149748 0.065314 0.122431
0.840670 -0.144997 -0.125902
-0.256312 0.479326 -0.126579
0.847509 -0.070066 -0.125851
0.850834 -0.465964 -0.065342
-0.446760 0.640070 0.122431
0.661455 0.460164 -0.095551
0.516383 0.665457 -0.125853
-0.747762 -0.374374 0.122431
0.309666 -0.089301 0.122431
0.295705 0.250182 0.122431
0.367600 0.081154 0.122431
-0.069602 -0.442339 -0.126648
0.074624 0.797804 -0.126098
0.376239 -0.382986 0.122431
0.250497 0.564192 0.122431
-0.535889 0.143306 0.122431
-0.352093 -0.714598 0.122431
0.522905 0.043648 -0.126602
0.156980 0.075521 -0.126555
-0.211176 -0.566275 -0.126647
-0.468937 -0.099099 -0.126550
0.848722 -0.076771 0.122181
0.527928 -0.472958 0.122431
0.372988 -0.127611 -0.126584
-0.689381 -0.475975 -0.080266
0.762990 0.517869 -0.070617
0.033709 -0.319842 0.122431
0.705099 0.465171 -0.125865
0.850782 0.230822 -0.063898
-0.189139 0.849241 -0.090784
-0.452722 0.566676 0.122431
0.603830 -0.299084 -0.126394
0.618860 0.417087 -0.081836
-0.853545 -0.366437 0.122081
0.850782 0.119944 -0.048706
-0.125400 0.179100 0.122431
0.133652 -0.017498 -0.126576
0.737005 0.517869 -0.038261
0.245764 -0.296850 0.122431
0.750377 0.500668 -0.125958
-0.239101 0.512004 -0.126610
0.813691 -0.091613 0.122431
-0.525951 -0.697824 -0.125833
-0.567904 -0.572052 0.000940
0.568853 0.314651 -0.126621
0.099364 -0.167114 0.122431
-0.334294 0.711233 -0.115418
0.501378 0.842068 0.055548
0.850782 0.003354 -0.017985
-0.610802 -0.492020 -0.126098
-0.664590 -0.151510 0.122431
0.489400 0.500984 -0.126098
0.115295 -0.859396 0.040802
-0.663916 0.170335 0.122431
0.124111 -0.697512 -0.126098
0.726280 -0.158574 0.122431
0.303877 -0.791420 0.122431
0.774847 0.134470 0.122431
-0.258693 0.659714 -0.126098
-0.186733 -0.241028 0.122431
0.346825 0.465483 -0.126630
-0.365270 0.562231 0.122431
0.719709 -0.107400 -0.126098
0.661552 0.105160 -0.126414
-0.639380 0.455509 0.122431
0.323159 -0.703135 -0.027823
-0.702364 -0.332659 -0.088163
-0.325642 0.577381 0.122431
0.806792 -0.348845 0.122431
0.238024 0.126856 -0.126562
0.660162 -0.255485 0.122431
-0.397377 -0.781312 -0.126098
-0.401144 -0.826308 -0.126098
0.440694 0.344372 0.122431
-0.058124 -0.177524 -0.126599
0.379760 0.815816 0.122431
0.065660 -0.820198 0.122431
-0.021196 0.849241 0.047526
0.639036 0.247072 -0.126129
0.417767 -0.248413 0.122431
-0.255846 -0.610613 -0.126690
0.792583 0.205513 -0.126098
-0.688619 -0.332271 -0.042984
-0.520229 0.560451 0.122431
-0.849079 0.496101 -0.125758
-0.331619 0.353235 -0.126487
-0.343135 0.507692 -0.126580
-0.089034 0.097989 -0.126567
0.364851 0.520738 0.122431
-0.214183 0.806820 -0.126098
0.073575 -0.601787 0.122431
0.757304 0.002686 0.122431
-0.844175 -0.515802 -0.005024
0.719019 0.329176 -0.011347
0.504361 0.493089 0.122431
0.520905 0.642998 0.029432
0.829881 -0.253772 -0.125963
0.036767 -0.181372 -0.126598
-0.080666 0.292912 -0.126520
0.118493 -0.659808 0.122431
0.458347 -0.859244 0.115310
-0.180805 0.849241 -0.055922
-0.701608 -0.324010 -0.125874
0.355055 0.182186 0.122431
0.170301 -0.859127 0.121528
-0.533206 0.619734 -0.017135
0.177298 0.049398 0.122431
-0.301950 -0.757300 -0.126098
0.470002 0.260914 0.122431
-0.042909 0.530281 -0.126605
0.007858 -0.256719 0.122431
-0.857855 0.133110 0.082839
0.322116 -0.300343 0.122431
0.248703 -0.450088 0.122431
-0.054198 -0.859392 -0.095821
0.850782 0.013975 0.041347
-0.217479 -0.264555 0.122431
0.850782 0.252929 0.002293
-0.571536 0.011485 -0.126484
0.433372 -0.313428 -0.126523
-0.214191 0.134472 -0.126543
0.530261 -0.617969 0.102274
-0.060429 0.379841 0.122431
-0.469019 0.657701 0.044745
0.335496 -0.748226 0.122431
-0.021289 -0.430584 0.122431
0.473839 0.523996 0.122431
-0.812777 0.338612 -0.126098
-0.426200 0.518062 -0.126429
-0.646640 0.420488 0.122431
-0.801582 0.232669 0.122431
0.753545 -0.332488 0.122431
0.810014 -0.381761 -0.126098
0.796844 -0.527929 0.114669
0.256038 -0.488202 0.122431
0.269249 -0.788854 0.122431
-0.575334 -0.367371 0.122431
0.572643 0.081830 0.122431
0.337956 -0.649767 -0.125872
-0.734304 -0.173879 0.122431
0.033679 0.252355 0.122431
0.073852 0.811628 0.122431
-0.269012 0.097555 -0.126536
-0.046501 0.346941 -0.126579
-0.677029 0.204414 0.122431
0.850110 -0.485621 -0.104702
-0.393846 0.642121 0.060286
0.482927 -0.441352 0.122431
0.199329 -0.261709 -0.126574
0.312907 0.730974 -0.126098
0.519183 0.703325 -0.123229
-0.532020 -0.635589 -0.019105
-0.076947 -0.576298 0.122431
-0.128514 -0.741501 0.122431
-0.376115 0.250471 0.122431
-0.024205 -0.153848 -0.126595
-0.453480 0.635237 -0.053145
0.221708 0.231667 0.122431
-0.722612 -0.469207 -0.092466
0.337307 -0.737792 0.040907
0.087900 -0.856432 -0.125770
0.642268 -0.529882 0.049148
-0.421902 -0.699042 0.122431
0.242602 -0.407077 0.122431
-0.088453 -0.443588 0.122431
0.781423 0.187882 0.122431
-0.846856 0.011094 -0.125905
0.383437 0.455742 -0.126635
0.669309 0.517791 0.096491
0.322194 0.148152 0.122431
0.850782 0.406220 -0.055795
0.329420 -0.668214 0.059142
-0.336859 0.139055 0.122431
-0.526425 -0.681333 0.019660
0.167967 0.082751 0.122431
-0.585724 -0.160938 -0.126593
0.643217 -0.434054 0.122431
0.624523 -0.394432 0.122431
-0.628481 -0.432373 0.025484
0.690544 -0.430257 0.122431
0.290705 0.472870 0.122431
0.850493 0.374724 0.121796
0.850782 -0.101752 0.092636
-0.554811 0.442146 0.122431
0.850782 0.146754 -0.090879
-0.674964 0.241562 0.122431
-0.456224 -0.527875 0.122431
0.157041 -0.381588 -0.126605
0.175913 0.571196 -0.126569
-0.840914 -0.416555 -0.125961
-0.523818 0.692982 -0.125837
0.271410 0.045865 -0.126573
-0.211842 0.491422 0.122431
-0.857855 0.036401 0.081036
0.817118 0.317716 0.122431
0.327085 -0.671567 -0.053483
-0.296973 0.188003 -0.126489
0.761309 -0.528024 -0.033209
-0.290591 0.660881 0.122431
-0.552332 0.413580 -0.126104
-0.251269 0.435638 -0.126550
-0.190640 0.849241 -0.018366
-0.503690 -0.055823 0.122431
0.577073 -0.404737 0.122431
-0.549046 -0.362863 -0.126597
0.295180 0.793085 -0.126098
-0.683272 0.382754 0.122431
0.850782 -0.233314 -0.003798
0.183882 -0.615940 0.122431
0.603227 -0.322103 0.122431
0.408189 -0.335423 0.122431
0.771571 -0.501592 0.122379
-0.526483 0.702414 0.005007
-0.852453 -0.476940 -0.125817
0.031810 -0.229573 0.122431
0.689644 0.429386 0.122431
0.615496 0.391353 -0.055174
0.365153 -0.713055 0.060299
-0.186585 -0.333322 -0.126631
0.850782 0.368817 -0.047988
0.815289 -0.090749 -0.126098
-0.313594 -0.564342 -0.126629
-0.230891 0.766684 -0.126098
0.271777 -0.607797 -0.126626
0.534957 0.006094 -0.126602
-0.703683 0.448457 -0.126098
-0.293039 -0.859396 -0.088513
-0.556339 -0.400257 -0.126332
0.454007 -0.653663 -0.023674
-0.294178 -0.143574 0.122431
-0.724859 -0.079656 0.122431
-0.080379 0.569199 -0.126615
0.850716 -0.294197 -0.103261
0.218433 -0.080612 -0.126582
0.297280 -0.235766 -0.126553
-0.375603 -0.679958 -0.126098
-0.489435 -0.071229 -0.126534
0.488777 0.537627 -0.126098
0.192952 -0.339049 0.122431
0.850782 -0.357161 0.049111
-0.584277 0.303908 0.122431
0.305580 -0.859396 0.009376
0.652083 -0.220300 -0.126098
0.469119 -0.859275 -0.052774
0.405744 0.066660 -0.126587
-0.857304 0.131739 0.122149
0.712824 -0.335916 -0.126098
0.602201 0.254208 -0.126647
-0.408222 -0.639191 0.122431
0.194624 0.345293 -0.126580
-0.707947 0.044845 0.122431
-0.211442 -0.442512 0.122431
-0.354363 -0.282078 -0.126611
-0.281957 -0.559098 0.122431
-0.183109 -0.796125 0.122431
0.407086 0.742716 -0.126098
0.525848 -0.704510 0.122431
0.841882 0.501119 0.053533
0.850782 -0.204021 -0.041501
0.144929 -0.094957 -0.126589
-0.635104 -0.362774 0.009572
-0.297278 0.848943 -0.125667
0.771579 0.346608 0.122431
-0.245570 -0.713344 -0.126098
0.088237 -0.859396 -0.085264
0.454981 -0.858549 -0.125736
0.701096 -0.528024 0.035449
-0.777089 -0.158449 0.122431
-0.525539 0.238555 0.122431
-0.330367 0.806394 0.122431
0.532074 -0.340881 -0.126595
0.417380 0.315383 0.122431
-0.344791 -0.229618 0.122431
-0.346472 -0.436729 0.122431
-0.251667 0.041441 0.122431
0.678521 -0.102401 -0.126197
0.406925 0.784113 -0.126098
0.563983 -0.568470 -0.080826
-0.220093 0.849241 -0.040336
-0.426369 -0.758144 -0.126098
0.032755 -0.859396 0.066674
-0.147130 0.429333 -0.126579
0.523732 0.118912 0.122431
-0.760189 -0.096830 0.122431
0.124308 -0.304976 -0.126596
0.314199 0.849241 0.009800
0.712975 -0.526319 -0.125831
-0.178863 -0.772674 -0.126098
0.756985 0.410732 0.025291
0.238244 0.200743 -0.126575
0.552694 0.282431 -0.126638
-0.352047 0.197762 -0.126496
-0.857687 -0.102245 -0.115787
-0.297089 0.849241 -0.087251
0.774091 0.517889 0.036575
-0.257913 0.815083 0.122431
0.558709 0.564079 -0.044903
-0.245257 0.315206 0.122431
0.472294 -0.859361 0.035918
-0.443486 0.241500 0.122431
0.642629 0.519486 -0.088967
-0.639710 0.014424 0.122431
0.818628 0.515801 0.028241
-0.511496 -0.849350 0.075652
0.642255 -0.159783 0.122431
-0.611915 0.310352 -0.126127
0.433453 -0.247036 -0.126564
0.450646 0.673716 0.122431
-0.384611 0.708703 0.060299
0.143503 -0.416230 -0.126613
-0.526483 -0.782643 0.034792
0.393629 0.849241 -0.038738
0.850782 -0.277161 -0.064509
-0.014686 -0.291273 0.122431
-0.088660 0.047407 -0.126576
-0.592560 -0.032381 -0.126487
0.519228 0.805126 -0.103187
-0.493190 -0.743787 -0.126098
0.382513 -0.084896 -0.126597
0.850782 -0.422440 0.090057
0.480650 0.399647 -0.126627
0.836991 -0.515940 -0.093729
0.469086 -0.180958 -0.126591
0.221236 0.456909 0.122431
0.798540 -0.419386 -0.126098
-0.408717 0.756709 -0.105953
0.529570 -0.166514 -0.126607
0.722665 0.121067 0.122431
0.607513 -0.540279 0.042751
0.391198 0.517346 -0.126632
-0.085272 -0.664790 -0.126583
-0.007902 -0.043505 -0.126549
-0.053151 -0.444296 0.122431
-0.279626 -0.728007 0.122431
0.327457 -0.343500 -0.126547
-0.373563 0.619083 -0.062466
-0.366532 -0.656544 0.122431
0.844968 0.494825 0.122100
-0.857855 0.381930 -0.024787
-0.044725 0.227694 0.122431
-0.807638 -0.528084 0.054075
0.850782 0.216759 -0.000372
0.571346 -0.375593 -0.126222
-0.494034 0.445359 0.122431
0.486871 -0.215073 0.122431
-0.317159 0.168213 0.122431
-0.028859 -0.423411 -0.126653
0.519411 0.772262 0.042552
-0.248519 0.849241 -0.089771
-0.402194 0.537031 0.122431
0.476955 -0.133874 0.122431
0.200046 0.539138 -0.126595
-0.416375 -0.797176 0.122431
0.086893 -0.481678 -0.126633
0.325925 0.716974 0.122431
-0.136418 0.117223 -0.126557
0.444902 -0.501928 0.122431
-0.296068 0.075379 -0.126547
-0.745928 -0.454186 -0.125090
-0.715156 -0.473461 -0.010014
0.099852 -0.312862 0.122431
-0.138753 -0.186788 0.122431
-0.526485 0.673537 0.027586
-0.180163 0.443873 0.122431
0.732876 -0.485968 0.122431
0.410940 -0.618487 0.122431
0.735126 0.343349 0.122431
0.519173 0.739031 0.115860
-0.320037 -0.384246 0.122431
-0.195171 0.230013 -0.126498
0.588917 -0.539171 0.122265
-0.525761 -0.816438 0.121677
-0.857855 0.287202 -0.046005
0.752326 -0.187868 0.122431
-0.366101 -0.488803 -0.126646
0.774968 -0.115097 0.122431
0.267960 0.098162 -0.126562
0.513958 0.401323 0.122431
-0.485984 -0.174113 0.122431
-0.261953 0.276309 0.122431
0.815185 0.121576 0.122431
0.327027 -0.302447 -0.126537
-0.212416 -0.151714 -0.126586
-0.434260 -0.276998 -0.126600
-0.404795 -0.005041 0.122431
0.486330 0.729023 -0.126098
0.743967 0.157345 0.122431
-0.402280 -0.131119 0.122431
0.228506 -0.830708 -0.126073
-0.236277 -0.859396 0.083762
-0.816586 -0.297253 -0.126098
0.085124 -0.707879 -0.126098
-0.590278 -0.553384 0.024695
-0.167799 0.367196 -0.126536
0.318362 0.099037 0.122431
-0.420102 0.711488 0.060299
0.111134 0.086637 0.122431
-0.815394 0.516740 -0.004845
0.240796 0.613422 0.122431
-0.618130 0.528815 -0.020887
0.524938 0.436147 0.122431
-0.571189 -0.500257 -0.126098
0.408514 0.640009 0.122431
0.443786 -0.343692 0.122431
-0.356264 -0.448441 -0.126653
0.542695 0.158192 -0.126607
0.263976 -0.831813 -0.126067
0.073720 0.062217 0.122431
-0.366875 0.014329 0.122431
0.401144 0.248085 0.122431
-0.393180 0.011653 -0.126537
0.559837 -0.104743 0.122431
-0.426889 0.849241 0.001599
0.196815 -0.725894 0.122431
0.434781 -0.635323 0.049270
0.323086 0.814526 -0.126098
0.036034 -0.475132 -0.126647
-0.443647 -0.503316 -0.126580
0.638337 -0.285885 0.122431
0.219856 0.496684 0.122431
-0.133855 0.849241 0.050053
0.047854 -0.694149 0.122431
0.504227 -0.677012 0.122431
-0.242925 -0.709194 0.122431
-0.143297 -0.588104 -0.126615
0.845379 -0.189365 -0.125772
-0.335304 -0.859264 -0.108495
-0.149556 -0.542438 -0.126635
-0.824170 0.516742 -0.112739
-0.857855 -0.194548 0.027373
-0.321434 -0.859065 0.121649
-0.759333 -0.371908 -0.096204
-0.084058 0.534218 -0.126607
0.671039 0.266714 -0.126098
-0.166243 0.137385 0.122431
-0.348422 -0.102823 0.122431
0.791430 -0.527360 -0.125818
0.850782 -0.438141 0.035888
-0.144120 0.666833 0.122431
0.389680 0.129139 -0.126578
0.537575 -0.602868 0.060763
-0.332681 0.669505 -0.008087
0.419296 0.450634 -0.126635
-0.076855 0.170911 -0.126533
0.041975 0.782267 0.122431
0.267297 -0.859396 -0.039133
-0.796196 0.302987 -0.126098
0.835594 0.408466 0.122277
0.814375 -0.038776 0.122431
-0.775351 0.188015 0.122431
-0.381766 -0.539771 -0.126613
-0.115924 0.625055 -0.126624
0.169041 -0.303106 0.122431
-0.214956 -0.406287 0.122431
0.728532 0.020591 -0.126098
0.486537 -0.707622 0.122431
-0.415657 0.751359 0.122431
-0.518505 -0.504707 -0.126098
-0.786002 -0.528024 -0.040278
0.519410 0.718499 -0.048109
0.091927 0.228638 -0.126550
-0.857855 0.151970 0.004398
-0.736351 -0.271417 -0.126098
0.328525 -0.128136 0.122431
0.018916 -0.444014 0.122431
0.850782 -0.201624 0.014262
0.566243 -0.284828 -0.126621
0.441897 -0.859398 -0.086568
0.676881 0.138120 -0.126098
0.537612 -0.603403 -0.003358
-0.144792 -0.100917 0.122431
0.850782 -0.089949 -0.041260
-0.174816 0.489609 0.122431
-0.819205 -0.150451 0.122431
-0.497982 -0.476137 -0.126248
-0.083883 0.637709 0.122431
-0.055301 0.341616 0.122431
-0.857855 -0.280947 0.044703
-0.764373 -0.332832 0.122431
0.573288 0.078718 -0.126605
0.820370 0.355895 0.122431
0.158828 0.647134 0.122431
0.243228 0.317465 -0.126611
0.289082 0.674186 -0.126098
0.280566 0.745134 0.122431
-0.443869 0.627180 -0.016677
-0.065416 0.701945 -0.126098
-0.288541 0.007452 0.122431
0.487781 0.303935 0.122431
-0.255571 0.333953 -0.126485
0.423710 -0.761812 0.021415
-0.129683 0.033816 0.122431
0.748040 -0.405843 0.122431
0.515550 -0.735673 -0.125812
-0.319331 0.431246 -0.126516
-0.266102 0.760858 -0.126098
-0.061258 0.769718 0.122431
0.415062 -0.624394 -0.125884
-0.499025 -0.677864 0.122431
0.354380 0.113657 0.122431
0.353460 0.524175 -0.126637
0.272599 -0.333898 -0.126566
0.519410 0.703269 -0.006500
-0.147979 -0.859396 -0.018980
-0.170018 0.642350 -0.126512
0.006470 -0.003264 0.122431
-0.414418 0.797577 -0.126098
0.485470 -0.261134 0.122431
-0.574877 0.548072 0.122200
0.498494 -0.409075 0.122431
0.102126 0.161836 0.122431
0.172664 0.849241 0.038019
-0.550228 0.108648 0.122431
-0.102894 0.849241 -0.061408
0.511428 0.209849 0.122431
-0.255707 0.621536 -0.126392
-0.268684 -0.443360 0.122431
0.514448 -0.835549 0.003829
0.008124 -0.759270 -0.126098
0.606774 0.497755 0.122431
0.222920 -0.053878 0.122431
-0.065690 0.503802 -0.126602
-0.435584 0.009461 -0.126529
0.184170 0.368699 0.122431
-0.197338 0.650007 0.122431
-0.008395 -0.717129 0.122431
0.570444 -0.022966 0.122431
0.341333 0.601568 -0.126098
-0.815885 0.461626 0.122431
0.816642 -0.337109 -0.126098
0.376862 0.810732 -0.126098
0.832969 0.033791 -0.125998
-0.069584 0.255886 0.122431
-0.857653 -0.333704 -0.114084
0.112871 -0.346543 -0.126608
-0.432217 0.751264 0.041375
0.670627 -0.214280 0.122431
0.519351 0.674390 -0.035689
-0.526458 0.796908 0.105981
0.318165 -0.448093 -0.126580
0.090451 0.536739 -0.126491
-0.461445 -0.472926 -0.126638
0.097172 -0.572646 0.122431
0.046166 -0.266223 0.122431
-0.857855 0.152021 0.053482
0.311731 -0.826326 0.122431
0.307171 -0.859396 -0.027636
0.085097 -0.485271 0.122431
-0.335746 0.848902 0.122047
0.177539 0.121142 0.122431
0.068253 -0.297071 0.122431
-0.332978 -0.859396 -0.022114
0.212662 0.240376 -0.126589
0.589488 -0.448418 -0.126098
-0.382879 0.396181 -0.126493
-0.267843 0.587979 0.122431
-0.743408 0.517869 -0.079349
-0.596941 -0.549129 -0.014636
-0.176703 -0.462341 0.122431
-0.781343 0.029294 -0.126098
0.221399 -0.319993 -0.126578
0.101019 -0.798419 0.122431
-0.541504 0.145250 -0.126491
0.432421 0.382865 -0.126595
0.448033 0.636663 0.122431
0.834454 -0.519190 0.052256
0.525018 -0.216587 0.122431
-0.188628 0.849241 0.056960
-0.665183 0.487552 -0.126098
0.521258 0.267440 -0.126621
0.434647 0.500061 0.122431
0.324868 -0.859396 -0.072503
0.271707 0.167586 0.122431
-0.535151 -0.132185 0.122431
-0.487472 0.797913 0.122431
-0.074387 0.162943 0.122431
0.527778 -0.625686 -0.037866
0.341921 -0.782672 0.122431
0.850594 0.454621 -0.119912
-0.211335 -0.568806 0.122431
-0.324130 0.270884 -0.126537
0.809030 0.515850 0.122167
-0.857855 -0.344140 -0.073285
0.419119 0.027419 -0.126595
0.850782 0.056847 0.079801
-0.260703 0.849241 0.001136
0.425600 -0.630029 -0.082531
-0.075855 -0.023533 -0.126588
-0.346977 -0.596491 0.122431
-0.857134 -0.490761 -0.052607
-0.264036 0.776421 0.122431
-0.469184 0.021245 0.122431
-0.515725 -0.218795 0.122431
-0.043965 -0.050523 -0.126585
-0.857855 -0.242700 -0.034279
0.373556 0.168385 -0.126595
0.535050 0.543491 -0.126098
0.559842 0.562505 0.036569
-0.051781 -0.631267 0.122431
-0.857855 -0.138891 0.080100
-0.373486 0.848940 0.117709
0.257978 0.849049 -0.116644
-0.282573 -0.637476 0.122431
0.519410 0.732554 -0.084623
0.624690 0.340259 0.122431
0.377300 -0.626422 0.059991
0.148286 -0.736932 -0.126098
0.604391 -0.429508 0.122431
0.610153 0.196666 0.122431
0.069688 -0.584210 -0.126639
0.522566 -0.644056 -0.125708
0.282715 0.713389 -0.126098
-0.144407 -0.262148 0.122431
-0.851933 0.495850 -0.060876
0.619068 -0.464123 0.122431
0.669043 -0.303084 0.122431
0.350700 -0.548867 -0.126413
0.497631 -0.792406 0.122365
0.405853 0.079227 0.122431
0.369247 -0.201614 0.122431
-0.252079 -0.523023 -0.126645
-0.111848 -0.290450 0.122431
0.524830 -0.113693 0.122431
-0.684625 0.416495 -0.126098
0.634475 0.445607 -0.125863
-0.857818 0.376854 -0.098720
0.116266 -0.632068 -0.126633
-0.486601 0.343480 0.122431
-0.189277 0.745512 -0.126098
-0.588969 0.188220 0.122431
-0.363732 -0.859396 0.000718
0.286115 0.362629 0.122431
0.338501 -0.740692 -0.091347
-0.645844 -0.057117 0.122431
-0.355501 -0.859396 0.050182
-0.230907 0.237902 0.122431
0.365334 0.077103 -0.126576
0.446721 -0.050437 -0.126601
-0.272589 0.393759 0.122431
-0.165253 -0.830953 0.122417
-0.204688 0.336369 0.122431
0.330870 -0.726425 0.006097
-0.138994 -0.859396 0.070967
-0.247443 -0.127353 0.122431
0.321736 0.355620 0.122431
-0.668050 0.381433 -0.126098
0.090334 -0.689122 0.122431
-0.834117 0.306931 -0.126037
-0.372993 0.618359 -0.125888
0.399861 -0.824100 -0.126098
-0.040912 0.573547 -0.126623
0.270655 -0.660800 0.122431
-0.306165 -0.521819 -0.126640
-0.459524 -0.017078 -0.126532
0.041495 -0.146249 -0.126594
0.051331 0.360995 -0.126582
0.256689 -0.099231 -0.126584
0.817622 0.436785 -0.126098
0.463146 -0.720023 -0.004385
0.063398 0.678524 -0.126179
-0.008122 0.431660 0.122431
0.779073 -0.265169 0.122431
0.753423 0.423185 -0.107884
-0.857855 0.257929 -0.023167
-0.733045 -0.341331 -0.125861
-0.296352 0.131119 0.122431
-0.127286 -0.524717 0.122431
0.820512 -0.526276 -0.024460
0.033408 -0.594603 0.122431
0.262199 0.652141 -0.126098
-0.526453 -0.679091 -0.015489
0.761710 -0.453724 -0.126098
0.340604 -0.371161 0.122431
0.040758 -0.726278 -0.126098
0.364552 0.005921 -0.126589
-0.716906 0.119958 -0.126098
0.070804 0.401617 -0.126590
-0.243511 -0.331466 -0.126628
0.806854 -0.154273 -0.126098
-0.857855 -0.164723 -0.059002
-0.097671 0.380737 0.122431
0.850782 0.363607 0.081099
-0.703255 0.028057 -0.126098
-0.820171 0.155745 0.122431
-0.857855 -0.377418 -0.032842
-0.730608 -0.217423 0.122431
0.285162 -0.043000 0.122431
0.667105 -0.399403 -0.126098
-0.698784 0.085745 -0.126098
-0.529036 0.639003 0.035643
0.557559 0.565331 0.072369
0.067069 0.231283 0.122431
-0.591078 0.040530 -0.126510
-0.227767 -0.786675 -0.126098
0.201793 0.596545 -0.126618
-0.389400 0.517581 -0.126620
-0.469355 0.108937 0.122431
-0.459716 -0.778686 -0.126098
-0.433304 -0.536808 -0.126252
-0.183534 -0.290929 0.122431
-0.743643 -0.490519 -0.126039
0.785769 -0.528052 -0.004459
-0.725637 0.190237 0.122431
0.850782 0.309025 0.043361
0.709910 0.325412 0.022505
0.505162 -0.070301 -0.126603
-0.108666 -0.248807 0.122431
-0.462999 -0.122706 0.122431
-0.772167 0.479079 0.122431
0.344364 0.330770 -0.126592
-0.254459 -0.010700 0.122431
-0.341301 -0.769499 -0.126098
-0.574350 0.552843 -0.125834
-0.380220 0.100770 0.122431
-0.404785 -0.250742 0.122431
-0.656018 -0.294730 -0.126098
-0.659357 -0.020527 0.122431
0.644601 0.450828 0.055165
-0.039011 -0.594638 -0.126657
0.121179 -0.122602 0.122431
0.850782 -0.058487 -0.056041
-0.579365 0.514311 -0.126098
-0.735381 0.517869 -0.040746
0.420296 -0.658023 0.122431
0.410770 -0.724320 0.060299
0.803156 0.517585 -0.078009
-0.581793 -0.530156 0.122380
0.084140 -0.325509 -0.126611
-0.811893 -0.460004 -0.126098
-0.153663 0.331270 -0.126520
-0.444354 0.133478 0.122431
0.598556 0.534024 0.076033
-0.193922 0.159891 0.122431
0.850782 -0.225276 0.089901
0.519490 -0.798131 0.095752
-0.446147 -0.357869 0.122431
-0.526125 -0.078742 -0.126520
0.534994 -0.213145 -0.126609
-0.515907 -0.325218 -0.126619
-0.437138 0.624254 0.059904
0.519403 -0.702545 -0.007206
0.615142 0.402606 -0.017097
0.490324 -0.753422 0.122431
0.484407 0.611533 0.122431
0.437075 0.464060 0.122431
-0.288236 0.727738 0.122431
0.273645 0.396278 0.122431
-0.174228 0.123817 -0.126554
0.379808 -0.765426 -0.103244
-0.322894 -0.279806 0.122431
-0.032646 -0.282252 -0.126629
0.669157 0.226363 -0.126098
-0.456545 0.732966 0.018673
0.417692 -0.376847 0.122431
-0.251103 -0.163949 -0.126587
0.672036 -0.528059 0.015032
-0.836706 -0.521815 0.076057
0.346537 -0.827088 -0.126073
0.645547 0.156141 0.122431
0.682603 0.517852 -0.094399
0.163725 0.307928 -0.126571
0.402085 -0.043062 -0.126599
-0.452424 0.737105 -0.060054
-0.702718 -0.184054 -0.126098
0.010798 0.122664 -0.126497
-0.169872 -0.425150 0.122431
-0.367285 -0.073721 0.122431
-0.857855 0.189774 -0.084796
-0.014730 -0.370290 0.122431
-0.439327 0.748033 -0.122541
0.850782 0.332848 -0.027597
-0.531530 -0.432007 -0.126331
-0.042994 0.629666 -0.126636
0.810947 0.165732 0.122431
-0.044391 0.286985 0.122431
-0.271229 0.433560 0.122431
-0.179091 0.791391 0.122431
0.699674 0.463787 0.008001
-0.344380 0.727725 -0.065638
-0.209669 -0.635471 0.122431
-0.725026 -0.486954 0.122431
0.446880 -0.423980 -0.126505
-0.167604 -0.410156 -0.126645
0.327430 0.764016 -0.126098
0.405630 -0.413840 0.122431
0.164769 0.849241 -0.076550
0.125472 0.349170 0.122431
0.326176 0.022471 0.122431
0.167992 -0.859396 -0.008275
0.122358 -0.859375 -0.096993
0.661416 0.517902 -0.035935
-0.325503 -0.260533 -0.126604
-0.808933 -0.457559 0.122431
0.250341 0.592406 -0.126615
0.341795 0.848972 -0.125435
0.850782 -0.312874 -0.044284
0.633582 0.345864 0.000371
-0.113329 0.849241 -0.095023
0.509300 0.581898 0.122431
-0.804557 -0.528045 0.015037
0.694443 0.464220 0.059945
-0.301020 0.773600 0.122431
-0.449871 -0.353794 -0.126606
0.387493 -0.697620 0.122431
0.249764 0.136636 0.122431
0.336912 -0.125985 -0.126578
0.029255 -0.571512 -0.126659
0.523076 0.084116 0.122431
0.324186 -0.709201 0.059051
-0.686148 0.517862 0.039377
0.653471 0.346430 0.060164
0.049464 0.213684 -0.126540
-0.530111 0.033344 -0.126485
0.607886 -0.403993 -0.126098
0.647131 0.495916 0.122431
0.048055 0.849241 0.023919
-0.145997 -0.782823 0.122431
0.173422 -0.229536 0.122431
-0.410826 0.223274 0.122431
-0.752297 -0.446516 -0.078825
0.486322 -0.809842 -0.126098
-0.537999 -0.114184 -0.126544
0.391989 0.849241 0.082310
0.206656 -0.398371 0.122431
0.363647 -0.457912 0.122431
-0.267915 0.584869 -0.126649
0.814497 0.167581 -0.126098
0.077346 -0.548954 -0.126639
-0.857872 -0.465947 -0.025295
0.556023 0.223513 0.122431
-0.387586 -0.089797 -0.126587
-0.111592 0.367654 -0.126557
-0.300556 0.314058 -0.126541
0.401240 0.728094 0.122431
0.037022 0.070389 0.122431
-0.367636 0.712407 0.122431
-0.584332 0.152130 0.122431
-0.329024 0.751506 0.122431
0.401181 0.549516 0.122431
0.663519 0.324906 0.029642
0.214391 0.123838 0.122431
-0.014763 -0.723651 -0.126098
-0.327321 0.849241 0.047668
-0.170437 -0.757859 0.122431
0.476500 0.344711 0.122431
-0.820757 0.423451 -0.126098
-0.526282 0.803984 -0.046729
0.700106 -0.394049 0.122431
0.214106 -0.582534 -0.126602
0.353549 -0.275904 -0.126532
-0.201075 -0.720169 0.122431
0.733096 -0.528024 0.052177
-0.093954 0.755510 0.122431
-0.427614 -0.306903 0.122431
-0.526483 0.762641 -0.038505
0.722890 -0.242742 0.122431
-0.403525 0.613456 -0.014486
-0.250119 0.398666 -0.126529
-0.100760 -0.407112 -0.126647
-0.279731 0.169053 0.122431
0.066457 -0.453348 -0.126636
-0.443089 -0.726143 -0.126098
0.221049 -0.162735 0.122431
0.027952 0.531212 -0.126623
0.602162 -0.002297 0.122431
0.289750 0.848981 0.113757
-0.256377 0.117489 0.122431
0.808913 0.517960 -0.037753
0.457785 -0.660913 0.053343
-0.589580 0.276175 -0.126431
-0.282545 -0.402302 0.122431
0.575536 -0.558781 0.079947
0.198600 -0.859213 -0.111874
0.850782 -0.153872 0.071462
0.100751 -0.834297 0.122385
-0.715304 0.159703 -0.126098
-0.536413 0.541731 -0.126098
0.443631 0.206143 -0.126595
0.416712 -0.856806 -0.125783
0.608993 0.078772 -0.126619
0.693458 0.517869 0.057810
-0.450718 0.351022 -0.126468
-0.728709 -0.522202 0.122192
0.300433 0.811142 0.122431
0.850782 0.425621 -0.090921
-0.484621 0.736728 -0.126030
-0.221940 -0.056681 -0.126549
0.059469 -0.568800 0.122431
-0.205778 -0.859396 0.057888
-0.378112 0.753770 0.015283
0.237609 -0.438639 -0.126599
0.058173 0.551998 -0.126572
-0.526471 -0.797759 -0.008698
0.248862 -0.546029 -0.126598
-0.472628 0.698427 0.039040
-0.357317 0.508429 0.122431
-0.566781 -0.108851 0.122431
-0.250128 -0.859103 0.121408
-0.321785 -0.859396 0.083939
0.371659 0.357205 0.122431
0.616329 -0.262667 -0.126456
0.548783 -0.586340 0.089883
-0.489434 -0.621020 -0.126098
0.291662 0.633169 -0.126098
0.516901 0.649793 0.122221
-0.701506 0.494042 0.122377
0.519410 -0.737000 -0.087489
-0.411081 0.834395 0.122282
-0.857837 0.255500 -0.099878
-0.187841 0.780582 -0.126098
-0.038367 -0.088974 -0.126566
0.348471 -0.763606 -0.125966
-0.035960 0.022795 0.122431
-0.857855 -0.123481 -0.070896
0.558396 -0.431850 -0.126098
0.068888 -0.251978 -0.126603
-0.260632 -0.227614 0.122431
-0.705896 -0.010656 -0.126098
-0.490762 -0.427657 -0.126609
-0.702179 -0.286866 -0.126098
-0.392447 0.849241 0.067269
0.363204 0.046727 0.122431
0.448699 0.059243 -0.126596
0.068458 -0.859396 0.047471
-0.548310 0.266688 0.122431
0.370903 0.319905 0.122431
0.850782 0.206378 -0.090411
0.189940 0.324123 0.122431
0.151880 0.367650 -0.126538
-0.341392 0.434513 0.122431
-0.697025 -0.402051 0.060299
-0.371745 -0.213301 -0.126587
0.377915 0.587943 -0.126098
0.850782 0.402333 0.062588
0.730519 -0.528024 -0.084262
-0.817081 0.323687 0.122431
-0.122456 0.714331 -0.126098
-0.623312 0.267952 -0.126340
0.350300 -0.158451 -0.126571
-0.193765 0.411942 0.122431
0.005341 -0.129608 -0.126593
0.047485 0.305596 0.122431
0.850497 -0.329817 -0.125547
-0.170266 -0.389730 0.122431
0.367451 0.613360 0.122431
-0.211365 0.848976 -0.122421
-0.653038 0.519375 -0.044936
0.519014 0.808242 -0.005888
0.669687 0.464236 0.032412
0.278637 -0.700000 0.122431
-0.176098 -0.330902 0.122431
0.850782 -0.298045 0.067464
-0.847434 0.392166 0.122214
-0.437513 -0.824001 -0.126098
0.535377 0.474763 0.122431
-0.631340 -0.368475 0.057902
-0.009467 0.088496 0.122431
0.034178 0.296445 -0.126570
0.629502 0.349838 -0.034434
0.694759 0.033843 -0.126098
0.811098 -0.042593 -0.126098
0.850782 -0.167136 0.031064
-0.285932 -0.859168 0.115223
-0.068198 -0.715117 -0.126098
-0.377155 0.745801 0.122431
-0.032799 -0.629185 -0.126659
0.813560 -0.222687 -0.126098
-0.355859 0.629996 -0.030014
0.233975 0.723279 0.122431
-0.764513 -0.415011 -0.091545
0.025503 0.479793 -0.126607
-0.361561 -0.321593 -0.126622
-0.471092 0.705182 -0.049112
-0.255380 -0.859396 0.001228
-0.526483 -0.713280 -0.094780
-0.592775 -0.413076 -0.126072
-0.857855 -0.437744 0.048834
0.525850 -0.342904 0.122431
-0.785044 -0.149757 -0.126098
-0.325581 -0.304526 -0.126621
0.031709 0.005663 -0.126593
-0.506751 0.768293 0.122317
-0.443534 -0.625765 -0.126098
-0.665736 -0.493944 0.122431
0.428293 0.277347 -0.126591
-0.670557 -0.115187 0.122431
-0.161689 -0.123599 -0.126578
-0.043340 0.065626 0.122431
-0.317606 -0.568723 0.122431
0.205985 -0.832515 0.122412
-0.857855 -0.296261 0.075835
0.439287 0.133628 0.122431
0.683299 -0.004201 -0.126197
-0.029309 -0.462727 -0.126648
0.850525 0.138091 0.118523
0.220147 0.267049 0.122431
-0.382718 0.193323 0.122431
0.551293 0.331348 0.122431
0.523050 -0.181197 0.122431
-0.022776 -0.538985 0.122431
-0.822998 0.460440 -0.126098
-0.744839 0.339142 0.122431
-0.768536 0.485374 -0.126098
-0.613269 -0.104165 -0.126564
0.079029 -0.155073 -0.126593
-0.595363 -0.525189 -0.126019
0.029016 0.335597 0.122431
0.367883 -0.798669 -0.126098
-0.686488 -0.527753 0.116474
-0.508143 -0.768499 0.122340
-0.766228 -0.423183 -0.125829
0.211013 -0.859396 -0.041611
-0.356494 0.630810 0.006634
0.246938 -0.819768 0.122431
0.083271 -0.122151 0.122431
-0.448909 -0.170091 0.122431
0.486944 -0.490297 -0.126119
0.833032 0.509074 -0.062640
0.028014 0.389955 -0.126582
0.008716 -0.697729 -0.126098
0.283702 -0.291224 0.122431
0.322657 -0.017377 0.122431
-0.857855 -0.083481 -0.072173
-0.313039 -0.859396 0.042900
-0.395781 -0.315079 -0.126613
0.035359 -0.230431 -0.126605
-0.141002 -0.165293 -0.126593
0.331561 -0.795212 -0.126098
0.706397 0.161580 -0.126098
-0.282085 -0.859396 -0.023250
-0.360692 -0.366840 -0.126629
-0.277161 -0.394276 -0.126642
0.519410 -0.765921 -0.061523
-0.021769 0.630572 0.122431
0.515154 0.823162 0.089643
-0.545306 -0.601759 0.013766
0.438969 -0.815153 0.122431
-0.139411 -0.337117 -0.126635
-0.704305 -0.528024 -0.042714
0.788827 -0.113604 -0.126098
-0.621598 -0.401704 -0.018555
0.077226 0.849241 -0.052823
-0.784006 0.023756 0.122431
-0.663044 -0.407373 0.122431
-0.677833 -0.433271 0.060299
0.469577 0.766482 -0.126098
-0.214978 -0.507564 -0.126647
-0.857855 0.294443 -0.090434
0.049219 -0.132476 0.122431
0.120401 -0.354042 0.122431
0.169204 -0.071198 0.122431
0.076897 -0.622853 -0.126635
-0.494494 0.674671 0.122431
-0.106313 0.603115 0.122431
0.429540 0.822465 -0.126082
0.576133 -0.053174 -0.126602
-0.725736 -0.468825 0.023867
0.607542 0.444022 0.122431
-0.473650 0.699956 -0.123487
-0.696165 0.232502 -0.126098
0.619774 0.420140 0.025249
0.093371 0.264216 -0.126564
-0.646822 0.376571 0.122431
-0.328655 -0.070968 0.122431
-0.566630 0.563269 0.052343
-0.215986 0.423110 -0.126547
-0.216076 -0.676170 0.122431
0.480904 -0.715497 -0.125991
-0.679413 0.164904 -0.126098
0.610322 -0.484193 -0.126098
-0.003007 0.849241 -0.002547
0.112306 -0.545849 -0.126627
0.399892 0.118195 0.122431
-0.495877 -0.035460 -0.126518
-0.154664 -0.859320 -0.103138
-0.594584 0.104589 0.122431
-0.171027 0.002307 0.122431
-0.857855 -0.447034 0.015257
-0.699838 0.008171 0.122431
0.225833 -0.268437 0.122431
-0.468822 -0.859437 -0.057462
0.375155 -0.580350 0.122431
0.233969 -0.859138 0.121827
-0.344742 -0.778216 0.122431
0.135541 0.383281 0.122431
0.813343 0.202802 0.122431
-0.674667 0.032086 0.122431
-0.223060 0.849241 0.004456
-0.738036 0.347092 -0.126098
-0.078065 -0.621327 -0.126631
-0.526483 -0.750687 0.020144
0.335904 -0.580503 0.122431
-0.490881 -0.812852 0.122431
0.121645 -0.765006 0.122431
0.028063 0.849235 0.094957
-0.582895 0.257013 0.122431
0.475279 -0.859364 -0.016401
-0.478621 0.224438 0.122431
0.850782 0.433622 0.080464
0.037013 0.042327 -0.126558
-0.295999 0.464395 -0.126554
0.387716 0.849241 0.022423
0.202543 0.849241 -0.069986
-0.334358 0.613045 0.122431
0.351319 -0.638072 -0.086869
0.813927 0.479104 0.122431
-0.639262 0.223228 0.122431
-0.212177 0.036563 0.122431
0.040176 0.254503 -0.126559
0.199917 -0.662779 -0.126177
-0.318025 0.206742 0.122431
0.240586 -0.859396 0.077517
-0.597017 0.438053 0.122431
-0.526380 0.743333 0.102486
-0.670518 0.102787 0.122431
-0.765075 0.233829 -0.126098
-0.857806 0.327047 -0.102128
-0.113368 0.015562 -0.126575
0.417724 -0.088865 -0.126601
0.058831 -0.423787 0.122431
-0.592336 0.437900 -0.126098
-0.666265 0.067158 0.122431
0.111392 -0.745779 -0.126098
0.850782 0.079696 -0.057562
0.752273 0.205060 -0.126098
-0.168674 -0.142964 0.122431
-0.133275 -0.064958 0.122431
-0.111034 -0.772738 0.122431
-0.240495 0.363104 0.122431
0.375033 -0.242181 -0.126546
0.399668 0.202307 -0.126598
-0.183991 -0.083808 -0.126565
0.198383 0.437736 -0.126591
0.741780 -0.049190 0.122431
0.154132 -0.541262 0.122431
0.850782 -0.430669 -0.034768
-0.614476 0.529407 -0.119641
-0.492267 0.732518 0.122431
0.493306 0.297745 -0.126596
0.004286 0.849241 -0.077824
0.684584 -0.137287 -0.126098
-0.799357 -0.419525 0.122431
-0.493229 -0.006583 0.122431
0.544356 -0.068518 0.122431
0.368718 -0.668273 0.060299
-0.729663 0.444257 0.122431
-0.691425 -0.528013 0.007317
-0.619762 0.363814 -0.126098
0.686064 -0.528001 -0.029534
-0.485014 -0.354040 -0.126610
0.850782 -0.375423 -0.012799
0.525669 -0.259325 0.122431
-0.048082 -0.213157 -0.126610
0.157234 -0.859396 0.039652
-0.426305 -0.859396 -0.055563
0.610166 0.529043 0.015581
0.112115 -0.859396 -0.027265
-0.682085 -0.042739 -0.126203
-0.525951 -0.816591 0.074289
-0.177464 -0.859396 0.085148
-0.857855 0.146753 -0.092453
0.317979 -0.405718 -0.126576
0.426037 0.430841 0.122431
0.079143 -0.522210 0.122431
-0.107066 0.193893 -0.126495
0.044595 -0.859201 0.112323
0.298141 -0.807010 -0.126098
-0.654980 -0.343039 -0.047377
-0.114957 -0.859396 0.042756
-0.255889 -0.063278 -0.126547
-0.760378 -0.377273 0.025647
0.525697 -0.585320 0.122431
-0.276202 0.550512 0.122431
-0.145294 -0.555148 0.122431
0.287088 -0.535462 -0.126596
-0.191020 -0.858017 0.122178
0.103505 0.817572 -0.126098
0.850782 0.154763 0.078699
0.212414 -0.119826 -0.126582
0.120676 -0.058455 0.122431
0.536181 0.595592 -0.066090
0.439276 0.540455 0.122431
0.198978 -0.126742 0.122431
-0.836716 0.247285 0.122390
0.361635 -0.203767 -0.126558
-0.576702 -0.321035 0.122431
-0.644897 -0.350432 -0.080341
0.759105 0.050042 0.122431
0.280443 0.750468 -0.126098
-0.010991 -0.188062 -0.126602
0.403066 0.398907 0.122431
0.850782 -0.163918 -0.017061
0.699809 0.506981 0.122270
0.602069 -0.091994 -0.126600
-0.115873 -0.090703 -0.126575
-0.097308 0.287732 0.122431
-0.851714 0.023655 0.122152
-0.857855 0.191202 0.036923
-0.364376 -0.797031 -0.126098
0.199686 -0.686837 0.122431
0.741246 0.295295 -0.126098
-0.442088 0.361962 0.122431
-0.165078 0.323207 0.122431
0.024851 0.849150 -0.105817
-0.415169 0.106243 0.122431
-0.467248 0.611044 0.122431
-0.526483 0.735730 0.065790
-0.639758 -0.531909 0.007014
-0.584091 -0.557395 -0.113401
0.220044 -0.234311 0.122431
0.676484 0.319851 -0.125870
0.589279 0.346112 -0.126172
0.047516 0.729417 -0.126098
-0.503771 -0.637495 0.122431
-0.459590 -0.488789 0.122431
0.518363 -0.378016 -0.126594
-0.632644 0.103805 0.122431
-0.091566 -0.333613 -0.126638
0.608481 0.310850 -0.126173
0.441950 -0.133135 0.122431
0.107152 0.061317 -0.126575
0.813322 -0.485191 0.122431
0.022812 0.584773 0.122431
-0.644777 0.235174 -0.126229
0.058461 0.641266 -0.126432
-0.297802 -0.080081 -0.126561
0.850782 -0.020287 0.047033
0.348445 -0.859396 -0.041675
0.292426 -0.041886 -0.126577
-0.141728 0.190936 -0.126480
0.025021 0.820570 -0.126098
0.399530 -0.204700 -0.126565
-0.371522 0.346571 -0.126556
0.658516 0.352745 0.122431
-0.380202 -0.397788 -0.126638
0.563572 -0.568323 0.116640
-0.247067 0.725104 -0.126098
0.649450 -0.483439 -0.126098
0.421199 -0.686106 0.060299
-0.438936 0.402463 0.122431
0.474108 0.065722 0.122431
-0.393746 -0.298735 0.122431
-0.466060 -0.689038 0.122431
-0.045547 0.459828 0.122431
-0.253290 -0.083973 0.122431
-0.294653 -0.044934 -0.126540
-0.668961 -0.470267 -0.035334
-0.174089 0.038209 0.122431
-0.216822 -0.834038 0.122372
0.642307 0.058641 -0.126625
-0.437617 -0.564386 0.122431
-0.824814 -0.526258 -0.077540
-0.287915 -0.314465 -0.126620
-0.672964 0.517727 0.116519
0.843951 -0.401599 0.122227
0.556013 0.259672 0.122431
-0.472715 0.670438 -0.058286
-0.526483 0.764246 -0.088428
0.689755 0.322574 0.058742
0.153306 0.147697 -0.126549
0.850597 0.002881 -0.118230
-0.281539 -0.549451 -0.126638
0.405239 -0.859396 -0.067716
0.255264 0.778950 -0.126098
0.008344 0.639700 -0.126650
-0.128844 -0.682819 -0.126098
0.679047 0.471744 0.122431
-0.111835 -0.503559 -0.126638
0.850782 0.342019 -0.089860
0.850782 -0.058291 0.079733
0.203275 0.849241 -0.008542
-0.583892 0.068685 0.122431
0.112302 -0.398929 -0.126617
-0.022749 0.743555 0.122431
0.850782 0.189846 0.043913
-0.620813 -0.304273 0.122431
0.080993 -0.859396 -0.050095
-0.664885 -0.376515 0.060299
-0.439372 -0.664536 0.122431
-0.857855 0.425087 0.034071
-0.609785 0.234397 -0.126579
-0.812614 -0.015429 -0.126098
-0.409978 -0.601713 -0.126098
0.485975 -0.274443 -0.126569
-0.566343 -0.442925 -0.126098
0.331959 -0.859097 0.121913
-0.256906 0.199131 -0.126528
-0.526774 -0.673203 -0.095230
-0.741253 0.117272 0.122431
0.320100 -0.516336 -0.126582
0.785897 -0.070602 0.122431
0.361857 -0.547081 0.122431
0.362668 -0.759141 -0.018838
0.105696 0.644439 -0.126504
-0.054154 -0.168330 0.122431
0.352554 0.656555 0.122431
0.356636 0.118053 -0.126556
0.016370 -0.119541 0.122431
-0.526483 -0.760774 -0.018774
-0.077344 -0.859396 0.033640
-0.634239 -0.532958 0.054971
0.391136 -0.274001 0.122431
-0.827205 0.426136 0.122431
-0.625534 0.294350 0.122431
-0.512655 0.372004 0.122431
-0.612281 -0.231989 0.122431
-0.456614 0.810614 -0.126098
-0.499509 -0.467715 0.122431
-0.123089 -0.859396 -0.068805
0.850782 -0.025709 -0.036881
0.021795 0.086859 -0.126565
-0.695129 -0.444380 0.122431
-0.245958 -0.667155 -0.126098
0.126788 -0.129185 -0.126593
-0.125160 0.825406 -0.126096
0.232092 -0.398248 -0.126597
-0.473044 -0.662096 -0.126098
0.220998 0.464940 -0.126609
0.247037 -0.133682 0.122431
-0.803383 0.400575 0.122431
0.572331 -0.167427 -0.126615
-0.254573 0.207863 0.122431
-0.100703 0.782079 -0.126098
-0.465299 0.775816 -0.126098
-0.357911 0.648043 0.122431
-0.521947 -0.400075 0.122431
-0.598412 -0.547722 -0.069151
-0.725380 -0.526796 -0.125851
0.038486 0.032025 0.122431
-0.791568 0.511278 -0.125833
-0.121594 0.694257 0.122431
0.229587 0.394108 -0.126619
-0.538484 -0.149973 -0.126575
0.297173 -0.859088 0.121988
0.179471 -0.833866 -0.126034
0.751828 -0.528024 0.013483
-0.131788 -0.479174 0.122431
-0.245217 -0.376654 -0.126640
0.529024 0.301875 0.122431
-0.857855 -0.207936 -0.048573
-0.222641 -0.859396 0.026665
0.763595 -0.229609 0.122431
-0.668443 0.450919 -0.126098
-0.325256 -0.177030 0.122431
-0.735238 -0.528024 0.022826
-0.526641 0.661424 -0.010936
0.221257 0.500938 -0.126611
-0.493832 0.583509 0.122431
-0.310833 -0.703329 0.122431
0.025030 0.184373 -0.126476
-0.855562 -0.374663 -0.125816
0.287778 -0.301529 -0.126546
0.807985 -0.395333 0.122431
0.437421 0.695065 -0.126098
-0.569465 0.232575 -0.126545
-0.650847 -0.460380 0.029245
-0.003473 0.678340 0.122431
-0.496243 -0.344177 0.122431
0.567569 0.502528 0.122431
-0.649980 0.519481 -0.111369
0.267953 -0.859313 0.099488
0.068823 0.849241 -0.013973
-0.857855 -0.042289 -0.080235
-0.264675 0.056649 -0.126539
0.466041 0.164273 0.122431
0.134330 -0.779022 -0.126098
-0.148508 -0.073437 -0.126566
-0.198968 0.377035 0.122431
0.776892 0.441652 -0.126089
-0.857855 0.250490 -0.064481
0.434819 -0.755778 -0.111320
0.458553 0.418682 0.122431
-0.014186 0.319274 0.122431
-0.526483 -0.718053 0.002093
-0.156223 -0.622821 0.122431
0.211484 0.838383 0.122254
-0.857855 -0.007367 -0.093736
-0.123318 -0.642314 0.122431
0.761271 0.241231 -0.126098
0.373980 -0.859396 0.046200
-0.770040 0.312976 0.122431
0.256878 -0.067987 0.122431
-0.498716 0.192127 0.122431
0.508306 0.458284 -0.126099
-0.656100 -0.369997 0.122431
-0.857689 -0.258303 0.108864
0.327367 0.499158 -0.126644
0.850782 0.265237 -0.080874
0.258653 0.487504 -0.126616
-0.772207 0.371815 0.122431
0.221146 -0.484528 0.122431
-0.756461 0.517671 -0.116667
0.457035 0.021966 -0.126600
-0.276459 -0.357686 -0.126631
-0.085620 -0.749286 -0.126098
-0.056816 -0.214580 0.122431
-0.857855 0.283781 0.068049
0.149200 0.551796 0.122431
0.522242 0.164819 0.122431
-0.526483 0.776600 0.069088
-0.325308 0.063958 0.122431
-0.100741 -0.167066 0.122431
-0.208768 -0.126508 0.122431
-0.578783 0.164057 -0.126518
-0.285661 0.272863 -0.126536
0.314501 0.595341 0.122431
0.354863 -0.494091 -0.126470
0.377618 -0.524870 -0.126337
0.541731 -0.399697 0.122431
0.408319 0.848188 0.122172
-0.109167 -0.558937 0.122431
-0.081614 0.435390 -0.126602
0.459208 0.808779 0.122431
0.408461 -0.123245 0.122431
0.509028 -0.147322 0.122431
-0.095812 0.335452 0.122431
-0.746519 0.197198 -0.126098
-0.526483 -0.740983 -0.069332
0.002677 -0.596122 -0.126661
-0.526483 0.770530 0.033299
-0.079835 0.831733 -0.125986
-0.857855 -0.374328 0.077733
-0.695984 0.517632 -0.122834
-0.185841 -0.532720 -0.126648
0.662264 -0.090725 0.122431
0.597199 -0.544822 -0.054509
-0.526927 0.656414 0.102137
-0.266029 -0.015988 -0.126512
-0.724346 -0.407131 0.122431
0.138937 0.187886 0.122431
-0.328420 0.099218 -0.126548
-0.665037 -0.259738 -0.126098
-0.204207 -0.733958 -0.126098
0.273157 -0.100167 0.122431
0.287998 -0.432189 0.122431
0.048896 -0.316611 -0.126618
-0.115720 -0.128362 -0.126582
0.115318 0.604344 -0.126452
-0.710479 -0.528005 0.090462
0.819595 -0.507253 -0.125968
0.748403 -0.132049 -0.126098
0.210653 -0.618963 -0.126590
0.634307 0.443188 0.001535
-0.811629 0.518032 0.060921
-0.803650 0.188104 -0.126098
0.501289 -0.370524 0.122431
0.597588 -0.365774 0.122431
0.403658 -0.207308 0.122431
-0.377579 -0.573001 0.122431
-0.178161 0.104501 0.122431
-0.553469 0.174858 0.122431
0.489155 -0.856969 0.097325
-0.725608 0.498789 -0.125993
-0.208950 0.034080 -0.126544
-0.526515 -0.815338 -0.043913
0.308827 0.531681 -0.126647
-0.429504 -0.108519 0.122431
-0.428651 0.618577 0.017206
-0.010896 -0.563154 -0.126657
0.639527 -0.336151 -0.126098
-0.495534 0.528860 -0.126098
0.224092 -0.361445 0.122431
0.223141 -0.790311 0.122431
-0.030925 0.477127 -0.126581
0.659360 -0.444517 -0.126098
-0.485855 0.547993 0.122431
-0.464820 -0.551860 -0.126098
-0.141996 -0.352708 0.122431
-0.010485 0.472450 0.122431
0.529127 -0.554305 -0.126098
0.256894 0.260005 0.122431
-0.857855 0.374229 -0.062724
-0.515557 -0.840870 -0.125861
-0.476170 0.579871 -0.126098
0.507374 0.836992 -0.081921
-0.286189 0.090841 0.122431
-0.857855 -0.409431 -0.001425
0.504458 0.547448 0.122431
-0.038232 0.849241 0.016982
-0.397887 -0.711469 -0.126098
0.042490 -0.168328 0.122431
-0.252795 0.653551 0.122431
-0.485936 -0.520485 -0.126098
0.850782 -0.267229 0.087418
0.264524 0.225068 0.122431
0.401352 0.029171 0.122431
0.494280 0.841172 0.122206
-0.725814 0.266533 0.122431
0.245493 -0.333884 0.122431
0.358390 0.287187 0.122431
0.469536 -0.389095 0.122431
-0.636986 -0.447643 -0.125682
-0.152463 0.741361 -0.126098
0.715617 0.264227 -0.126098
-0.556244 -0.196928 0.122431
0.539834 -0.306590 0.122431
0.496752 0.144589 -0.126598
-0.089866 0.740605 -0.126098
-0.536260 0.472246 0.122431
-0.497791 0.796517 -0.126080
-0.064433 0.792474 -0.126098
0.827153 0.268073 0.122374
0.401550 0.240368 -0.126593
-0.029387 -0.520015 -0.126647
0.519618 -0.668033 0.013356
-0.484604 -0.305129 -0.126609
0.545492 -0.399487 -0.126375
0.567120 -0.274621 0.122431
-0.032099 0.730084 -0.126098
-0.167534 0.457539 -0.126592
0.489742 -0.152914 -0.126600
-0.376654 0.480523 -0.126552
-0.472813 0.378507 0.122431
-0.031163 -0.859396 0.016664
0.695338 0.041369 0.122431
-0.802338 0.096093 -0.126098
0.151319 0.849241 -0.006441
-0.857855 0.080616 0.010150
-0.289748 0.849241 0.026699
0.185755 0.273737 -0.126601
0.698458 0.206054 -0.126098
-0.741750 0.517869 0.092692
0.679840 -0.361054 -0.126098
-0.666633 0.199934 -0.126098
-0.144355 0.800735 0.122431
0.381097 -0.859396 0.000853
-0.740381 0.311032 -0.126098
-0.633336 0.523646 -0.077671
0.404605 -0.286775 -0.126533
-0.820865 -0.278365 0.122431
0.444642 0.385021 0.122431
0.048261 0.371406 0.122431
-0.404216 -0.334723 0.122431
