0.031438 0.241236 0.740015
-0.006672 0.375348 0.408094
0.186680 0.189127 -0.083488
-0.174639 0.292134 -0.229202
-0.071384 0.015506 0.358285
-0.229841 0.291245 0.606497
0.065206 0.368536 0.170499
-0.103324 -0.109957 -0.026722
-0.052075 -0.225648 -0.763766
-0.133090 -0.403070 0.062392
-0.046401 0.210346 0.711983
-0.186599 0.158550 0.030581
0.106772 0.107857 0.348620
-0.156344 -0.003434 0.275001
0.021001 0.412095 0.176661
-0.104999 0.377633 -0.381403
-0.104297 0.348259 -0.047579
-0.186792 0.145499 0.051537
-0.160953 0.346145 -0.570470
0.089269 -0.381041 0.116346
0.075821 -0.559955 0.107887
-0.122619 0.384687 -0.521016
0.160847 0.267802 -0.152619
0.002317 0.211893 -0.830319
-0.072373 0.382431 0.216456
0.130118 0.133964 0.316474
0.160845 -0.050517 -0.167278
0.145875 -0.471745 -0.825816
0.092277 0.011082 0.771283
0.163057 0.122586 0.131650
0.111757 -0.030381 0.279018
-0.220901 0.265441 0.597529
-0.070261 0.166421 0.675592
-0.159011 0.049413 0.308069
0.039092 0.410012 0.093237
-0.212586 0.213911 -0.247077
-0.065187 -0.324619 -0.821524
-0.056204 -0.188163 0.131045
0.108516 0.340218 -0.192856
0.030225 -0.144606 0.280865
0.042127 0.073357 0.514341
-0.079503 -0.338989 -0.766223
0.052083 -0.175769 0.186356
-0.153322 0.279855 -0.023744
0.025905 -0.261092 0.120126
0.151894 0.184406 -0.745997
-0.135851 -0.167846 0.174636
-0.039968 0.133751 -0.854339
-0.009207 0.396621 -0.292528
-0.203940 0.235726 -0.228565
0.000578 0.045399 0.543659
0.036096 -0.051111 -0.720715
0.142587 0.211150 0.183940
0.034823 0.353124 0.456754
0.085587 0.227997 0.571908
0.082926 -0.061757 -0.495377
-0.101370 0.362333 -0.269501
0.110823 -0.436841 -0.850459
-0.036961 0.080547 0.471679
0.073519 0.055355 0.361224
0.016121 0.364394 0.599792
-0.156735 0.341493 -0.621642
-0.061915 -0.431279 0.069594
0.138406 0.348168 0.552176
-0.022187 -0.158589 0.277846
0.082806 0.072620 0.606352
0.068958 -0.139246 0.197712
0.045424 0.400012 -0.557914
0.203905 0.369479 0.554198
0.018313 -0.086982 -0.552106
-0.039218 -0.153255 0.262059
-0.078960 0.122086 0.625271
0.135119 0.086641 -0.761001
-0.128041 -0.299408 -0.764849
-0.160888 -0.084632 -0.628089
-0.211965 0.111730 -0.527160
-0.174669 0.174652 0.213199
0.103376 0.085128 0.350429
-0.028226 0.357371 0.612967
0.116276 -0.284015 0.101555
-0.109682 0.344187 -0.103251
-0.084973 0.260005 0.501977
-0.056211 0.237311 0.722461
0.077904 -0.238004 -0.731545
-0.111113 0.268253 0.591365
-0.060641 -0.371747 -0.796227
0.107118 0.316316 0.070681
0.031942 -0.054448 -0.626836
0.097886 0.111941 0.673282
0.055377 -0.077715 -0.503437
-0.052474 -0.144786 -0.383726
0.127436 -0.555188 0.183567
-0.159164 -0.163269 0.154462
0.044075 -0.062130 -0.603232
0.190578 0.051497 -0.607771
-0.059414 0.344545 0.503715
-0.122576 -0.515710 -0.730193
0.057450 -0.133330 -0.344787
0.109344 0.194474 0.317631
0.113825 0.366778 -0.579476
-0.124885 0.368977 -0.395436
-0.088713 0.331570 0.308451
0.172544 0.187473 -0.014851
-0.022272 0.078675 -0.809058
-0.105092 0.033928 -0.812914
0.137078 0.317021 -0.399298
-0.141792 -0.069153 -0.071447
0.065677 -0.133085 -0.090141
-0.036403 0.077120 0.444343
0.083662 -0.095361 0.022449
0.072949 0.146219 0.491970
0.132101 -0.197077 0.130280
0.090403 -0.002941 0.316462
-0.140397 0.346856 -0.361980
-0.052464 -0.154625 0.218044
0.182472 -0.000114 -0.231790
-0.087730 0.390779 -0.626272
0.061968 0.333727 0.340941
0.087772 0.122587 -0.803978
-0.210086 0.312400 0.597419
0.101385 -0.158690 0.201731
-0.052729 -0.344481 0.072587
-0.214419 0.077601 -0.086166
0.096200 0.336106 0.539656
0.142530 -0.285361 -0.810243
-0.137748 -0.453403 0.090896
-0.163716 -0.032053 0.223938
-0.074293 0.399128 0.099618
0.085534 0.351546 0.092125
-0.159184 -0.017103 -0.469515
-0.205459 0.144257 -0.407010
0.114834 0.372683 -0.441357
0.194788 0.165975 -0.540497
-0.001817 -0.022360 -0.693577
0.036518 -0.160789 0.092669
0.139537 0.149260 -0.766475
-0.100124 0.307681 0.309075
0.085090 -0.531045 0.051092
0.063510 -0.538224 0.061454
0.083591 0.089879 0.536182
0.044041 0.042225 -0.820921
0.067780 -0.077482 -0.479752
-0.186526 0.107141 0.090381
-0.046192 -0.316220 0.062359
0.107523 0.340475 -0.166755
0.164236 0.266143 -0.224692
-0.054994 0.318114 -0.820515
0.015018 -0.159633 -0.069503
0.081492 -0.556986 -0.752452
0.067907 -0.506062 -0.781509
0.068739 -0.528540 -0.788934
0.190881 0.030003 -0.113505
-0.189969 0.091537 -0.708018
0.107168 -0.240637 0.065957
-0.021067 0.069195 -0.830839
-0.193439 0.021481 -0.658564
-0.111946 -0.136232 -0.195772
0.178629 0.100892 -0.678773
-0.042614 0.359530 0.516185
-0.045718 0.064179 0.573388
0.058454 0.299411 -0.814518
-0.138711 0.155924 -0.794808
0.184930 0.090672 -0.654915
0.096163 -0.345258 -0.751286
0.023317 0.358268 0.514618
-0.079216 -0.125770 -0.355949
-0.112636 -0.399247 0.032288
0.161285 0.231004 -0.043850
-0.210506 0.156098 -0.527778
-0.132000 0.193415 0.304096
0.160384 0.369850 0.550997
0.195556 0.075293 -0.081106
0.191669 0.163942 -0.074952
-0.109586 -0.492625 -0.847665
-0.160491 0.313724 0.599648
0.166268 -0.532139 -0.791557
0.083792 0.278402 0.376308
0.065877 0.097869 -0.817185
0.017973 0.130250 0.794243
0.091088 -0.524969 -0.691646
0.182883 0.215216 -0.543012
-0.098069 -0.486619 0.127821
-0.185415 0.031221 -0.026366
0.128970 0.263398 0.127797
0.033457 0.019278 0.680079
0.092849 0.351358 -0.269201
-0.050712 0.404462 -0.023710
0.143630 -0.385147 -0.775106
-0.088458 0.055327 -0.821241
-0.159744 0.161532 0.278223
-0.133219 -0.559155 0.117825
-0.118069 0.333743 -0.034675
-0.212245 0.210013 -0.191591
-0.079771 -0.531036 0.039536
0.111136 -0.527964 -0.677560
-0.208988 -0.003497 -0.286126
0.001036 0.398048 -0.131163
-0.045620 0.075049 0.662999
-0.054756 -0.206875 0.115258
-0.072129 0.392681 -0.014222
-0.023727 0.396453 -0.808693
-0.068015 -0.511601 0.034140
0.037080 -0.332267 0.131630
0.129252 -0.042860 -0.815161
0.171666 0.046655 0.120809
-0.127604 0.313029 0.146536
0.105709 0.176539 0.336802
-0.101120 -0.063273 -0.625516
0.009828 -0.156892 -0.404290
-0.219025 0.027329 -0.235725
0.029522 -0.159054 -0.125491
-0.073620 0.396832 -0.444346
-0.023370 -0.191648 0.132242
0.010302 -0.097560 -0.527718
-0.169126 -0.030246 0.038291
-0.216651 0.122881 -0.361041
-0.119008 -0.439038 0.101439
-0.014680 0.188540 0.742337
0.112535 -0.297084 0.081442
-0.193910 0.260122 -0.570961
0.159052 0.270749 -0.306351
-0.047560 -0.318653 0.095395
0.034252 -0.157632 0.007330
0.137366 -0.059011 0.034204
0.135028 -0.322872 -0.815999
0.133521 0.050287 -0.759421
-0.069212 -0.216349 0.145128
0.116423 -0.453056 0.099059
-0.154276 -0.146886 0.037878
0.024418 0.395594 -0.704014
-0.078404 0.235977 0.705626
0.084077 -0.480477 -0.737433
0.117551 0.336277 0.548774
0.155288 0.004000 -0.004457
-0.078960 -0.056180 0.285851
0.013417 0.372790 0.419631
-0.053451 -0.168535 -0.741638
0.081212 -0.099778 0.248213
0.109945 0.338737 -0.278524
0.161553 0.289357 -0.559718
-0.191068 0.100939 -0.452264
-0.042620 0.413107 -0.001703
-0.175859 0.051600 0.282067
-0.076707 -0.104370 -0.817671
-0.109219 0.122763 -0.816992
-0.131665 0.315406 0.012434
-0.128846 0.221268 0.303217
0.029119 -0.040686 -0.646510
0.081678 0.354202 -0.105777
-0.178317 0.271018 -0.120019
0.206049 0.081613 -0.541932
-0.139946 -0.046122 -0.023168
-0.094141 0.237629 0.454361
0.029112 -0.108808 -0.454653
-0.027867 -0.163908 -0.406668
-0.097726 0.157340 0.409939
-0.043164 0.406962 -0.653730
0.111056 0.344550 -0.388745
-0.053707 0.398219 -0.412971
-0.226774 0.057029 -0.219098
0.057327 0.026567 -0.836788
0.109153 0.058707 0.754264
0.081033 -0.484427 -0.817344
0.188335 0.067197 -0.499786
-0.055726 -0.417289 -0.803460
-0.173357 -0.047255 -0.708200
-0.030443 0.006134 -0.754435
0.160333 -0.502575 -0.783829
0.055430 0.367656 0.222928
-0.154739 -0.054726 -0.404123
0.164382 0.129278 0.103386
0.074495 -0.314348 0.042206
-0.214495 0.048929 -0.338864
0.063401 -0.020696 -0.822837
0.175988 0.258185 -0.506640
0.086025 -0.094666 -0.003507
-0.099525 -0.098072 -0.822166
-0.142642 -0.032666 -0.570263
-0.025487 -0.082541 -0.600601
0.084311 0.187162 0.415561
0.076998 -0.208021 -0.836074
-0.049657 0.402075 -0.435500
-0.104461 0.077963 -0.816134
-0.031475 0.169393 0.730647
-0.100976 0.057668 0.342062
-0.103786 -0.237465 -0.714859
-0.011670 0.034480 0.683359
0.103618 0.056015 0.790025
-0.184412 -0.050593 -0.233756
0.118370 0.042259 0.332402
-0.031901 0.077190 0.503783
-0.056582 -0.301891 0.047904
-0.038446 0.190384 0.721234
-0.022498 0.420995 0.107145
-0.099418 -0.128422 -0.099519
0.101970 -0.374402 -0.752642
0.083400 0.076203 0.361229
0.192702 0.130300 -0.309931
-0.102411 -0.558144 0.133491
-0.126641 0.361310 -0.373677
0.138933 -0.241608 -0.738819
-0.193249 0.035018 0.143136
0.067406 -0.141760 -0.829142
-0.068630 -0.189523 -0.833679
0.090977 0.176523 0.676848
0.131871 0.313556 -0.288704
0.084065 -0.078839 -0.446714
-0.114401 -0.440546 -0.759868
0.020228 0.366794 -0.785203
-0.111392 0.381106 -0.410237
-0.086539 -0.062323 -0.520761
-0.029285 0.232072 -0.869498
0.070670 -0.495130 -0.748808
0.164058 0.318820 0.507476
-0.053105 -0.159847 -0.765045
-0.052539 -0.439388 -0.810379
-0.174520 -0.063480 -0.159863
-0.208633 0.120322 -0.392213
-0.163392 -0.011291 0.251369
-0.119703 -0.558501 -0.735264
-0.142314 0.372979 -0.522690
-0.145873 -0.090285 -0.782613
0.170276 0.079369 0.179717
-0.122979 0.164881 -0.810887
-0.081551 -0.107889 0.243333
0.036876 0.397266 -0.408965
-0.150890 -0.084193 -0.138538
-0.001982 -0.132205 -0.458934
-0.049287 0.396342 0.256388
-0.059287 -0.265034 0.054592
-0.123902 0.328627 -0.008626
0.087821 -0.021279 -0.847100
-0.160259 0.240995 0.116748
0.095805 0.280407 0.625595
0.081773 -0.039012 -0.821304
0.137807 -0.173039 -0.777021
-0.178933 0.049333 -0.467299
0.184317 0.187883 -0.638255
0.162227 -0.007042 0.142957
-0.103568 0.363383 -0.293431
0.167725 0.290428 -0.492541
-0.183064 0.133983 0.094112
0.083252 0.293169 0.330540
0.083558 -0.501340 -0.726239
-0.050465 -0.108422 -0.459427
-0.178119 0.187125 0.028385
0.034590 0.406874 0.154724
0.060357 0.344909 0.320494
-0.131587 0.130324 -0.798947
0.055901 -0.118643 -0.776611
0.164149 -0.017875 -0.297667
0.038850 0.157809 0.785059
0.029219 -0.136426 -0.390018
0.137024 -0.220398 -0.808266
-0.225906 0.062132 -0.280305
-0.186762 0.272646 -0.313025
0.170376 0.256380 -0.177602
-0.025363 0.082851 0.771363
0.167187 -0.557457 -0.732291
-0.161993 0.303797 -0.763123
0.176767 -0.021232 -0.216557
0.172023 -0.024191 -0.239991
-0.081995 -0.114796 0.040810
0.173637 0.013193 -0.050893
-0.058575 -0.055231 -0.754332
0.148956 0.010185 0.285973
0.059061 -0.522902 -0.760470
0.053849 0.394877 -0.012503
0.190428 0.027956 -0.236921
-0.184631 0.300255 -0.547322
0.153088 0.207584 0.033373
-0.000847 -0.197886 -0.264973
0.151145 -0.119301 0.094854
-0.138895 0.231420 -0.797898
0.124038 0.297228 -0.033846
0.142915 -0.028591 -0.760401
0.027889 0.064164 -0.824490
0.099195 0.200893 0.359219
0.067613 -0.521380 0.038161
-0.205415 0.192816 -0.637810
0.037159 -0.085329 0.307636
0.059639 0.372735 -0.223482
-0.125581 0.269610 0.552115
-0.107061 0.371209 -0.359452
0.122219 -0.465320 0.075125
0.079394 -0.128963 -0.150113
-0.115699 0.291552 0.247753
0.055034 -0.137260 -0.709573
-0.191296 0.148135 -0.707240
-0.027766 0.320901 0.678097
-0.068661 -0.527605 0.060352
0.155598 -0.032433 -0.736383
-0.110336 0.385575 -0.448382
0.145932 0.239404 0.003890
-0.144534 -0.101219 -0.219773
-0.184760 0.031509 -0.708832
0.143410 -0.140374 0.175890
0.175680 0.100713 -0.405634
-0.106635 -0.042923 0.262980
0.149758 -0.001265 -0.499051
-0.017095 0.050246 0.790713
0.055175 -0.190761 -0.791134
-0.197540 0.049909 -0.040121
-0.138623 -0.090296 -0.336884
0.162669 0.024756 0.010423
0.079345 -0.109338 -0.374821
0.072242 -0.095414 -0.422501
-0.078361 -0.095678 -0.444051
0.042807 0.390937 -0.076357
0.043942 -0.424718 0.048336
-0.131233 -0.087482 -0.625289
-0.070920 -0.238059 0.047636
0.057842 0.380083 -0.701333
0.052932 -0.551370 0.081188
0.083358 -0.435585 0.035060
0.037896 0.355312 0.603777
-0.082489 -0.511298 -0.725646
-0.040177 0.291428 0.704666
-0.120227 0.019212 -0.801702
-0.063109 0.404360 -0.521987
0.066710 -0.554508 0.173436
-0.024017 0.230573 0.721812
0.138776 0.267650 -0.026833
-0.048518 0.256050 -0.835675
-0.196028 0.131933 -0.001022
0.111436 0.254217 0.255212
0.075815 0.262461 -0.816834
0.077319 0.127088 0.783682
-0.054384 -0.250765 -0.795475
-0.177093 0.138132 0.245707
0.096386 -0.104592 0.215440
-0.125065 0.342459 -0.203224
0.162664 -0.060243 -0.622622
0.001205 -0.079152 -0.614650
-0.254181 0.321844 0.612783
0.103032 -0.119396 -0.280936
-0.099260 -0.505977 -0.830435
0.053889 -0.501740 0.036729
-0.198446 0.330723 0.580722
-0.063234 -0.094157 -0.476842
0.102412 0.211264 0.635410
0.155690 0.208333 -0.727699
-0.033635 -0.164704 -0.018574
-0.183678 0.214449 -0.711404
-0.066738 -0.169113 -0.207140
-0.056038 0.394729 -0.389729
-0.171630 0.007447 -0.523298
0.045910 -0.060375 -0.647767
-0.079118 -0.379359 -0.769692
0.002019 0.382131 -0.790340
0.138303 0.021456 0.305602
-0.147718 -0.241045 -0.785524
-0.080722 0.037326 0.357847
0.180609 0.130109 -0.370416
-0.211510 0.006593 -0.192992
0.134958 -0.112070 0.042986
-0.194431 0.029310 0.171627
-0.176890 0.141448 0.120436
0.004976 0.360087 0.626757
0.087786 0.199775 0.543658
-0.061463 0.139995 0.688722
0.013228 0.021914 -0.784368
-0.087142 0.392489 -0.597405
0.065132 0.369558 -0.727579
0.136417 -0.040432 0.240349
-0.089650 -0.527577 -0.829219
0.027978 -0.017412 0.353377
0.080568 -0.130078 -0.290804
-0.070125 0.325069 0.513765
-0.050148 -0.460205 -0.789002
-0.077765 0.286509 0.545422
0.016846 0.036836 0.573556
-0.093659 -0.047185 -0.556794
-0.193933 0.288638 -0.509544
-0.117243 -0.355561 0.040844
0.029947 -0.179107 0.121476
0.055560 0.024845 0.683362
-0.130968 0.377638 -0.544593
-0.186756 0.063508 -0.443309
-0.138459 -0.499050 -0.764610
-0.015499 0.364546 0.565880
-0.102753 -0.463764 -0.748107
0.145548 0.291863 -0.142456
0.130811 0.293192 0.532393
-0.117712 0.199989 -0.816503
-0.196473 0.203605 -0.457678
-0.185385 0.057327 0.052431
0.189060 0.102915 -0.327508
-0.087680 0.360898 -0.102292
0.029486 0.004938 -0.786972
-0.013711 0.412194 -0.520834
-0.192988 0.095987 0.013913
-0.174139 0.178385 0.190076
0.077052 -0.453142 -0.757042
0.169765 0.223747 -0.449911
-0.114185 0.233540 0.364929
0.150309 0.257114 -0.050862
-0.087400 0.127601 0.537785
0.084662 -0.378413 0.046732
-0.185375 0.097884 0.068415
0.135223 0.270023 0.530418
-0.043429 0.337777 -0.829664
0.051424 0.340943 0.629772
0.168608 0.026434 -0.680608
0.048910 -0.104043 -0.756329
-0.136781 0.378090 -0.495381
-0.149490 0.228775 0.238355
-0.190806 0.025236 -0.685211
-0.133049 0.333372 -0.162650
-0.060989 -0.141120 -0.361696
0.033952 0.184141 0.772757
-0.029483 0.371821 0.421957
0.179087 0.236325 -0.491821
-0.210984 0.046795 -0.090939
-0.043758 0.399559 0.233234
-0.095068 -0.118208 0.189662
-0.181339 -0.055311 0.116990
0.053550 0.363429 0.251741
0.168485 0.291591 -0.520947
0.169626 0.343444 0.516514
-0.122663 0.205004 0.330766
0.163458 -0.006503 -0.318697
0.142542 0.233699 0.096191
0.116617 0.303651 0.012191
-0.122898 0.230439 0.323507
-0.063626 -0.454590 -0.762113
-0.209501 0.026985 -0.125011
-0.019937 -0.197876 0.155455
-0.033375 0.363666 -0.830322
0.041727 0.336305 0.518739
0.055992 -0.097101 0.277385
0.070915 -0.327091 -0.793697
-0.128556 -0.421952 0.089160
-0.106737 -0.339681 -0.760550
-0.069959 0.333907 0.443609
0.138451 -0.449342 -0.745543
0.046653 -0.112790 -0.719982
-0.077172 -0.557691 -0.801441
-0.133116 -0.301729 -0.820160
-0.051823 -0.085143 -0.751426
-0.181075 0.094641 -0.729539
-0.210629 0.100343 -0.380811
0.076169 -0.126732 -0.319710
-0.061968 0.345464 0.464670
0.112770 -0.136240 0.207085
-0.208879 0.195555 -0.609836
0.069678 0.158835 0.755542
-0.123892 0.270356 0.253023
-0.135262 -0.040994 -0.591923
-0.147307 0.365036 -0.563301
0.070188 -0.144570 -0.200414
-0.076501 -0.023617 -0.804214
0.126594 -0.113918 0.205430
-0.075530 0.325974 0.422571
0.050414 0.393532 -0.036171
0.068206 -0.218445 0.172582
0.160435 0.176328 -0.724788
0.028741 0.336947 -0.806091
0.164119 0.251175 -0.095316
0.103081 0.335164 -0.094167
-0.067941 0.327644 0.545062
0.063153 0.082512 0.526310
-0.080478 -0.096249 -0.658369
0.106825 0.283838 0.213457
0.023495 -0.184000 -0.284022
0.135723 0.313105 0.505645
-0.135104 -0.085153 -0.366648
-0.089293 -0.509464 0.143637
-0.173774 0.282217 -0.712350
-0.050854 0.407980 0.196810
0.181333 0.068501 -0.665622
0.136191 0.205832 0.248843
0.101852 -0.324368 -0.844909
0.189539 0.208721 -0.224512
0.025806 -0.162944 -0.155262
-0.158395 0.280778 -0.048267
-0.166780 0.193237 0.225487
0.014952 -0.179927 -0.336017
-0.112285 0.323559 0.198562
-0.112249 -0.113001 -0.082308
-0.051229 0.287434 -0.828426
0.111918 0.344544 -0.686360
-0.042877 -0.513527 -0.759136
-0.047200 -0.514142 -0.809265
0.059254 0.356892 -0.770484
-0.083464 -0.083203 -0.471847
-0.060930 0.404503 -0.496323
0.036544 0.403753 -0.535642
-0.177700 0.196334 -0.742015
0.054263 -0.141568 -0.323292
-0.117065 0.329885 0.161150
-0.108549 0.263545 0.362459
-0.185607 0.044074 -0.005641
-0.025669 0.059641 0.769212
0.145110 -0.063673 -0.139959
-0.132481 0.315665 0.589334
-0.207264 0.196827 -0.548512
0.166397 0.012115 -0.027499
0.160960 0.051746 -0.708072
-0.012228 -0.058350 -0.656955
0.024018 -0.186827 0.143768
0.110341 -0.028341 -0.835177
0.117085 0.356930 -0.408139
0.197550 0.314719 0.518918
0.144404 0.229420 0.043165
0.166206 0.254427 -0.342641
-0.012982 0.195674 -0.837581
-0.125098 -0.006795 -0.798566
0.021412 -0.282730 0.113609
0.131383 -0.105760 -0.787895
-0.171686 -0.067431 -0.719685
-0.110898 -0.537500 -0.825846
0.166477 0.046731 -0.457815
-0.128637 -0.382847 -0.793484
-0.140027 0.315922 0.566988
0.099054 -0.280572 -0.843729
-0.171758 0.296791 -0.329329
0.013051 0.260191 0.728966
0.098306 -0.256548 -0.844466
0.128841 -0.136505 0.049795
0.035613 0.408539 0.000969
-0.007589 -0.167243 -0.024387
-0.054742 -0.284109 -0.789121
0.004775 -0.166304 -0.045659
0.084945 0.001289 -0.839721
-0.126053 -0.419027 0.042066
-0.226317 0.125865 -0.299790
-0.001733 0.051241 0.809166
-0.006212 -0.203477 0.114902
0.054367 -0.158227 -0.250482
0.057387 -0.048792 -0.788866
0.136598 0.219144 0.229022
0.215660 0.355498 0.537264
-0.186272 0.067100 0.239732
-0.017690 0.411586 -0.031775
0.148690 0.119180 0.295765
0.137050 -0.290635 -0.756555
0.182997 0.016637 -0.095306
-0.038478 0.332682 0.661067
-0.050347 0.405293 -0.464226
-0.047148 0.232377 -0.841885
-0.108285 -0.138577 -0.222024
0.055233 -0.141008 -0.770922
-0.189982 0.308871 0.586563
0.130751 -0.536105 0.166530
-0.121032 -0.489189 0.124126
0.140648 0.207470 0.209102
0.178086 0.194354 -0.048791
0.082156 -0.348178 -0.821482
0.121351 0.303644 0.552240
0.052103 -0.150680 0.187083
-0.124009 -0.558403 0.141292
0.029569 -0.342951 0.063984
0.128280 0.256521 0.152578
-0.156857 -0.055000 -0.081609
-0.185990 0.022133 -0.419436
-0.050869 0.404468 -0.595960
-0.174809 -0.023277 0.068912
0.093431 0.147847 0.550979
0.056854 0.329997 0.404214
-0.048945 0.383111 -0.164894
-0.104819 -0.373935 0.105214
0.085162 0.363478 -0.706219
-0.025361 -0.164410 -0.107065
0.030739 0.051136 0.835341
-0.058755 0.031583 0.376131
0.027960 -0.319217 0.063486
0.163080 -0.027419 -0.100018
0.057066 0.068874 -0.816121
-0.152757 0.327974 -0.355255
0.188818 0.205239 -0.583939
-0.104024 0.171134 -0.823840
-0.077843 -0.325178 0.117160
-0.024799 0.032678 0.771871
0.083388 -0.102691 -0.659606
-0.191211 0.214203 -0.682810
0.194850 0.102827 -0.296795
-0.038901 -0.517263 -0.786477
0.022009 0.405673 -0.469107
0.063037 0.015395 0.702817
0.120554 -0.233950 -0.834281
0.055427 -0.094861 -0.450575
0.049066 0.396330 -0.437293
0.097215 0.342775 -0.118065
0.116442 -0.558554 0.088305
-0.119418 -0.037845 -0.540851
0.110361 -0.122672 -0.653556
0.008950 0.402765 0.246706
-0.206361 0.059682 -0.526416
0.088754 0.347615 -0.050266
-0.186116 0.083761 0.200094
-0.148473 -0.483099 0.078138
-0.117913 0.354645 -0.313887
0.004625 0.396329 -0.314995
-0.050238 0.394340 -0.756595
-0.188511 0.295074 -0.440130
-0.159025 0.292262 -0.078780
-0.202983 0.160856 -0.044132
0.086597 -0.336519 0.050546
-0.054098 -0.134672 -0.724542
0.136250 -0.030609 -0.532517
0.132057 -0.026254 0.262246
0.135974 0.282167 -0.047125
-0.181910 -0.095141 0.114525
-0.013913 -0.183105 -0.203699
-0.089507 0.092756 -0.825575
0.133788 0.359199 -0.543773
0.105740 -0.503911 0.047550
-0.202857 -0.014521 -0.185624
-0.069882 -0.184868 0.158320
0.074244 0.267625 0.501895
0.192818 0.093569 -0.492373
0.171868 0.083066 0.057277
-0.003131 0.027701 -0.762829
0.128261 0.355606 -0.430406
-0.035608 -0.068966 -0.621997
0.044964 0.389455 -0.684807
-0.109088 -0.423711 0.026079
0.132797 -0.155237 0.068339
0.031284 0.294637 -0.824394
-0.174238 -0.003280 -0.042086
-0.158431 0.236423 0.170298
0.033500 0.386465 -0.132645
0.126498 -0.041822 -0.462468
-0.108809 -0.108841 -0.347403
0.102310 0.373185 -0.416422
-0.143444 -0.098616 -0.167179
-0.175499 -0.035608 -0.096871
-0.159935 -0.192058 0.116647
-0.158624 -0.050485 0.205981
0.116804 -0.218852 0.144951
0.131759 -0.001479 0.296126
-0.164786 -0.155047 0.064183
0.037646 -0.161942 0.201227
-0.136269 -0.555764 0.060299
-0.029437 0.075762 0.746012
0.115233 -0.254402 -0.725408
0.091298 0.154242 0.383920
0.117230 -0.287893 -0.738404
0.163887 0.016018 -0.512867
-0.159368 -0.009089 -0.015939
-0.171301 -0.071442 0.172309
0.097229 0.109897 0.698439
0.051450 0.375502 -0.199304
-0.076615 0.306260 0.498913
-0.009456 0.399449 -0.338298
0.111347 -0.513390 -0.818080
0.149930 0.238585 -0.734308
0.176950 0.143941 -0.471013
0.185380 -0.026640 -0.632991
-0.071544 -0.314281 0.035856
0.173401 0.247817 -0.470738
-0.073180 -0.142303 -0.829386
0.151942 0.337503 -0.532258
-0.156263 0.314349 -0.233982
0.048961 0.291128 0.699840
0.100770 -0.245014 0.149905
0.190789 0.019564 -0.210557
0.164860 -0.052754 0.143089
-0.014272 0.247091 -0.858307
-0.188699 0.274392 -0.388854
-0.219575 0.128142 -0.113269
-0.116169 -0.533338 -0.709305
0.011900 0.187870 0.766359
-0.212583 0.106889 -0.069191
0.091853 0.347931 0.063150
-0.049470 -0.086684 0.304746
0.197964 0.103961 -0.076114
-0.177237 -0.003204 -0.418946
0.092685 -0.046760 -0.528247
-0.193825 0.258923 -0.340380
-0.055244 0.063642 -0.816326
-0.036285 -0.048978 -0.653223
0.091106 -0.105921 -0.355082
-0.218266 0.195653 -0.208639
0.083751 0.350395 0.119390
0.083687 -0.404454 -0.832406
-0.108455 -0.060286 -0.493635
0.166417 0.021198 0.142407
-0.140349 -0.558567 0.083092
0.084194 0.145347 -0.811110
-0.067570 0.396361 -0.681024
0.059915 -0.233235 -0.761334
0.109468 0.052874 0.730967
-0.095457 0.322566 0.272614
0.078813 -0.219675 0.050081
-0.119065 -0.318947 0.116000
-0.040891 -0.538822 -0.797702
-0.146972 -0.037116 -0.477073
0.110152 -0.096989 -0.636706
0.092955 0.115818 0.536358
-0.018252 -0.142155 -0.444808
-0.021259 0.412701 0.200925
0.072898 -0.112681 0.003139
-0.086407 -0.554132 0.170493
0.097344 -0.272281 0.145123
0.021152 0.418543 0.077408
-0.121850 -0.046895 -0.804358
0.164885 0.210138 -0.692975
-0.087782 -0.339337 -0.857820
-0.084753 0.336239 0.331138
-0.145328 -0.070259 -0.390133
0.101577 -0.446310 0.048027
0.054772 0.399835 0.075203
0.123606 -0.518754 0.153246
-0.178233 0.312770 -0.566368
0.076469 0.169588 0.499310
-0.056601 0.092355 0.467839
0.118560 0.285997 0.120206
-0.163351 -0.192255 0.090042
-0.045653 0.381369 0.345500
-0.154610 0.262726 0.107434
0.185955 0.028561 -0.575758
-0.133194 -0.057642 -0.454733
-0.126693 -0.117758 -0.634236
0.165105 0.106217 0.148263
-0.083635 0.398860 -0.510503
0.075962 -0.122228 -0.069114
0.155409 0.107914 0.275267
-0.171367 0.078820 0.290937
0.160158 0.203409 0.006211
0.150784 -0.007157 -0.524668
-0.085491 0.151414 0.445383
0.018866 -0.324069 0.114216
0.182295 0.031598 -0.526996
0.040808 0.401980 -0.484598
0.162897 -0.074301 0.132229
-0.176634 0.290777 -0.679307
-0.122160 0.110797 0.352419
0.142125 0.301451 -0.690941
-0.089946 0.215379 0.637861
0.159477 0.159975 0.072243
0.066802 0.005946 0.726314
-0.154341 -0.059164 0.024087
-0.067645 -0.133167 0.053973
0.167307 0.124910 0.077762
0.191106 0.122198 -0.042542
0.113274 -0.476062 0.054262
0.106738 -0.211393 0.168763
0.196402 0.269742 0.525172
-0.090861 0.382819 -0.696650
0.139538 -0.043874 -0.053205
-0.077463 -0.274570 0.135354
-0.189879 0.269312 -0.593826
0.005365 0.024588 0.810185
0.035979 0.370127 -0.768318
0.111919 -0.058855 -0.819853
0.092407 -0.103067 -0.843601
-0.190835 0.264276 -0.233566
-0.023462 -0.184677 0.073156
-0.063674 -0.156170 -0.709409
0.089550 -0.135230 -0.665268
-0.124511 -0.490060 0.028523
-0.150660 -0.130989 -0.661067
-0.105577 0.290486 0.324451
0.129838 -0.022886 -0.782910
0.056349 -0.158899 -0.787155
0.156292 0.035780 0.284954
-0.108534 -0.071469 0.018966
-0.166482 0.209049 0.124627
-0.185234 -0.000890 -0.395334
-0.062802 0.072769 0.588430
0.096962 -0.415801 0.051761
0.023554 0.357820 0.538638
0.091946 0.090029 0.661826
-0.081393 0.290844 0.482119
-0.133692 0.371210 -0.580874
-0.143224 -0.033206 -0.542518
-0.056265 0.087714 0.439964
0.098447 0.334407 0.038846
-0.045998 0.407240 -0.569101
-0.117953 -0.128417 0.196261
0.200513 0.085454 -0.248675
-0.033700 0.392343 -0.298852
0.018652 0.415623 0.139068
0.080998 0.355303 -0.133983
-0.149532 -0.508748 0.114273
-0.013724 0.292422 -0.854633
-0.168053 0.189629 0.078700
0.083619 -0.323410 0.138964
-0.070137 -0.287418 0.034544
-0.048803 -0.089854 -0.709520
-0.183440 0.119226 0.122567
-0.122193 -0.052820 0.007197
0.196056 0.056959 -0.583711
-0.173648 0.009000 -0.020773
0.026010 0.012850 0.709552
-0.151896 -0.186135 0.145236
-0.064043 0.401626 0.177818
-0.161424 -0.079414 0.033727
0.194774 0.143863 -0.289226
0.070311 0.244823 0.704460
0.163207 -0.039520 -0.122197
-0.157056 0.027154 0.299138
0.169288 0.249286 -0.650049
-0.185248 0.101041 0.140688
-0.044069 -0.189696 -0.319029
-0.183548 -0.002968 -0.065209
0.010204 -0.084718 -0.578006
0.055963 0.319188 0.444073
-0.081023 0.269654 0.529203
-0.174078 -0.053185 -0.332468
0.150241 0.292696 -0.653139
0.144228 -0.101474 0.073548
-0.057122 -0.191506 -0.729819
-0.043444 -0.172168 0.116691
0.060246 0.310465 0.465008
0.111457 0.318687 -0.039036
0.065299 0.301495 0.683219
-0.069556 0.039471 -0.818424
-0.020032 0.056083 0.645581
-0.157191 -0.070735 0.193857
-0.076883 -0.244073 0.142494
0.139138 0.242730 0.075154
-0.209930 0.055699 -0.566238
0.168370 -0.064547 -0.714985
0.093879 -0.277426 -0.738057
0.011759 0.321871 -0.818188
0.106250 -0.401339 -0.750413
0.131572 0.286539 -0.766041
-0.133309 -0.367163 0.065757
-0.035336 0.395894 -0.345538
0.128685 -0.094547 -0.224863
0.170471 0.083044 0.094161
0.081271 -0.054931 -0.558035
-0.180298 -0.075740 0.132339
-0.158200 0.258417 0.003530
-0.186535 -0.013215 -0.092052
-0.124168 0.050747 0.329317
0.198336 0.185355 -0.173073
0.159727 0.135976 0.195590
-0.223644 0.150223 -0.306184
-0.055090 -0.215589 -0.743362
0.173945 0.005303 -0.294555
-0.053114 -0.159773 0.134334
-0.144962 0.348827 -0.385982
0.171829 -0.018519 -0.262184
-0.133909 -0.298220 0.056979
0.176035 0.225443 -0.650887
-0.119475 -0.124662 -0.270464
-0.176723 0.154701 0.195985
0.166423 0.022346 0.228337
0.146070 -0.039060 -0.407735
-0.148059 0.298968 -0.782176
0.070886 -0.060444 0.281714
0.079989 -0.320322 -0.757895
-0.031822 -0.137812 0.283840
-0.093990 0.128429 0.402819
0.114990 -0.454278 -0.734731
0.056619 0.396678 0.010686
-0.136970 0.170145 0.307576
-0.116128 0.368561 -0.702874
-0.147699 -0.057732 -0.603418
-0.087697 0.241054 0.618572
0.127277 -0.062745 0.233387
-0.104365 0.144506 0.390054
0.133797 0.196865 -0.775337
0.001185 -0.177978 -0.382110
0.118505 -0.164283 0.051329
-0.212095 0.072020 -0.583977
0.051494 -0.173682 0.063403
0.159529 -0.032650 0.165413
0.179887 0.052019 -0.019251
0.106605 0.342101 -0.358237
0.073757 0.368885 0.101889
0.128562 0.110871 -0.772489
-0.164188 0.328364 -0.640274
0.081625 0.065328 0.659045
-0.113546 -0.253319 -0.844615
-0.091142 -0.036056 0.280288
-0.022092 0.395681 0.292343
0.109450 -0.323635 0.085683
-0.076141 0.365837 0.236445
-0.226210 0.058163 -0.191168
-0.024221 0.318970 -0.854976
-0.222980 0.133142 -0.135819
0.064867 0.048030 0.661299
-0.024768 -0.191886 0.197809
0.140576 0.270532 -0.751386
0.023167 -0.037298 -0.706133
0.129926 -0.132225 -0.663238
0.203606 0.125771 -0.579083
-0.094090 -0.127365 -0.077096
-0.181966 0.008462 -0.703194
-0.093528 -0.239263 0.032605
0.043120 0.092693 -0.821887
-0.212557 0.302894 0.567136
0.080089 -0.324191 -0.817139
0.165608 0.019314 0.171343
0.053941 -0.542761 0.156734
-0.147484 0.264162 0.174822
-0.005245 0.053436 0.574021
-0.228298 0.079914 -0.209679
-0.096480 -0.233765 -0.853101
0.097377 -0.113702 -0.311602
0.124046 -0.075494 -0.805481
-0.036984 -0.538127 -0.760617
-0.161410 -0.140670 0.170583
0.071345 0.024852 0.347524
0.109157 0.221432 0.300116
-0.037967 0.393211 -0.322460
0.031108 0.397843 0.230535
0.035211 0.381857 -0.215586
0.068215 0.383882 0.059053
0.154511 -0.102605 -0.722376
-0.064599 0.386266 0.241311
-0.188633 -0.036224 -0.316383
-0.232291 0.329460 0.611390
0.065622 -0.478790 -0.764187
-0.204211 0.210113 -0.116668
-0.196109 0.238825 -0.452260
0.129386 0.016367 -0.765159
0.077112 0.266919 0.568554
-0.208448 0.161196 -0.070324
0.176417 0.060447 0.007245
-0.124543 0.245100 0.304833
0.192318 0.045735 -0.562069
-0.182472 0.279406 -0.280043
-0.096855 0.368243 0.113526
-0.215307 0.153496 -0.551662
-0.024350 -0.020713 0.356702
0.148771 0.246904 -0.022524
0.045848 -0.053601 -0.760547
0.110605 0.262518 0.521867
0.095966 0.256603 0.616782
-0.047811 -0.158832 -0.092047
0.206391 0.107563 -0.540314
-0.169608 0.291434 -0.138348
-0.183948 0.319059 0.564656
0.023640 0.397943 -0.680099
-0.193095 0.262267 -0.439547
0.181504 0.356633 0.552646
0.082375 -0.290678 0.149740
-0.185333 0.029895 0.100576
-0.215684 0.082877 -0.547138
-0.071547 -0.259218 0.036194
-0.077762 0.144085 0.496721
-0.069123 -0.092766 -0.795811
0.101006 0.282110 0.239509
-0.109782 0.383065 -0.604590
-0.001830 0.169392 0.762042
0.164524 -0.009248 0.119409
0.054806 0.104242 0.458410
-0.041730 0.038184 0.393246
-0.136757 -0.475425 0.045104
0.185953 0.117436 -0.648469
0.166477 0.214915 -0.408362
-0.108119 0.353019 -0.769134
0.134982 0.254600 0.054810
0.009729 -0.164789 -0.135618
0.096106 0.127505 0.567304
0.202118 0.077874 -0.519335
0.140923 -0.057390 -0.338067
-0.142792 0.253864 -0.794884
0.080170 0.342480 0.163496
-0.145255 0.063654 0.323638
-0.144606 -0.498061 0.059192
0.139664 -0.138730 -0.684130
0.114596 -0.125975 -0.834474
-0.148637 -0.241841 0.104819
0.026738 0.416592 0.055077
0.172910 -0.555223 -0.761411
0.140305 -0.124480 0.073638
-0.159988 0.131149 -0.775585
-0.008339 0.049597 -0.828042
-0.074472 -0.507245 -0.827817
-0.150630 -0.050623 -0.777597
0.136226 0.262683 -0.004551
0.111977 0.324274 -0.074840
-0.025620 -0.189228 -0.252670
0.148915 0.106983 -0.735213
0.194159 0.129369 -0.065671
0.098979 0.246951 0.675500
-0.139137 -0.100667 -0.283841
0.071381 -0.003168 0.759933
-0.066555 -0.406201 0.085758
0.062969 0.124308 0.476028
-0.158474 0.315852 -0.325453
-0.113268 0.165809 0.377288
-0.135763 0.155058 0.333029
-0.188875 -0.036833 -0.174135
-0.135223 -0.441100 -0.789913
-0.141086 0.278757 -0.793939
-0.069053 -0.018568 0.324812
0.159821 0.020622 0.266878
0.203100 0.086431 -0.224778
-0.118648 -0.026030 0.273934
0.065135 0.395539 -0.514066
-0.076994 -0.243096 -0.730739
-0.010293 0.256764 -0.837343
0.164564 -0.051889 -0.744608
-0.079361 -0.138529 -0.058035
-0.058162 -0.154489 0.039652
0.086128 0.255747 0.379992
-0.131351 -0.347248 0.078828
0.161612 0.025796 -0.449333
0.164674 0.159329 0.047905
-0.216369 0.097435 -0.580716
0.179623 0.123725 -0.670929
0.055036 -0.424718 0.113728
0.148286 -0.291646 -0.781500
0.027595 -0.090947 -0.510337
-0.042425 0.251348 -0.859197
-0.126651 0.290939 0.598393
-0.135662 0.182784 -0.798739
-0.003124 -0.188672 0.062415
0.063133 -0.082693 -0.657802
0.167655 0.018348 -0.380563
0.110862 -0.273571 0.078608
-0.038567 0.344491 0.641369
0.071989 -0.197448 -0.709108
0.055419 0.077129 0.383328
-0.221459 0.175979 -0.189857
0.126608 -0.178031 0.172973
0.152857 0.006558 -0.474477
-0.078209 -0.075637 -0.502822
-0.187877 0.054723 -0.709568
-0.188098 0.052560 0.096524
0.164308 0.274705 -0.577596
0.051266 -0.139238 -0.744646
-0.005002 -0.174898 0.280030
0.127998 0.352835 0.531137
-0.160297 0.344457 -0.418919
-0.186652 0.185113 -0.003717
-0.139690 -0.468139 -0.801296
0.094442 0.047879 0.810808
-0.123643 0.357127 -0.348907
0.127281 0.280767 0.011991
-0.064641 -0.149192 -0.076785
0.130596 0.309721 -0.137365
0.157755 0.058355 0.290410
0.146348 0.315168 0.533359
0.079884 -0.403644 0.039871
0.044234 -0.074102 -0.735497
0.143540 0.084068 -0.738617
0.007240 -0.029830 0.356543
0.159814 0.007951 0.247182
0.018970 0.193388 -0.833919
-0.171058 0.302064 -0.700071
0.147445 -0.234825 -0.767113
0.075698 -0.299953 -0.814495
-0.067766 0.372913 -0.098400
0.144022 -0.149674 0.089529
0.043036 0.014417 -0.850546
-0.019726 0.301257 0.698624
0.062741 -0.136362 -0.800120
0.041348 -0.516182 0.052009
0.149985 0.086043 0.304983
-0.174558 0.308454 -0.635041
-0.202739 0.234086 -0.177924
-0.048195 0.393517 0.287203
-0.228246 0.082885 -0.239037
0.116272 0.370645 -0.555345
0.058023 0.387348 -0.658143
-0.085373 -0.216456 0.039261
-0.077632 0.353729 -0.791889
-0.068433 -0.303115 0.121397
0.088013 0.358801 -0.342808
0.137761 -0.087423 -0.627838
-0.069413 0.263300 -0.826016
-0.051371 -0.202261 -0.793230
0.196580 0.144056 -0.606738
0.150051 -0.443393 -0.767149
0.033102 -0.042625 0.337759
-0.144941 -0.511416 -0.788037
0.162798 0.115321 0.169406
-0.207630 0.128011 -0.510806
-0.054843 0.025160 -0.806746
0.144791 0.182017 0.243590
-0.108566 -0.221209 0.036716
-0.017525 0.022198 0.752169
0.060554 -0.335799 0.044794
-0.160832 0.279786 -0.770614
0.135994 0.233062 0.184699
-0.147502 0.260561 0.558935
0.055260 -0.156004 -0.218763
0.028251 -0.177581 0.215472
0.059666 0.375387 -0.080604
-0.231623 0.311192 0.582349
-0.083653 0.373224 -0.285912
-0.062864 -0.041531 -0.775998
-0.103344 0.378172 -0.677922
-0.023078 0.410753 -0.575053
-0.132262 -0.328706 0.062438
-0.229583 0.132560 -0.230246
-0.136543 0.308797 -0.019737
-0.074429 0.105719 0.427025
0.139063 -0.424921 -0.827524
0.095502 0.058781 0.346800
0.065373 0.370825 -0.248404
-0.002241 -0.212660 -0.285952
-0.080427 0.231166 -0.830491
0.089212 -0.125058 -0.185858
-0.213773 0.192313 -0.334643
0.105011 -0.083824 -0.834656
0.067270 0.132338 0.451303
0.091062 -0.559263 0.090180
-0.131476 -0.426839 -0.807957
0.074490 0.279377 0.700418
0.066791 0.289096 0.475560
-0.083605 0.127700 0.426834
0.184818 0.137377 -0.026376
-0.098034 -0.424915 0.106971
0.052598 -0.200162 -0.764727
0.002767 0.009439 0.781102
-0.072227 0.397327 0.148758
-0.074213 0.398664 0.074161
-0.156311 0.250441 0.087010
-0.196865 0.235021 -0.124016
-0.054801 -0.186087 0.099663
-0.162817 0.233438 0.147185
0.143191 0.323229 -0.423086
0.143409 -0.167600 -0.732551
0.064927 -0.215041 -0.738444
-0.019057 0.414479 -0.671875
0.015189 0.401307 -0.400114
0.157337 -0.003230 0.221177
0.166808 0.153762 -0.710194
0.163163 0.317009 -0.502987
0.081477 0.159994 0.404330
-0.056860 -0.243584 0.066673
-0.081475 0.391528 -0.655756
-0.207075 0.009927 -0.142713
0.086841 0.062359 0.681812
0.065900 -0.145705 -0.270674
-0.013605 -0.169450 -0.131828
0.087212 0.165702 0.697089
0.187569 0.026494 -0.260659
0.159225 0.270163 -0.662907
0.106587 0.242139 0.290411
-0.222383 0.245420 0.584248
0.040395 -0.065051 0.321158
0.086912 -0.127554 -0.844026
-0.081837 -0.151645 -0.146795
0.191393 0.021026 -0.161183
0.032584 -0.291679 0.065947
-0.168198 -0.103734 -0.663970
0.003881 -0.195098 0.248066
-0.050925 -0.132982 0.261832
-0.108614 -0.135533 -0.249044
-0.113030 -0.508144 0.139121
-0.160850 -0.059665 -0.370949
-0.165221 0.235809 0.573273
0.113412 -0.086282 0.219599
0.039365 0.393991 -0.386166
-0.146827 -0.091465 0.198796
0.074045 -0.079953 0.269315
-0.133969 0.128602 0.343036
0.086096 0.155421 0.520577
0.096879 0.275827 0.261605
-0.102513 0.357977 -0.209796
-0.025716 -0.202931 -0.275150
-0.045235 0.376399 0.368015
-0.062755 0.403123 0.007807
-0.160604 0.295675 -0.104750
-0.103603 0.183810 0.403090
-0.041004 -0.127481 -0.444939
-0.071136 0.372833 0.259145
-0.065689 -0.353077 -0.782314
-0.068519 -0.191576 -0.709822
-0.043954 0.103781 0.709387
0.062808 -0.111180 0.258896
-0.054039 -0.463138 -0.823994
0.083502 0.052411 -0.801324
0.138039 0.320864 -0.635258
-0.150547 -0.026941 -0.773435
0.147323 -0.519798 -0.802047
-0.061903 -0.158273 -0.301236
-0.028226 -0.087668 -0.572972
-0.083236 -0.013865 0.305604
-0.030468 0.397984 -0.096501
-0.047748 0.368414 0.404513
-0.127875 -0.396729 -0.818243
0.088970 -0.302323 -0.834037
-0.099971 -0.249620 0.145368
-0.174042 -0.011711 0.218606
0.098739 -0.353347 0.066989
-0.070739 0.344972 0.399033
0.094720 -0.186408 0.188538
-0.060315 -0.395617 0.064887
0.168740 -0.002508 -0.571387
-0.089035 0.118861 -0.829816
-0.053783 -0.144167 -0.748053
0.073711 -0.103652 -0.398575
0.030838 -0.217077 0.120130
-0.121269 -0.343275 0.101451
0.018965 0.271991 -0.828540
0.033299 -0.398948 0.067723
0.005204 0.295466 -0.824443
0.120933 -0.110737 -0.812979
0.121732 -0.334928 -0.837620
0.150652 0.194825 0.165122
0.163964 0.266211 -0.634752
-0.177976 -0.061094 -0.183125
0.190248 0.086412 -0.632879
-0.141947 -0.527943 0.143973
0.131320 0.314299 -0.177671
-0.063362 -0.534887 -0.823988
-0.089366 0.379694 0.094533
0.047939 0.332223 0.463998
0.034294 -0.399646 0.090849
-0.198357 0.022950 -0.079437
0.105457 -0.522999 0.168093
0.015040 0.327194 0.675806
-0.105038 -0.212830 -0.849048
-0.106790 0.380503 -0.643697
0.000130 -0.109550 -0.505583
-0.058423 0.409561 0.031254
0.055111 -0.228347 0.061451
-0.110228 0.287613 0.301895
-0.183275 0.094699 0.224938
0.045024 -0.117045 0.280042
-0.105705 -0.137109 -0.167644
-0.165312 0.008227 0.001284
-0.205469 0.152126 -0.504439
-0.178073 0.324468 -0.539501
0.184743 0.156989 -0.497116
0.052231 -0.135245 0.017511
0.145176 -0.064266 -0.280961
-0.103206 -0.071812 -0.468579
0.148916 0.183270 0.207584
-0.209769 0.020212 -0.329862
0.156030 0.172847 0.152995
0.121353 0.315900 -0.110797
-0.137647 -0.188582 -0.799907
0.163794 -0.041481 -0.603387
-0.137920 0.343349 -0.334495
-0.171351 0.132352 -0.753430
0.170941 -0.018076 -0.594834
0.035331 -0.154170 -0.103414
0.104507 0.081300 0.751310
-0.101905 0.315520 0.248980
0.008495 0.392757 0.300193
-0.023649 0.026004 0.383738
-0.202497 0.201090 -0.092647
0.083302 0.147078 0.733287
-0.158536 0.305926 -0.152237
0.142056 -0.151937 -0.712767
-0.089428 -0.206614 0.160626
-0.138060 -0.195729 -0.715661
-0.079770 0.143234 0.634613
0.045741 0.010834 0.358084
0.081800 0.209761 0.522279
-0.199655 0.183343 -0.659081
-0.038371 0.410703 -0.524750
-0.057262 0.383695 -0.294841
-0.009286 0.372132 0.435311
0.133265 -0.076275 -0.155158
-0.173387 -0.058572 -0.622887
-0.112178 -0.313901 -0.755690
-0.194997 -0.032059 -0.208582
-0.173242 -0.086770 0.052882
0.164501 0.026781 -0.479122
0.038505 0.372153 0.336683
0.164757 -0.060778 0.164943
0.048782 0.116255 -0.826372
0.070198 -0.004813 0.327815
0.133699 -0.087660 -0.277954
0.147970 -0.184234 -0.747946
-0.188336 0.080743 0.157605
0.118246 0.294102 0.092209
0.027746 -0.158027 -0.340018
-0.106936 -0.330666 0.032894
-0.067883 -0.162680 -0.166951
-0.178386 -0.061547 0.151216
-0.107130 -0.087909 0.002697
-0.178245 0.206646 0.007019
0.141023 0.034148 -0.744398
0.078092 0.094950 0.374807
0.019761 0.038147 0.625268
0.015184 -0.190421 -0.304841
-0.003717 0.138676 -0.830876
-0.143376 0.362458 -0.600289
-0.089851 0.284067 -0.818539
0.132351 -0.186843 -0.795611
0.027706 -0.126522 0.295056
0.191046 0.201267 -0.253827
0.158426 -0.003627 0.171453
-0.007692 -0.051165 0.349343
0.123890 -0.558907 0.135785
-0.075943 -0.053181 -0.792091
-0.087837 0.204910 0.485445
-0.142546 -0.147093 0.182530
0.132319 0.264601 0.075964
-0.123225 0.242214 -0.811325
0.068713 -0.112367 0.038260
-0.208602 0.032417 -0.353679
-0.025036 -0.184983 -0.227059
0.149560 0.283828 -0.349650
0.058020 -0.401389 0.116437
-0.026828 0.268631 -0.867342
-0.200381 0.186418 -0.411759
-0.042819 -0.007102 0.357328
-0.110923 0.384919 -0.577866
0.068711 -0.140419 -0.169848
-0.049499 -0.023626 -0.764073
0.049255 -0.025287 -0.782463
-0.157696 0.084384 0.317376
0.173435 0.130402 -0.692693
0.066937 0.340874 -0.786484
-0.078963 0.098534 0.602042
0.184782 0.033435 -0.628983
-0.228554 0.117513 -0.278611
-0.107253 0.147341 -0.820306
-0.132546 0.317346 -0.046883
0.002721 0.409563 -0.686435
0.165147 -0.027058 0.104844
-0.083705 -0.495995 -0.849893
-0.076924 0.092231 0.408499
0.115620 0.016426 0.318250
0.181401 0.232087 -0.222609
0.026573 0.401860 -0.432100
0.137422 -0.528054 -0.683232
0.170598 0.232522 -0.348940
0.057224 0.372931 0.192776
-0.094004 -0.150622 -0.204932
0.143365 -0.070097 -0.175738
-0.217565 0.110327 -0.092138
0.114207 -0.505968 -0.709661
0.122750 0.160517 -0.785825
-0.049228 -0.103207 -0.729750
-0.178614 0.020789 0.061639
-0.054233 -0.159091 0.094923
-0.135309 -0.194755 0.159624
-0.006385 -0.095416 -0.565697
0.174298 0.229940 -0.324858
-0.061789 0.295067 0.695684
0.081213 0.055981 0.829638
0.058286 0.023993 0.819790
0.151366 0.311005 -0.574598
-0.147152 0.328465 -0.309473
-0.012017 0.391265 0.314880
0.037838 -0.002568 0.784871
-0.097973 -0.558429 0.078257
0.156014 0.188969 0.051637
0.204790 0.128317 -0.182527
-0.152739 -0.027497 -0.028131
0.061121 -0.001523 0.781655
-0.055273 -0.475819 -0.765967
-0.057836 -0.424227 -0.826925
-0.165675 -0.039730 -0.730590
-0.189071 0.114546 -0.712519
0.159440 0.277147 0.531705
-0.213794 0.020487 -0.172306
0.093549 -0.545052 -0.677020
-0.017003 0.210118 -0.858014
-0.104674 0.257847 0.387922
-0.227893 0.089542 -0.187911
0.146040 -0.369429 -0.796467
-0.144705 -0.461321 0.069320
0.061234 -0.173034 -0.805218
-0.142816 -0.057840 0.226400
0.140221 -0.359643 -0.771339
-0.055091 -0.435212 -0.787313
-0.223104 0.129145 -0.327780
0.197917 0.042860 -0.154679
0.016207 0.417908 0.028869
-0.078547 -0.133809 0.022332
0.081987 0.265183 0.536733
-0.017812 0.378825 0.377029
0.028103 -0.170831 0.070763
-0.012843 0.148254 0.757561
0.065431 -0.506178 0.147261
0.177850 0.240075 -0.163441
0.138779 -0.550959 0.086689
-0.183819 -0.026582 -0.366736
-0.158507 0.025711 -0.758454
0.096789 0.125882 0.360990
0.103939 0.147132 0.351896
0.118316 0.088304 -0.779329
-0.079812 0.396966 -0.575274
-0.185329 0.012703 0.130021
-0.079630 0.057286 0.377378
0.048840 -0.522270 0.142087
-0.193356 0.014318 -0.606012
0.084530 0.285111 -0.808035
-0.122594 0.259836 0.280401
0.056145 0.210527 0.730905
-0.102605 -0.412493 -0.855134
-0.140517 0.283918 0.164151
-0.084151 0.081839 0.387857
0.133791 -0.189105 0.089571
0.107295 0.311853 0.102222
0.134748 0.311390 -0.254633
0.129541 0.339417 -0.621545
-0.219512 0.054394 -0.126611
0.059683 0.397795 0.040955
-0.121197 0.348836 -0.273232
-0.114249 -0.377618 -0.770949
-0.034286 0.401240 -0.398440
0.169326 0.055061 -0.435662
0.038887 -0.065530 -0.701273
0.140724 0.322098 -0.611134
-0.159274 0.364244 -0.503200
-0.092979 -0.148827 -0.235752
-0.137046 0.316822 -0.074036
-0.051120 0.415768 0.055205
0.119518 -0.018850 -0.814108
-0.039866 0.398547 -0.072528
-0.005892 0.393274 -0.214645
0.106370 0.338807 -0.142571
0.136627 0.345325 -0.571463
-0.077981 -0.558881 0.092957
-0.198405 -0.024582 -0.279050
-0.099033 -0.104483 -0.646032
-0.182553 -0.037689 -0.669109
-0.058855 0.389468 -0.359842
-0.057503 0.344441 0.571248
-0.131970 -0.264268 0.050061
0.089035 -0.510894 -0.812442
0.119629 0.266582 0.202702
-0.129942 0.313179 0.097169
-0.123262 -0.055216 -0.609311
-0.023532 0.058428 0.412096
0.108913 -0.081897 -0.051424
-0.220335 0.187239 -0.233481
-0.101293 0.359921 0.135109
-0.157374 0.001727 -0.759450
-0.073128 0.314348 0.572763
-0.145020 -0.059198 -0.424468
-0.047164 -0.002396 -0.772599
-0.182520 0.071395 -0.473584
-0.054888 0.405747 -0.546547
0.119806 -0.189291 0.062919
-0.132480 -0.333285 -0.789512
0.179430 0.034795 -0.313854
-0.064546 0.374971 -0.146475
-0.022203 0.382652 0.353094
-0.199102 -0.013590 -0.149421
0.037644 -0.081138 -0.532239
0.127472 0.324952 -0.686687
0.073797 0.360255 -0.069698
-0.106729 -0.538652 0.036895
-0.103494 -0.387464 -0.851594
-0.133753 0.208257 -0.802003
-0.093345 0.033399 0.334186
0.073411 -0.352825 -0.797751
-0.239434 0.283030 0.585869
-0.034001 0.146269 0.732253
0.005803 0.030238 -0.825838
-0.016892 0.086834 0.800741
-0.194735 -0.032807 -0.245825
-0.086518 0.396077 -0.467131
0.069613 0.386001 -0.618256
-0.102121 0.366318 -0.748162
-0.107101 -0.519333 0.018348
0.040049 -0.137867 -0.365777
0.202247 0.152461 -0.177133
-0.076917 0.392274 0.031421
-0.211170 0.082601 -0.521308
-0.078261 0.368806 -0.077843
-0.040706 -0.556684 -0.731891
0.135571 -0.189488 -0.713188
0.174159 0.243778 -0.138699
0.083661 0.023017 0.711130
0.128652 0.275756 0.047990
-0.194094 0.178810 -0.449131
-0.183578 0.236666 -0.055388
0.081739 0.207677 -0.817016
-0.156875 0.327587 0.580629
-0.142317 0.328638 -0.220073
-0.087010 0.344558 0.248488
0.095456 0.172641 0.606534
0.175665 0.121573 -0.393614
0.033849 -0.169961 -0.255863
-0.175609 -0.023359 -0.074111
0.188398 0.053853 -0.303273
0.136243 -0.374904 -0.820486
0.170617 0.140224 -0.446626
-0.061335 -0.304365 -0.779739
-0.098167 0.229482 0.433192
0.061903 -0.162663 -0.714844
0.172062 0.078793 0.123603
0.110006 -0.099483 -0.327868
-0.004771 0.316678 0.685480
-0.229953 0.105982 -0.215419
0.019608 0.019781 -0.842647
0.009575 -0.158450 0.287865
0.149699 -0.212601 -0.761119
-0.089816 -0.533313 0.160273
0.104733 -0.148039 0.039791
0.105665 -0.461372 -0.847137
-0.139355 0.332158 -0.246182
-0.174880 0.162990 0.169629
-0.106294 0.352868 0.080771
-0.132708 0.225041 0.278559
-0.049758 -0.478012 -0.805743
-0.093761 0.210236 -0.828263
-0.081071 0.371183 -0.258348
0.135622 -0.055408 -0.394083
-0.045881 -0.495750 -0.790797
0.050145 -0.003551 0.747543
-0.154557 -0.106767 -0.639342
-0.024715 -0.105805 -0.511184
0.155415 0.287152 -0.629873
0.096697 0.182906 0.635811
0.049657 -0.124589 -0.382589
0.120076 -0.039434 0.007721
-0.090066 -0.103765 -0.399517
0.055938 -0.400780 0.038935
0.029036 0.035728 0.604478
-0.095744 0.256164 0.430967
-0.117212 -0.047523 -0.513320
0.119274 -0.096057 -0.153675
0.176610 0.237844 -0.625590
0.107024 -0.193199 -0.693060
-0.193001 0.053836 0.156386
-0.164553 -0.060411 0.051808
0.002631 0.396525 -0.766334
0.020757 0.057078 0.514188
0.149435 -0.038113 -0.384407
0.200597 0.152611 -0.121807
-0.052151 -0.178344 -0.296316
0.120736 -0.034436 -0.513930
0.163477 0.176562 0.032593
0.011917 0.343397 0.657156
-0.106674 -0.071300 -0.816984
-0.175825 0.328671 -0.444884
-0.188270 0.272564 -0.362318
-0.193114 0.047328 -0.414747
-0.092927 0.078535 0.365798
0.069538 0.364819 -0.151790
-0.021017 0.406144 0.238410
0.094564 -0.436195 0.113101
-0.052223 -0.104590 0.282329
0.152569 0.154891 -0.743959
0.129604 -0.220928 0.111191
0.169842 0.097160 0.075662
-0.165107 0.212791 0.099330
0.077686 0.190283 0.703278
0.089918 -0.507284 0.028032
0.088178 0.302223 0.236107
0.070010 0.015431 0.797266
-0.176741 -0.037349 0.145995
0.005153 -0.209638 0.165673
0.074635 0.037383 0.684926
-0.124775 -0.433933 -0.830405
0.029747 0.388827 -0.320898
0.149841 -0.556109 0.137783
-0.098532 -0.269178 -0.851494
0.113158 -0.077646 -0.619516
-0.142759 -0.529589 -0.803218
-0.052284 0.344312 0.600766
0.167272 -0.004045 -0.064699
0.017567 -0.197127 0.181495
0.109195 -0.107767 -0.184473
-0.199837 0.187252 -0.473323
-0.009299 -0.196683 -0.347515
0.185953 0.207047 -0.619020
0.067513 0.159748 -0.825211
-0.227629 0.083014 -0.265795
-0.078570 0.189944 0.678552
-0.077997 0.369634 -0.168494
-0.159838 0.216015 0.220729
-0.217338 0.067297 -0.107116
-0.066374 -0.553811 0.070721
0.198832 0.072901 -0.104153
-0.180949 0.067801 0.264066
-0.090869 0.364385 -0.187694
0.010323 0.397290 -0.352998
0.170805 0.261605 -0.555744
-0.169807 0.296639 -0.180793
0.162789 0.284731 -0.459337
-0.177413 -0.103705 0.136696
0.177794 0.034287 -0.036091
-0.176248 0.333394 -0.472083
-0.012687 -0.121877 -0.489288
0.059097 0.184739 0.751548
0.049088 -0.468363 0.038049
0.067362 0.351408 0.200481
-0.029229 -0.161762 -0.041202
0.077674 -0.125404 -0.110038
0.174434 0.018437 -0.658156
0.083099 0.295894 0.613750
-0.113082 -0.099961 -0.369166
-0.225832 0.089359 -0.293710
0.082141 -0.462728 -0.830851
0.088271 0.353085 0.027171
0.003689 0.416391 0.158724
-0.100936 -0.401094 0.105070
-0.089438 -0.142637 -0.121394
0.155012 -0.480277 -0.804843
-0.058156 -0.461819 0.072940
-0.169249 0.183511 -0.763647
