0.404658 -0.489059 0.495013
0.276983 0.071186 -0.315674
-0.213817 0.269316 0.404479
-0.151683 -0.541604 0.641376
0.159255 -0.537730 0.639544
-0.548310 -0.136074 0.312880
0.115116 0.320461 -0.764725
0.363064 -0.416415 -0.478121
-0.030970 0.143782 -0.863736
0.036556 0.758555 -0.185762
-0.362265 0.424969 0.127321
-0.333390 0.466422 0.246586
0.054022 0.069847 0.465528
0.680380 -0.264826 -0.120409
0.153521 0.606949 0.433573
-0.085705 0.713332 0.631170
0.080207 0.289730 -0.656995
0.218619 0.230318 0.372431
-0.071994 0.566408 -0.251633
0.290124 0.165864 -0.731387
0.398798 -0.459527 0.518391
0.359154 0.281167 0.192621
0.068331 -0.589989 0.615091
0.606261 -0.408625 -0.170465
-0.152492 0.285834 -0.694752
0.533295 -0.366939 -0.441254
-0.189280 0.099130 -0.195412
-0.005021 -0.458548 0.706334
0.090362 -0.372829 0.734627
0.052154 0.320348 -0.675447
-0.643624 -0.104016 -0.282966
-0.237725 0.100993 0.024756
-0.244559 0.572882 0.323601
0.192495 -0.374902 -0.737835
-0.585211 -0.389961 -0.291458
0.658857 -0.362981 0.031919
0.296442 0.667334 0.010528
-0.071510 -0.368986 -0.626862
-0.127289 0.077097 -0.855459
-0.238844 -0.418011 -0.103970
-0.305803 -0.378193 -0.649906
-0.269864 -0.382410 -0.279065
-0.337280 0.301077 0.037958
-0.278513 0.218036 0.261314
-0.129879 -0.391866 0.720286
0.439388 -0.540354 0.383499
0.470136 -0.019650 -0.033504
0.180894 0.131872 -0.521442
0.096733 0.244049 -0.194077
-0.055986 0.597559 -0.246174
-0.236979 -0.474498 0.114172
0.112647 0.269610 -0.814800
-0.262676 0.101266 -0.419596
-0.103201 0.114335 -0.419830
0.360960 -0.511212 0.062777
-0.115794 0.347568 0.575357
0.012186 0.670226 0.458862
0.308698 0.631906 0.170460
0.207279 0.191598 -0.099805
-0.504975 -0.414867 0.435501
0.037280 0.306635 0.547785
0.607625 -0.087639 -0.302139
-0.364299 0.381207 0.093051
0.196649 -0.534178 0.243488
-0.384709 0.032011 0.012953
-0.266424 0.386904 0.413783
-0.407850 0.013119 0.140425
-0.498198 0.032685 -0.215619
0.380413 0.041590 -0.711692
-0.064830 0.300965 -0.662336
-0.134394 -0.449448 0.023830
-0.334881 0.011398 0.345801
-0.166204 0.582759 0.499208
0.058337 0.889167 0.193210
-0.177082 -0.586105 0.578821
0.159477 -0.384982 -0.729637
-0.071079 0.068016 -0.871277
0.217727 0.026120 0.436030
0.220489 -0.391651 -0.674277
0.573688 -0.146870 -0.457288
-0.173429 0.829885 0.160464
-0.052550 0.119456 -0.359922
-0.041566 -0.105188 0.667288
-0.178008 0.669172 0.328161
-0.256217 0.040069 0.385822
-0.059365 0.001106 0.560572
-0.412477 -0.328413 -0.633484
0.454404 -0.421049 -0.455590
-0.064278 0.934760 0.040989
-0.210177 -0.109157 -0.836024
0.357087 0.026112 0.099778
0.250430 0.232262 -0.099464
0.140015 0.573704 -0.236281
-0.421013 -0.107763 -0.694618
-0.625278 -0.424996 0.050617
0.461749 0.047471 -0.450723
-0.172300 -0.186862 -0.840321
0.293446 -0.579788 0.361620
0.460179 0.036900 -0.384231
-0.411382 -0.394899 -0.288293
0.287388 -0.403720 -0.315645
-0.614175 -0.257220 -0.381490
0.024627 0.934559 -0.029747
0.517879 0.005197 -0.439990
-0.522298 -0.257165 0.428777
-0.086254 0.254937 0.467933
0.317812 0.049536 -0.049813
-0.255224 0.111587 0.232918
0.576172 -0.107384 -0.446669
0.191202 0.411873 0.597068
-0.551889 0.003645 -0.088649
-0.201036 0.344867 0.475511
-0.306276 0.146991 -0.572840
0.199516 -0.519460 0.636104
-0.268277 0.636534 -0.035063
0.148177 0.529237 -0.242214
-0.186200 0.171031 0.349867
-0.071158 0.247185 -0.190493
0.150384 -0.057994 0.584391
0.206633 0.253955 -0.731296
-0.129595 0.185440 -0.561702
-0.376598 0.022424 0.212661
0.545440 -0.278940 0.338887
-0.384147 -0.083695 0.456854
-0.392077 -0.417829 -0.144075
0.387864 0.065954 -0.679087
-0.228270 0.549734 -0.157567
-0.048598 0.078399 0.457998
-0.313176 -0.421835 0.629840
-0.093443 0.538417 -0.250167
-0.088640 0.282260 0.495512
0.515834 -0.299473 0.396977
-0.053611 0.361774 0.632893
-0.443027 -0.453529 0.499009
0.183984 0.097228 -0.310204
-0.477999 -0.485550 0.085949
-0.157782 -0.087011 -0.854316
0.223250 0.569060 0.575189
-0.377567 0.112897 -0.524625
0.004596 0.741223 -0.196100
-0.299373 -0.283272 0.643416
-0.039828 -0.600282 0.531297
-0.156895 -0.442275 -0.002212
-0.581978 -0.079229 0.183377
-0.249621 -0.464738 0.078621
0.158369 -0.219086 -0.837681
0.235888 0.776605 0.188195
-0.330699 0.132365 -0.687559
-0.122121 0.856602 0.182847
0.555178 -0.026052 -0.358031
-0.047542 0.722847 -0.198111
-0.614423 -0.038384 -0.044731
0.668124 -0.256785 -0.207123
0.193425 0.389206 -0.227756
0.549429 -0.493055 -0.065991
-0.660178 -0.333179 -0.191996
0.200127 -0.487417 0.084737
-0.200703 -0.248721 0.690039
0.532165 -0.273110 -0.524592
0.643826 -0.397758 0.030269
0.399348 -0.328256 0.546124
-0.595923 -0.016401 -0.113965
0.422245 0.068218 -0.480734
0.304180 -0.581869 0.501473
0.265726 -0.397729 -0.540052
-0.001803 -0.098229 -0.879623
-0.007704 -0.146762 -0.873936
-0.051343 -0.059652 0.619888
-0.233560 -0.373294 -0.652477
0.055716 0.922350 -0.041242
-0.696870 -0.290880 -0.069675
-0.256617 0.073877 0.306145
-0.459057 -0.121390 -0.647973
0.625265 -0.238079 -0.347375
-0.295762 0.064819 0.037762
-0.415440 -0.030598 0.317177
0.333521 0.569403 0.049107
0.194354 0.262148 -0.696426
-0.080951 0.747889 0.338213
-0.003328 -0.373424 -0.710946
0.202308 0.186085 0.351661
0.407693 -0.375238 -0.583033
0.623136 -0.178671 0.159452
-0.142779 0.596732 0.475735
-0.601616 -0.331170 0.283927
-0.123419 -0.531412 0.297542
-0.463109 -0.534149 0.287924
-0.291844 -0.177281 -0.791431
-0.295374 0.250980 0.005805
0.568661 -0.355241 0.301561
0.111521 -0.194377 -0.855970
0.287525 0.639557 0.225312
-0.240448 -0.409658 -0.140136
-0.421489 -0.096110 0.434113
-0.102787 0.417956 0.672935
0.156266 0.644793 0.548330
0.243554 0.082923 -0.070574
-0.032448 -0.119160 -0.876610
0.086811 0.456555 0.647678
0.054965 0.579610 -0.258753
0.259044 -0.286675 0.647752
-0.051309 0.329538 -0.774596
-0.104712 0.340598 -0.236200
0.269495 -0.575170 0.545235
0.160804 0.771785 0.273828
0.013990 -0.178560 -0.868362
-0.069557 -0.377699 -0.294264
-0.263587 -0.392188 -0.221910
-0.216318 0.629829 -0.136335
-0.433324 -0.487352 0.479016
-0.416514 -0.445134 0.534532
0.355887 0.087911 -0.715398
0.113213 0.366056 0.612312
0.130550 -0.127722 0.672804
-0.041957 0.132717 -0.483682
0.388049 0.024232 -0.220386
0.644275 -0.396173 -0.066574
-0.026599 -0.582398 0.629223
0.087734 0.344656 -0.747329
-0.610001 -0.365286 -0.295252
-0.224074 -0.557466 0.593971
-0.385935 0.011376 0.245346
0.144973 0.431265 -0.254465
0.236333 -0.591428 0.425843
0.310783 -0.167016 0.568914
-0.582287 -0.427106 0.260859
-0.241247 0.627024 -0.103215
0.330806 0.301482 -0.056283
-0.059747 0.682799 0.388510
0.655821 -0.151915 -0.150986
-0.115211 0.582381 -0.229111
0.446842 -0.455329 -0.225282
-0.095309 0.491131 -0.257314
0.631710 -0.404564 0.088951
0.425748 0.034566 -0.353569
-0.030630 0.483606 0.577285
-0.605631 -0.336146 -0.344553
0.238319 0.399257 0.500035
0.598568 -0.188745 -0.413917
0.363567 0.023364 0.049180
-0.092072 0.321226 -0.714154
0.563477 -0.174011 0.262420
0.260002 0.495277 0.505056
-0.108001 0.018179 0.532186
0.071417 0.753451 -0.182684
0.335663 0.258613 0.224448
0.129628 0.786046 0.288004
-0.549196 -0.374165 0.383884
0.307508 0.509872 -0.090305
-0.416514 -0.411597 -0.187240
0.488038 -0.531167 0.063350
-0.561765 -0.030744 -0.421043
-0.159930 0.439912 0.622608
0.379755 -0.418868 -0.527512
-0.024392 0.392806 -0.269248
-0.190932 -0.359583 -0.483930
-0.074091 -0.226780 -0.850637
-0.563833 -0.442326 -0.156498
-0.375457 0.073053 -0.395195
-0.660316 -0.142658 -0.263218
0.448970 -0.446647 -0.312578
-0.683299 -0.137748 -0.043406
-0.368352 -0.218143 0.575202
0.072898 0.634956 -0.236752
-0.487066 -0.284298 -0.584625
-0.676388 -0.184249 0.102387
0.019863 0.663959 0.642535
0.036114 0.828969 -0.138105
-0.563691 -0.003219 -0.371959
-0.256018 0.209720 -0.688463
-0.288852 -0.508802 0.218602
-0.128593 -0.125950 0.680042
0.184618 -0.346123 -0.765603
-0.081294 0.703035 0.367523
-0.050241 0.265184 0.484954
-0.226547 0.233700 -0.697294
0.342386 0.463808 -0.039442
-0.162454 0.669624 -0.168954
0.041163 -0.448185 0.707448
0.653662 -0.146120 -0.099063
-0.082237 0.827227 -0.117583
0.451192 -0.023069 0.043693
-0.199072 0.258547 -0.128429
0.541615 -0.421113 -0.317078
0.451239 -0.514049 0.407978
0.276234 -0.128644 -0.810827
-0.415967 -0.074683 0.406641
-0.210051 -0.318979 -0.772286
-0.058006 0.882876 -0.076325
-0.144536 0.424012 -0.236615
-0.452006 -0.256849 -0.640264
0.219586 -0.027812 -0.843498
0.144940 0.792645 -0.127195
-0.080965 0.580154 0.607316
0.405367 -0.009424 0.137974
0.520511 -0.013791 -0.482596
0.672175 -0.337902 -0.034643
-0.206547 0.534106 0.560257
0.642206 -0.295463 0.169647
-0.313261 -0.083581 0.525260
0.067952 0.669504 0.408438
0.518754 -0.031203 -0.512891
-0.294803 -0.458562 0.627485
-0.156111 0.716085 -0.148798
0.370817 -0.248224 0.556401
0.422895 0.009557 -0.223825
0.188705 0.775358 0.248626
-0.012255 -0.369408 -0.615460
0.523383 -0.029603 -0.054014
0.140158 -0.261316 0.701882
0.395943 -0.563054 0.415295
-0.258084 0.089021 0.261099
0.002213 0.168143 -0.860413
-0.586020 -0.462855 0.151691
0.188470 -0.386701 -0.564403
0.531291 -0.466465 0.312355
-0.182806 -0.344240 -0.763409
-0.179993 0.558742 0.434079
0.490954 -0.207640 -0.604446
0.436266 -0.301639 0.504948
-0.479009 -0.247762 -0.614616
0.310711 -0.412200 -0.282256
0.609070 -0.357415 0.221291
-0.311357 0.074131 -0.191655
0.479060 -0.419169 0.438231
0.112868 -0.409215 -0.169200
0.465099 -0.022570 0.001066
-0.056081 -0.602924 0.597011
-0.256725 0.113510 0.101690
0.079200 0.714968 -0.201915
0.163934 -0.138546 0.665217
0.291857 0.462432 -0.132750
0.058193 0.010143 0.545203
0.279684 0.596506 0.279774
-0.375401 -0.058581 -0.732795
0.089730 0.590592 -0.249673
-0.109691 0.233472 0.441762
0.114479 0.874583 0.193465
-0.212748 -0.228867 -0.813915
-0.218858 -0.578322 0.564847
0.270473 0.750050 0.035756
0.043858 0.228790 -0.603330
-0.200212 0.507632 -0.196302
-0.433122 -0.501508 0.162892
-0.660493 -0.213313 0.176205
0.421479 -0.426699 -0.471511
-0.275351 -0.447872 0.013643
-0.467427 -0.451854 -0.032942
0.116731 -0.471177 0.060757
0.585002 -0.393872 -0.276791
0.154223 -0.301579 -0.803773
0.459599 0.015201 -0.266574
-0.297723 0.068436 0.182796
-0.597024 -0.433274 -0.092770
-0.566562 -0.462533 0.242463
0.541369 -0.034439 -0.085081
0.093496 0.113428 -0.324501
0.354598 -0.127127 -0.760464
-0.098393 -0.485175 0.147871
-0.022664 0.147800 -0.512170
0.316295 0.630217 0.129778
0.278672 0.718549 0.161313
0.667861 -0.256290 0.083758
-0.114887 -0.377636 -0.292135
-0.110682 0.883351 0.114478
-0.038080 0.650819 0.441326
-0.601775 -0.406031 -0.195975
0.081050 0.630396 0.627513
0.295938 0.591281 -0.066182
-0.479437 -0.243623 0.482079
-0.051002 0.722321 0.366358
0.308480 0.234824 -0.020792
-0.338683 -0.562187 0.408614
-0.651508 -0.139858 -0.298772
-0.512584 -0.324035 -0.527793
-0.329935 0.394392 -0.044675
-0.347425 -0.167727 0.564865
0.075701 0.922560 0.141216
0.308944 0.546804 -0.063167
-0.254142 0.347779 0.414466
0.152195 0.863614 0.178443
-0.189628 0.666986 -0.145263
0.111412 0.041871 0.487195
-0.226799 0.185223 -0.030386
0.398642 -0.127999 -0.722571
-0.045764 0.124121 -0.304654
-0.591683 -0.460118 0.078316
0.329696 0.043724 0.054846
-0.199362 0.789975 -0.023712
-0.671422 -0.152180 0.078787
0.319612 -0.536220 0.544155
0.436501 -0.337091 0.507630
0.621263 -0.379157 0.177723
-0.217123 -0.551243 0.370108
-0.244610 0.029756 0.417731
0.335576 0.242637 0.193153
0.192003 -0.499573 0.128686
0.192111 -0.389040 -0.607002
-0.388848 -0.385323 -0.347679
-0.344667 0.433448 0.241401
0.358388 -0.083900 0.443829
-0.534232 -0.219309 -0.545530
0.294088 0.396216 0.392414
-0.592431 -0.365720 0.292500
-0.195342 -0.587039 0.501907
-0.327743 0.101171 -0.720984
-0.198720 0.153435 -0.036476
-0.614565 -0.424859 0.149859
0.085019 -0.375494 -0.601917
0.011203 0.668448 -0.228793
0.206067 0.790874 -0.066761
0.193154 -0.087542 -0.851010
-0.644959 -0.088138 0.026258
-0.584205 -0.234818 0.321385
-0.032053 -0.012349 0.578583
0.303308 0.125270 -0.561916
-0.196879 -0.401611 -0.173849
0.350301 0.426540 -0.038033
0.492166 -0.053124 -0.568576
-0.407860 -0.486100 0.510705
0.280775 -0.312913 0.638407
0.376727 -0.298255 0.564235
-0.644535 -0.280494 -0.298825
0.222873 -0.562089 0.331575
-0.409874 -0.113491 0.463417
-0.090256 -0.538515 0.316403
0.280316 -0.598557 0.429676
0.292012 -0.385483 0.631660
0.030187 0.039200 0.512071
-0.331994 -0.378769 -0.607932
-0.300234 0.583445 0.037947
0.366156 0.482625 0.062607
0.273600 -0.161047 0.594053
-0.367326 -0.384373 -0.434923
-0.347118 0.338750 0.028928
-0.493473 -0.428873 -0.155406
0.280741 0.067123 -0.024385
-0.351146 0.306613 0.135533
-0.598998 -0.390297 -0.258367
-0.418855 0.019158 0.017007
-0.520450 -0.054542 0.222669
-0.607676 -0.126184 -0.395786
-0.539828 -0.027410 0.122214
0.127201 0.918082 0.029046
0.232518 0.182498 -0.791419
-0.064784 0.712268 0.602683
0.331100 -0.100751 -0.780290
-0.204991 0.152008 0.321345
0.363863 0.499822 0.143276
0.225377 0.100653 -0.045841
-0.203651 0.178049 -0.564157
0.399596 -0.425245 0.531593
-0.058209 -0.371400 -0.707264
-0.189788 -0.372442 -0.323716
0.102974 0.937153 0.045722
0.231763 0.764272 -0.057914
0.356291 0.023961 0.136483
0.234353 0.081013 -0.376490
-0.699296 -0.213868 -0.074085
0.594613 -0.063587 -0.149263
0.570760 -0.482629 0.099677
0.110959 0.850189 -0.095056
-0.090295 -0.184181 0.698548
0.598649 -0.224164 -0.407806
-0.637064 -0.053004 -0.112055
-0.373183 -0.536375 0.304200
0.147370 -0.556989 0.347581
0.438428 -0.212232 0.466282
0.214874 0.841364 0.091891
-0.181687 0.537827 -0.202990
-0.518670 -0.428357 -0.200243
-0.115082 -0.529639 0.659717
0.302882 0.318929 -0.109008
0.109711 -0.374228 -0.404616
-0.254542 -0.573310 0.452137
0.273845 0.431591 0.427514
0.032386 -0.108855 -0.878884
-0.004269 -0.339006 -0.802349
-0.644633 -0.398564 0.072993
-0.232434 0.105205 0.298488
-0.144553 0.270978 -0.760862
0.005250 0.236133 -0.188100
0.031476 0.948538 0.086660
-0.444564 -0.056544 0.335325
-0.004163 0.856348 -0.114708
-0.248479 0.062378 0.340631
-0.341989 0.317811 0.223737
0.298980 0.560929 0.279190
-0.291972 -0.377066 -0.613566
-0.215071 0.626914 0.324942
-0.401437 -0.389665 -0.441241
-0.076308 0.394583 0.667340
0.166004 0.144543 0.358933
-0.100076 0.172241 -0.543522
0.212547 0.007511 -0.845798
-0.142840 -0.580726 0.602479
0.269641 0.141132 0.185136
0.303056 0.186588 0.134920
-0.053975 0.239637 0.459402
0.298532 -0.404200 -0.558381
-0.222434 0.163812 -0.780512
-0.330751 0.053868 -0.062127
0.003598 0.100184 0.437594
0.454300 -0.440533 -0.399093
-0.099710 0.121044 -0.455589
0.524483 0.000320 -0.320601
0.599510 -0.073193 -0.115654
0.641653 -0.177550 -0.299912
-0.256901 -0.314032 0.670096
-0.562207 -0.314030 -0.454434
-0.014336 -0.467510 0.071514
-0.623618 -0.055532 -0.269285
0.156861 0.387591 0.604910
0.200325 0.832599 -0.007615
-0.482873 -0.335543 -0.549181
-0.483700 -0.074817 -0.600386
-0.693790 -0.262616 0.064217
-0.316107 -0.499373 0.181478
-0.132975 -0.356381 -0.502898
0.169754 0.078044 0.393818
0.150942 0.096776 -0.395354
0.075872 0.215329 -0.844631
0.500105 0.018266 -0.478453
0.119463 -0.470141 0.689376
-0.124595 0.147869 -0.513268
-0.624159 -0.301657 -0.332077
0.053858 -0.390278 0.730686
0.343135 0.496866 -0.013849
-0.235449 0.088946 -0.186718
0.369254 -0.496843 0.010366
-0.452083 0.077092 -0.483818
0.594389 -0.455733 0.090187
-0.141478 0.252106 0.441475
0.107929 -0.400679 0.718640
0.199399 0.105136 -0.079071
-0.475093 -0.013586 0.149359
0.039381 0.200054 -0.172161
0.114734 0.644388 0.493534
-0.546328 -0.015283 0.049033
-0.087086 0.043684 0.500501
0.112545 0.929436 0.078470
-0.180400 -0.360245 -0.446468
-0.199845 0.104454 -0.050135
0.138368 -0.620480 0.536651
-0.325532 0.053920 0.058566
-0.352610 0.130616 -0.632736
-0.030895 0.114740 -0.391663
0.106932 -0.560505 0.367191
0.435396 0.067862 -0.528669
0.183849 0.581478 0.407349
0.233565 0.420111 0.535049
0.291463 0.163005 -0.624013
-0.090409 0.369920 -0.250039
-0.223837 -0.390320 -0.225174
0.381920 0.387872 0.200475
-0.198118 0.146101 -0.515395
0.115615 -0.504541 0.170369
-0.247090 0.316008 0.401803
0.517836 -0.134715 -0.559020
0.183546 0.260777 -0.770023
0.495461 -0.012826 -0.537802
0.023589 0.799902 0.315515
-0.447208 -0.045705 0.302140
-0.057957 -0.556350 0.384295
0.048559 0.862119 0.245502
0.250775 0.502437 0.405630
-0.218044 0.509403 0.433731
0.549565 -0.472218 -0.147737
0.203728 0.340110 0.485039
-0.336609 0.114954 -0.507957
0.232871 0.801728 0.004059
0.311963 -0.446386 -0.121478
0.297821 0.429649 0.378247
-0.024985 -0.361812 -0.526237
-0.194745 -0.278199 -0.802698
-0.117927 -0.384790 -0.254605
0.277745 0.301315 0.369167
0.107485 -0.157706 -0.863463
-0.346045 -0.286621 0.612742
0.359370 0.510888 0.089178
-0.353751 0.053978 -0.119253
0.371533 0.398641 0.244838
0.305150 -0.068106 0.489701
-0.023459 0.456473 0.621095
-0.438358 -0.081984 -0.669956
0.600746 -0.297738 0.250403
-0.533624 -0.074138 0.251073
0.053597 -0.378721 -0.764176
-0.599765 -0.267274 0.303677
0.246467 0.793931 0.038167
0.202319 0.091203 -0.165554
0.424889 -0.463471 -0.155704
-0.273754 0.082502 -0.189591
0.048644 0.663887 0.455626
0.326629 -0.604366 0.422261
-0.642462 -0.351570 -0.222972
-0.633597 -0.163550 -0.353288
-0.313523 0.486617 0.281090
-0.392151 -0.357319 -0.625252
0.092817 -0.372709 -0.567277
-0.140391 0.547912 0.587134
-0.281669 -0.378685 -0.312870
-0.203355 -0.367390 -0.363057
0.316686 0.344324 0.343426
-0.419475 -0.235138 -0.682130
-0.015412 0.755135 0.650287
-0.273828 0.093551 -0.298731
-0.109343 0.295380 -0.211710
-0.138528 0.111392 -0.403159
0.208120 -0.601767 0.467735
0.484918 -0.321303 -0.558254
-0.404203 -0.174750 0.521628
0.429473 -0.018569 -0.670712
0.001828 -0.253813 -0.845071
-0.242685 0.127744 -0.494464
0.316707 0.630050 0.092842
-0.285668 0.631013 0.069192
0.139791 -0.438381 -0.062064
0.554826 -0.445056 -0.224016
0.073629 0.292197 0.520896
0.396843 -0.061123 0.344361
0.680539 -0.285682 -0.091213
-0.534359 -0.452976 0.345438
-0.002508 0.165243 -0.536031
0.383655 -0.015306 0.247272
0.116831 0.913769 -0.012332
-0.070905 -0.401671 -0.065492
0.632184 -0.354465 -0.229382
0.625888 -0.340451 -0.264709
-0.514122 -0.466288 0.372067
0.186551 0.388236 0.571449
0.307275 0.098459 -0.766682
0.428499 -0.414892 0.503834
0.608254 -0.429425 0.113981
0.249041 0.271858 0.377380
-0.375156 0.008261 0.283672
0.303416 0.062624 -0.346585
-0.486868 -0.108953 -0.606993
-0.653348 -0.378435 -0.102241
0.242189 0.087924 -0.438541
0.475203 -0.108558 -0.627656
-0.548943 -0.373313 -0.398547
-0.540156 -0.502681 0.174216
0.352055 0.479807 0.248824
-0.358806 0.371905 0.049479
-0.618343 -0.402836 0.179860
-0.578493 -0.458130 -0.037182
0.025218 0.232492 0.458615
0.315839 0.267956 -0.050741
0.038420 -0.500584 0.171912
-0.327743 0.284787 0.225471
0.241610 0.112071 -0.815365
-0.623076 -0.327747 -0.308459
-0.247676 0.082365 -0.006367
-0.258365 -0.355147 -0.722545
0.044745 0.694638 0.391364
-0.241188 -0.474384 0.649584
-0.667118 -0.370011 -0.004386
-0.461014 -0.461965 0.468002
-0.205565 0.798081 0.011126
0.005424 0.122018 -0.466859
-0.619126 -0.140618 0.207981
0.067724 -0.333225 0.723816
0.154083 0.252697 -0.181645
0.282009 0.037899 0.328702
-0.135588 0.131185 -0.483154
0.539200 -0.098339 0.196845
-0.105240 -0.427388 -0.064158
-0.117991 0.753502 -0.152043
0.560495 -0.139260 0.230736
-0.051158 -0.478222 0.696079
-0.191124 -0.539534 0.332806
-0.139204 -0.512040 0.238470
0.210473 0.368385 0.506698
0.020945 -0.363068 -0.781312
-0.286428 -0.404878 0.650633
-0.374939 -0.490527 0.544757
0.232530 -0.391556 -0.358737
-0.628596 -0.233520 -0.359534
-0.546319 -0.002994 -0.024942
-0.299587 0.418242 0.355127
0.231737 0.706377 0.257466
-0.599924 -0.452535 0.043765
-0.127200 -0.569502 0.430533
-0.332850 0.271516 0.109753
0.267045 -0.397429 -0.347558
-0.111979 0.688339 0.624031
-0.673054 -0.138841 0.036468
0.124248 0.476228 0.589384
0.680011 -0.241746 -0.024883
-0.304272 -0.402757 -0.178889
-0.597360 -0.439373 0.181476
-0.082777 -0.372119 -0.326212
0.216595 -0.525889 0.206465
0.325475 -0.394386 -0.629350
-0.128605 -0.021854 0.572148
0.026233 0.846251 0.267400
-0.103531 -0.588899 0.603891
-0.645110 -0.069482 -0.069835
-0.202066 -0.371448 -0.637086
0.321188 -0.498908 0.569887
-0.000015 -0.478873 0.108068
0.053136 0.474683 -0.278885
-0.261024 0.306303 -0.109957
0.125022 0.266846 -0.202479
0.394637 -0.273237 0.541584
0.384571 0.413107 0.113055
0.294495 -0.091465 -0.803412
0.502356 -0.121250 0.279949
0.368934 0.023421 -0.081780
0.158488 -0.378415 -0.538416
-0.199890 0.193550 -0.069989
-0.317035 0.133831 -0.540891
-0.516436 -0.142182 -0.567100
0.171804 0.615139 0.517514
0.040599 0.795983 -0.162741
0.152007 -0.384712 -0.628038
0.335618 0.054138 -0.368557
-0.264772 0.205559 -0.652618
-0.238312 -0.369645 -0.526244
0.443802 -0.563561 0.216592
0.260311 -0.518420 0.154098
0.580563 -0.206435 0.255861
-0.303496 0.383299 0.350416
-0.221143 -0.364115 -0.420763
0.377615 -0.347162 -0.648505
-0.341777 0.068385 -0.228103
0.674026 -0.268396 -0.169323
-0.264960 0.076796 0.024442
-0.294791 0.386265 -0.102840
0.456241 0.052389 -0.494031
-0.432539 -0.142691 0.471089
0.471622 -0.495077 -0.062697
0.311475 0.645605 0.060982
0.518642 -0.062741 -0.529204
-0.618575 -0.418299 -0.066128
-0.268028 0.170585 0.192144
0.209744 -0.382938 -0.488835
-0.200983 0.123408 -0.468791
0.192885 -0.025258 0.526490
-0.304103 0.550721 -0.013443
0.611775 -0.083624 -0.178463
0.358588 0.026590 -0.743502
-0.226778 0.248895 -0.096090
0.331879 -0.076827 0.468599
-0.270724 0.608760 0.236739
-0.571796 -0.110287 -0.454103
0.311326 0.059186 0.095894
-0.586980 -0.032586 -0.355823
-0.396854 -0.501864 0.176939
0.525730 -0.344932 0.383055
0.043412 -0.404382 -0.173392
-0.004165 0.303750 0.547218
-0.631822 -0.053288 -0.193239
0.518645 -0.194679 0.333059
-0.472572 -0.005770 0.108245
0.019979 -0.269328 0.734911
0.511020 -0.084932 0.212626
-0.174455 0.098724 -0.145505
0.156096 -0.380900 0.719112
0.674397 -0.299320 -0.140266
0.114446 0.788586 -0.146307
0.109587 -0.291958 0.730238
-0.330902 0.049724 0.023521
-0.510553 -0.279455 -0.559115
0.273791 -0.419201 -0.201050
-0.248652 -0.039319 0.525167
0.459451 -0.295031 0.475515
0.438340 -0.497559 0.445779
-0.255513 -0.299601 -0.765871
0.236213 -0.480669 0.638772
0.172524 0.106791 -0.109058
-0.126754 0.047707 0.477994
0.265186 -0.460407 -0.040195
-0.239340 0.719748 0.197042
0.205688 -0.179111 -0.833946
-0.376820 -0.159309 -0.734612
-0.641682 -0.256975 0.236392
-0.307806 0.364945 -0.078325
-0.284767 0.188716 0.138644
0.495624 -0.502288 0.337838
-0.145520 0.102507 -0.167367
-0.001770 0.828581 -0.139185
0.059222 0.948794 0.029443
-0.495130 -0.005055 0.076092
0.500600 -0.407296 0.411110
0.562445 -0.054913 -0.001139
0.073275 0.035095 0.508546
-0.611750 -0.094098 -0.373085
0.316746 0.564926 0.239261
0.364852 -0.553215 0.222171
-0.042437 -0.486906 0.142085
-0.583623 -0.005507 -0.237335
-0.186083 0.150953 -0.809521
0.248264 0.671798 0.263951
-0.308444 0.554907 0.142771
-0.231157 -0.111770 0.608200
-0.112962 0.646650 -0.208126
-0.148438 0.807410 -0.080984
0.429056 -0.380292 0.512586
0.532927 -0.181213 0.301506
0.341347 -0.235351 -0.745634
-0.381600 -0.335226 -0.658053
0.528966 -0.522568 0.036137
0.034488 0.480894 0.580894
-0.325459 0.357911 0.294020
-0.336378 -0.379946 -0.356622
0.656089 -0.183319 -0.228448
0.037136 -0.152710 -0.872892
-0.220554 -0.362916 -0.463690
0.013439 0.152048 0.416436
-0.546219 -0.022127 0.085452
0.536118 -0.222076 -0.530594
0.646931 -0.365862 0.098616
-0.135869 0.261212 -0.173180
0.278980 0.264640 0.337020
0.321154 0.306293 0.312615
-0.594108 -0.018997 -0.073657
-0.406171 -0.290928 -0.667293
0.516350 -0.506260 0.274062
-0.305695 -0.030679 0.464125
-0.035320 -0.363372 -0.104300
-0.338375 0.097521 -0.464578
0.252241 0.234046 0.341360
0.179512 0.010034 0.490043
-0.620668 -0.429178 0.089457
0.177946 -0.617350 0.518288
-0.082137 -0.192081 -0.858706
-0.051210 0.423118 -0.267822
-0.335411 0.086948 -0.421060
-0.065124 0.226558 -0.833113
-0.009482 0.698457 0.536847
-0.217172 0.398985 -0.189988
-0.690424 -0.293683 -0.109342
-0.214966 -0.031896 -0.832121
-0.016486 0.357450 -0.263883
-0.664962 -0.364485 0.079859
0.202461 0.451568 0.607328
-0.271099 0.184269 -0.711113
0.168939 -0.386828 -0.317233
0.167389 0.146525 -0.842318
-0.324615 0.079753 -0.349014
0.554448 -0.251234 0.314009
0.553051 -0.475910 0.225196
-0.342680 0.296981 0.074808
0.125170 0.260636 0.458659
-0.627910 -0.104078 0.130771
0.291211 -0.549627 0.256532
-0.024762 -0.367958 -0.741282
-0.277160 0.078168 0.230911
-0.216413 0.199982 -0.593611
0.362087 -0.589318 0.405559
-0.372143 0.059837 -0.308245
0.163707 0.068065 -0.857081
-0.685722 -0.211861 0.073990
-0.110730 -0.086909 0.632932
0.386564 0.390574 0.160620
-0.419808 -0.269515 0.550348
-0.472430 -0.407265 -0.298113
0.133857 -0.383550 -0.660484
0.255836 0.415344 -0.179620
-0.100458 -0.606561 0.573557
-0.470764 -0.511222 0.181216
-0.367078 -0.195156 -0.737480
0.361994 0.057369 -0.424051
-0.298982 0.567654 0.179131
0.622494 -0.116642 0.036909
0.673473 -0.300257 0.062308
0.262827 -0.452728 0.634797
0.537094 -0.050419 -0.489082
-0.468388 -0.499447 0.140682
0.198412 0.570374 0.457334
-0.259530 0.134937 0.177652
-0.273070 0.202627 0.031285
-0.017277 -0.498161 0.690583
-0.087540 -0.549205 0.365402
-0.264144 0.590254 0.273609
0.235550 -0.391274 -0.513264
-0.059644 -0.134114 0.692246
-0.254247 0.268156 -0.082398
0.211013 0.117532 -0.502498
0.000268 0.418826 -0.275269
-0.074657 0.297312 -0.789240
-0.267671 0.094624 -0.263438
0.649184 -0.209225 -0.285853
0.664795 -0.185804 -0.185665
-0.089222 0.897690 -0.034188
0.214916 0.832085 0.024137
-0.364848 0.386000 0.127971
0.184308 0.853985 0.150305
-0.151040 0.548073 -0.220550
-0.130037 0.795353 -0.111055
0.513283 -0.506530 -0.055340
-0.133561 -0.466537 0.088654
0.357408 0.265127 0.143285
0.220830 -0.449158 -0.055501
-0.537743 -0.500213 0.215368
0.468173 0.026034 -0.546052
-0.015566 0.833956 0.279723
0.154946 0.834165 0.223883
-0.379196 0.103304 -0.489216
0.494869 -0.030479 0.035123
-0.303807 -0.376626 -0.344051
0.181435 0.207228 0.384997
0.198629 -0.582373 0.578824
0.650864 -0.151379 -0.023942
0.557842 -0.263988 -0.479111
-0.498010 -0.375432 -0.472636
0.374883 0.364282 0.013725
0.277924 0.455681 0.398772
-0.329257 -0.535478 0.306340
-0.541928 0.025779 -0.284238
0.066076 0.339133 -0.704919
0.202192 0.358092 -0.214171
-0.434921 0.029268 -0.169605
0.146626 0.182415 -0.838916
-0.547761 -0.274113 0.395360
0.240793 -0.226596 0.645173
0.158936 -0.384214 -0.690784
-0.294209 -0.345721 0.652328
0.250189 0.571402 -0.149183
-0.521001 -0.377804 -0.434136
0.376335 0.023796 -0.139105
-0.140203 -0.201403 -0.844967
0.222067 0.814496 0.161851
0.560081 -0.056605 -0.433387
-0.376168 -0.110846 0.495135
-0.318896 0.388689 0.317425
0.332092 -0.155208 -0.773106
0.040887 -0.135887 0.693460
0.145730 0.850342 -0.067235
0.186495 0.323300 -0.210000
-0.315907 0.537151 0.027249
0.389981 -0.439204 -0.234078
-0.205729 0.540352 0.409505
-0.092117 0.363620 0.614231
-0.633227 -0.367140 0.188881
-0.275267 -0.436288 -0.029916
-0.012945 0.776700 -0.174850
-0.112264 0.476778 0.559909
-0.201450 0.523826 0.469113
0.139289 0.148682 0.381459
-0.325012 0.038364 0.276136
-0.002550 0.703467 -0.213810
0.541395 -0.390167 -0.384048
0.154404 0.294933 -0.211052
-0.539187 -0.466675 -0.028677
-0.455361 0.002359 0.067347
-0.118160 -0.426113 0.706617
-0.310885 0.058844 0.213778
-0.158883 -0.364854 -0.741145
0.420350 -0.105674 0.384261
0.561213 -0.040906 -0.397862
-0.163699 0.772143 0.262556
-0.175327 0.167397 -0.544726
-0.252371 0.003888 0.456836
-0.143119 -0.598744 0.570326
-0.095401 -0.257782 0.716255
-0.514019 0.039957 -0.392492
0.373943 -0.227854 -0.722266
-0.293029 0.168457 -0.600491
-0.273076 0.341017 0.385535
-0.432254 -0.241332 0.529983
0.340074 0.546373 0.187450
-0.530232 -0.179760 0.374371
0.358572 -0.482732 0.546696
-0.527562 0.034574 -0.315856
0.269229 0.640434 0.259248
0.192690 0.240057 0.403520
-0.066616 0.485134 0.573200
-0.583302 -0.287663 -0.434662
0.432648 -0.151432 0.421889
0.251998 0.013114 0.427490
0.185255 0.817788 0.211520
0.015238 0.269533 -0.631481
0.078779 0.244926 0.460824
0.113530 -0.378750 -0.761536
0.217541 -0.018342 0.502372
0.170882 0.354770 -0.230816
-0.667654 -0.188242 0.143775
0.673987 -0.325162 -0.067614
-0.020915 0.347860 -0.773813
0.045130 0.432943 0.678247
0.271171 0.493227 -0.149673
-0.297802 0.067504 0.136981
-0.097331 -0.359392 -0.519894
0.150706 -0.071515 -0.864882
0.662001 -0.294074 0.102819
0.385817 -0.358366 0.557536
-0.338573 -0.380909 -0.477242
0.250560 0.049352 0.353324
-0.699445 -0.277234 -0.023308
0.435267 -0.473159 -0.121145
0.664713 -0.322909 -0.169794
0.307908 -0.427362 -0.196272
-0.686552 -0.322683 -0.053078
0.200247 0.168062 -0.575775
0.119187 -0.542502 0.294925
0.126366 0.109532 -0.306059
-0.397315 -0.425787 -0.108632
-0.564507 -0.253521 0.358677
-0.168131 -0.456809 0.685114
-0.370048 -0.440073 -0.040504
0.483464 -0.540946 0.263778
0.266972 0.178389 -0.756826
0.147012 0.824983 -0.095647
0.095613 -0.457515 0.017620
0.485094 -0.254144 0.427134
-0.066596 -0.023403 0.585999
-0.132386 -0.057361 -0.862056
-0.417175 -0.472961 0.065512
0.368808 -0.425919 -0.282961
0.597798 -0.103106 -0.369177
0.074001 0.442215 -0.274961
0.080313 0.116966 -0.466244
-0.175099 0.840677 0.022168
0.319980 0.149213 -0.695415
0.034615 -0.374180 -0.648462
-0.105889 -0.518183 0.253389
-0.117744 0.626652 0.495681
0.438286 0.002494 -0.640170
0.154355 -0.473117 0.055851
0.119020 0.342202 0.567115
-0.320784 0.429079 -0.063325
0.458673 0.004189 -0.208900
0.053575 -0.446810 -0.012492
-0.049533 -0.459462 0.052272
-0.007222 0.516207 0.565434
-0.282289 0.050856 0.320118
0.139664 0.888867 0.104113
-0.460267 -0.386700 0.509733
0.067405 -0.522243 0.240335
-0.194343 0.559948 0.529938
-0.154296 0.292518 -0.188490
0.085205 -0.014514 -0.878580
-0.115031 0.737997 0.327185
-0.678422 -0.205274 -0.214444
-0.659959 -0.377333 0.045369
-0.148516 -0.579516 0.467390
-0.119493 -0.322894 -0.796147
-0.369583 0.042732 -0.057426
-0.242941 0.162965 -0.556530
-0.293370 0.249670 0.272859
0.021380 0.748151 0.617378
-0.579646 -0.032869 0.055588
-0.392663 0.106287 -0.556378
0.154205 0.407365 0.640791
0.542904 -0.411920 0.331593
0.141177 -0.498679 0.146228
-0.352085 -0.417453 -0.126201
0.111060 -0.573856 0.404326
-0.033285 0.871889 0.220743
0.285218 0.147231 -0.591011
-0.058151 -0.554964 0.650863
0.320745 0.053124 -0.210267
-0.120433 0.665030 0.588076
-0.121735 -0.359019 0.729944
-0.622569 -0.039052 -0.152042
0.001619 0.464166 -0.278895
0.232747 0.084144 -0.307552
-0.119520 0.607297 0.445413
-0.190227 0.110655 -0.265391
0.453050 -0.383127 0.484315
-0.295814 0.592858 0.117849
-0.269232 0.162306 0.156641
0.493602 0.012953 -0.309950
0.151100 0.104328 -0.856238
-0.112738 0.148237 -0.105119
-0.680858 -0.125583 -0.078965
-0.363801 0.061003 -0.268870
-0.003688 -0.393411 -0.222881
-0.466472 -0.081055 0.348931
0.166353 0.227140 -0.627552
-0.635860 -0.175568 0.213862
-0.331134 0.051448 0.140963
0.269082 0.191433 0.272281
0.640084 -0.182522 0.119004
-0.174059 0.266569 -0.156382
0.158693 -0.088044 0.608755
-0.600120 -0.042355 0.023551
0.245582 -0.545779 0.257192
0.260959 0.373638 -0.172039
0.668041 -0.347104 -0.095097
-0.254434 0.588243 -0.105495
-0.111633 0.826540 -0.097167
-0.192354 0.746904 0.251371
-0.013844 0.672369 0.426061
-0.191427 -0.445532 0.010651
-0.067990 0.193377 -0.845415
0.316010 0.378036 0.357309
0.275064 -0.016828 0.451155
0.266659 0.675849 0.234543
-0.040282 -0.255327 -0.844740
0.117614 -0.162343 0.691332
-0.377693 0.027974 0.151618
-0.220093 0.005907 -0.827444
-0.010372 0.267315 0.496824
0.571389 -0.390538 -0.312574
0.199130 -0.140385 0.650528
-0.479459 -0.040417 -0.584806
0.373221 -0.052716 0.370184
0.017258 0.306951 -0.660650
0.374332 0.310142 0.166192
0.029894 0.745174 0.359644
0.117106 -0.587018 0.446889
-0.238963 0.457680 0.462385
0.476551 -0.055896 0.183798
-0.467976 -0.206991 0.478529
-0.317806 -0.217381 -0.766294
-0.623217 -0.363951 -0.259168
-0.489658 -0.116728 0.368708
-0.140998 0.371445 0.585117
0.651835 -0.282027 -0.247244
-0.593050 -0.095468 -0.412765
-0.070928 -0.581706 0.464306
-0.218805 -0.328492 0.702518
0.246753 0.784576 0.155161
0.084209 0.939455 0.100238
-0.405263 0.021915 0.051413
-0.070435 0.846964 0.242406
-0.572787 0.001798 -0.273526
-0.246224 -0.223770 -0.802542
-0.107734 -0.369706 -0.633107
0.480279 -0.260457 -0.602814
-0.021492 0.637847 0.633169
-0.665140 -0.217589 -0.275141
-0.074693 -0.098111 0.651846
-0.684214 -0.239561 -0.192369
-0.182791 0.112835 -0.302908
-0.414643 -0.518393 0.466115
-0.692797 -0.227235 -0.160842
-0.269347 0.091655 0.199062
0.024667 -0.371650 -0.611171
0.212735 0.548165 0.420352
-0.354155 0.334537 0.064679
0.539938 -0.371249 0.354281
-0.552655 -0.043169 -0.457080
0.189318 0.226232 -0.798448
-0.318093 0.292379 0.263781
0.658281 -0.212587 -0.250265
0.484917 -0.438287 -0.380989
-0.139673 -0.325696 0.729510
0.261239 0.636688 -0.103781
-0.127837 0.098811 0.407228
0.051198 0.275248 -0.637118
0.609576 -0.086906 -0.053434
-0.188140 -0.363257 -0.403768
-0.493890 -0.210799 0.449181
-0.087823 -0.340742 -0.791531
-0.150305 0.836553 0.190078
-0.239357 0.229121 0.340998
0.295186 0.070065 0.064683
-0.203578 0.709696 0.273932
-0.160676 0.146044 -0.512215
-0.002935 0.573907 0.606769
-0.385746 -0.012355 0.324326
-0.117249 -0.369876 -0.337362
-0.338490 0.489306 0.138938
0.629653 -0.376812 -0.186401
-0.520209 -0.476873 0.026732
0.140518 0.114129 -0.124835
-0.474758 -0.349117 0.497671
0.291296 0.175537 0.178038
0.247392 -0.179296 -0.815990
0.166120 -0.379958 -0.469464
-0.079408 0.311167 -0.229662
0.255686 0.208620 0.312652
-0.291299 0.179818 -0.678581
0.541423 -0.024760 -0.438461
0.342408 -0.110461 0.495558
-0.498999 -0.220061 -0.595245
-0.345598 0.471446 0.053446
-0.096089 0.917099 0.041659
0.255850 0.782152 0.119331
0.225443 0.589792 -0.169994
-0.696192 -0.202748 0.011200
0.587145 -0.172571 0.224495
-0.205719 -0.422316 -0.083947
-0.306425 0.079643 -0.230734
-0.011134 0.631132 -0.242501
0.105698 0.035828 -0.873491
0.457027 -0.011657 -0.613835
-0.373673 -0.430175 -0.081536
0.518154 -0.495765 -0.112097
0.393990 -0.576774 0.377574
0.113106 -0.377699 -0.725955
0.275660 -0.351082 0.643478
0.603097 -0.347090 -0.311891
-0.337530 -0.123510 -0.766132
0.005534 -0.305778 0.740286
-0.350524 -0.110528 0.519479
0.236500 0.202804 -0.081349
-0.510849 -0.037010 0.191065
0.539914 -0.517568 0.110219
0.211539 0.130892 -0.827705
-0.236171 -0.333341 -0.751472
0.206118 0.603557 0.566131
0.617081 -0.136155 0.114288
-0.260108 0.247920 -0.052962
0.215920 0.258542 -0.150667
-0.253567 0.631459 0.259296
0.238405 -0.463437 -0.014318
-0.171209 0.488671 -0.220284
-0.004124 -0.070038 0.630966
-0.374146 -0.030227 0.383669
0.346442 0.256536 0.041368
0.404179 -0.004310 0.092138
0.116388 0.112963 -0.269013
-0.243064 0.132948 -0.780212
-0.540315 -0.105447 -0.506243
-0.074911 -0.605625 0.546470
-0.560040 0.011205 -0.166875
-0.580881 -0.017114 -0.035145
0.230340 0.059366 -0.834275
0.464371 -0.012185 -0.103259
0.316007 0.155461 -0.657504
0.032208 0.355757 -0.717416
0.456775 -0.175067 0.412634
0.344359 0.035321 0.011750
-0.119382 -0.566344 0.627309
-0.272597 -0.579624 0.511171
-0.430927 -0.390396 -0.518836
0.587332 -0.374269 0.256974
0.443005 0.048282 -0.420640
-0.254899 0.171060 0.033350
-0.518103 -0.092348 0.288596
-0.320116 0.054112 -0.009427
0.238781 0.646562 -0.130053
0.255414 0.077928 -0.280156
0.092300 -0.421587 -0.113601
-0.668216 -0.117648 0.009045
-0.330683 0.442530 0.279184
-0.648247 -0.176490 -0.319771
0.323189 0.591210 0.164026
-0.344604 0.076911 -0.377673
0.670010 -0.339164 0.002839
-0.392608 -0.388490 -0.477950
0.269094 0.023570 0.382969
-0.274849 0.012300 0.419182
0.008761 0.331869 -0.684076
0.271641 -0.440479 -0.114688
0.204835 0.742918 0.257411
-0.310864 0.474402 -0.065275
-0.357617 0.087429 -0.691190
0.352827 -0.426868 -0.251763
0.474418 -0.546618 0.132089
0.435802 -0.180299 0.445807
0.468011 0.001275 -0.574915
-0.303132 0.547921 0.211621
-0.412575 -0.404214 -0.224844
-0.647595 -0.071128 -0.145363
-0.426580 -0.510723 0.197704
-0.103516 0.263016 -0.190591
-0.021627 0.431856 0.667265
0.110215 0.433022 -0.267074
-0.121231 0.624030 0.414688
0.028683 -0.372712 -0.350158
0.171875 0.330960 0.507297
-0.276555 -0.407643 -0.152340
0.398202 -0.428528 -0.341557
-0.017872 0.236422 0.461905
0.287324 -0.244436 0.620073
-0.038016 -0.229847 0.727513
-0.353496 0.323936 0.098873
0.284879 0.395791 -0.147335
-0.150708 0.200969 -0.115269
0.499909 -0.230019 0.392160
0.312415 0.044344 0.228379
0.387404 0.027964 -0.256353
0.327988 0.042643 0.151242
0.136023 0.081588 0.415469
-0.291333 0.004568 -0.787678
-0.155814 0.459406 -0.233012
0.621287 -0.160393 -0.356320
0.191517 0.665934 -0.171751
-0.173855 -0.528385 0.294543
-0.275094 0.622612 0.204495
0.093981 -0.491159 0.130235
-0.292856 0.270491 -0.025446
-0.237490 0.627425 0.290384
-0.260316 0.024119 -0.803016
-0.568676 -0.142638 -0.470515
-0.202410 0.761321 0.221132
-0.648679 -0.367453 -0.167254
0.273857 0.696582 0.198960
-0.414506 0.047064 -0.634058
-0.602829 -0.192017 -0.416868
-0.044539 -0.370960 -0.338587
-0.340112 0.383969 0.270574
-0.255386 -0.392987 0.669167
-0.431337 -0.175169 -0.682430
-0.186850 0.833456 0.077278
0.563536 -0.051446 -0.041523
0.583219 -0.471247 0.054269
0.190681 0.230663 -0.147514
0.111393 -0.524349 0.662534
-0.257913 0.555521 -0.119127
0.113053 -0.531673 0.261827
-0.037628 -0.500438 0.186036
0.361472 -0.325854 -0.678864
0.426535 -0.449849 0.494545
-0.001957 0.607081 0.621105
0.250707 -0.038271 -0.830323
0.670321 -0.200994 -0.019158
-0.152010 -0.122550 -0.854937
0.471028 -0.542980 0.299773
-0.409261 0.098741 -0.518673
0.297410 -0.470263 -0.028037
-0.024045 0.319314 -0.794566
-0.701533 -0.234271 -0.108635
-0.140200 0.514756 -0.235027
0.158468 -0.341163 0.716162
0.272959 0.664881 -0.063489
-0.288453 0.616197 0.033321
-0.096092 0.209004 -0.581122
-0.352820 0.397232 0.020445
0.091745 0.649538 0.461958
0.359321 0.444477 -0.004512
0.147438 0.114197 0.382069
-0.522745 0.019978 -0.146225
-0.563404 -0.447615 0.286147
-0.369532 -0.387768 -0.314276
-0.313288 -0.375318 -0.384960
0.338143 0.355318 0.312758
-0.055520 0.626864 0.627890
-0.170659 0.791859 0.227801
0.331256 -0.196591 -0.764015
0.049791 0.117024 -0.338139
-0.279741 -0.473134 0.103687
0.071972 -0.502944 0.683268
-0.204753 -0.369393 -0.558337
0.322390 0.440509 0.340582
0.646096 -0.228946 0.145718
-0.292890 -0.275681 -0.759174
-0.042682 0.585967 0.611537
-0.406403 -0.222719 0.546381
0.419561 -0.546728 0.164865
-0.532349 -0.234739 0.403463
0.148327 -0.024446 -0.866429
0.175864 0.266453 0.435951
0.562476 -0.380845 -0.355694
-0.088510 0.743190 -0.173556
0.278211 -0.529628 0.182506
0.096363 -0.563605 0.636211
0.248846 0.135094 0.021119
-0.456200 -0.537885 0.325264
0.066886 -0.614239 0.569632
-0.123277 -0.549055 0.364574
-0.631510 -0.378585 -0.196273
-0.527607 -0.003091 0.017081
-0.390555 -0.510658 0.210163
-0.335232 0.142555 -0.596824
0.065385 0.018088 -0.880533
0.362816 -0.595202 0.368860
-0.645221 -0.214624 0.219466
0.354089 0.498410 0.218764
-0.460560 -0.172104 0.464674
0.023596 0.900668 0.178145
-0.364421 0.355886 0.147800
-0.228027 0.535456 0.382853
0.330758 -0.466181 -0.065321
0.126178 -0.287959 -0.819810
0.583167 -0.430140 -0.185502
-0.054600 -0.400523 -0.182632
0.370165 -0.134886 0.486946
0.133843 -0.378241 -0.564793
0.396721 -0.143159 0.462415
0.383672 0.037635 -0.339303
-0.081339 -0.413724 0.713289
0.038005 -0.348472 0.741495
0.376015 0.444976 0.061798
-0.191365 -0.578135 0.467968
-0.299761 -0.522742 0.270629
0.475660 -0.220744 0.422553
-0.274463 0.558139 0.286425
0.180682 0.631781 0.360091
0.132949 0.143758 -0.853691
-0.173556 0.111181 -0.356059
0.219467 -0.389955 -0.545933
0.339997 -0.410135 -0.442655
-0.057140 -0.357824 -0.464034
-0.230432 0.772433 0.071320
-0.428222 0.057824 -0.341521
0.155532 -0.332726 -0.785965
-0.578090 -0.177058 0.304774
0.157027 0.362455 0.565145
0.379218 0.314693 0.129919
-0.260531 0.074367 -0.043591
0.151120 0.610632 -0.220004
-0.150456 0.227392 0.418255
0.034574 -0.500363 0.687843
-0.421699 -0.520869 0.236928
-0.296462 -0.100204 0.553187
-0.056293 0.335116 -0.246998
0.215374 0.124808 0.310805
-0.509223 -0.503635 0.136079
0.622906 -0.120222 -0.298751
-0.341072 -0.200138 0.587879
-0.527635 0.021034 -0.190712
-0.575662 -0.211253 -0.469492
0.017625 0.145133 -0.512863
0.013338 -0.369890 -0.743486
0.014905 -0.570602 0.417166
-0.270788 0.387559 -0.137848
0.140498 0.420873 0.671516
0.493169 0.020601 -0.359191
0.283096 0.623793 -0.070656
0.009731 -0.014142 0.580128
-0.059158 0.289704 0.517414
0.060891 -0.052997 -0.880865
0.048930 0.548253 0.589600
-0.242086 0.144977 0.258467
0.001864 -0.499902 0.177742
-0.621709 -0.067127 -0.305482
0.318248 -0.311971 0.613010
-0.127583 -0.358834 -0.757821
0.280219 0.114710 -0.786191
0.593728 -0.298503 -0.380875
0.128118 0.228129 -0.173967
-0.162888 0.097622 0.384310
0.315591 0.057581 -0.309977
0.038456 -0.548592 0.328843
0.237511 0.545341 -0.172419
-0.204038 0.087633 -0.821140
0.060876 -0.366666 -0.465137
-0.133030 -0.472002 0.686923
-0.265311 -0.176113 0.625924
-0.035343 0.682367 0.515460
0.592362 -0.338769 0.262251
-0.195968 -0.207973 0.693441
-0.181566 0.224841 -0.111976
-0.238404 -0.428067 -0.061234
0.401136 -0.214479 0.513126
-0.318838 -0.145587 0.571623
0.305416 -0.242628 -0.765143
0.121648 0.630179 0.624332
0.430728 -0.506843 0.013698
0.501210 -0.145691 0.308479
0.497719 0.004979 -0.270263
-0.440749 -0.191974 0.500948
-0.044304 0.166962 -0.534000
-0.057448 0.919061 -0.029466
-0.448649 -0.010094 -0.621761
-0.141149 -0.012361 -0.859506
0.035543 -0.559393 0.381012
-0.481898 -0.397444 -0.445640
0.029531 -0.598678 0.510812
0.156916 0.806016 0.254517
-0.013630 0.911472 0.155648
0.570080 -0.233550 -0.462145
0.055859 0.737858 0.609909
0.107890 -0.597037 0.487190
-0.193224 0.381846 0.533199
0.024110 0.263454 -0.218718
0.588850 -0.144477 -0.425780
0.169166 0.871528 0.039861
0.041383 0.191973 -0.854148
0.523193 -0.510059 0.239304
0.210551 0.237740 -0.763743
-0.173030 -0.504284 0.659286
-0.036232 0.318271 0.564496
-0.027950 0.808833 -0.151656
-0.189079 0.311905 -0.179559
0.303496 -0.018809 0.416757
-0.418144 0.042320 -0.270018
0.070604 0.342187 -0.257033
-0.069801 -0.039973 -0.877892
-0.290821 -0.377377 -0.572975
-0.006209 -0.108361 0.676404
-0.135430 0.115496 -0.356837
-0.027599 -0.574722 0.436397
0.278403 0.351444 -0.150724
0.596786 -0.119212 -0.401549
0.210624 0.133512 -0.038597
-0.551438 -0.259656 -0.505865
-0.196267 -0.434313 -0.034369
0.343415 0.128843 -0.675029
-0.297056 0.346254 0.347432
0.121690 -0.452358 -0.007491
0.481847 -0.172811 -0.621743
0.488172 -0.290252 -0.575177
0.361088 0.500379 0.178733
0.434096 -0.065260 -0.679151
-0.345660 -0.526755 0.274892
-0.317809 -0.333431 -0.707588
0.133198 0.104775 -0.437620
-0.477769 0.017599 -0.094411
-0.295862 0.147033 -0.721319
0.250606 -0.286661 -0.774439
0.168017 -0.599206 0.575303
-0.350576 -0.477521 0.100000
0.651010 -0.355068 -0.167418
0.603570 -0.323485 -0.338626
0.382990 -0.100159 -0.738073
0.159313 -0.416100 -0.153770
0.113259 0.443047 0.685812
-0.488502 0.046361 -0.314981
-0.080718 0.896090 0.127573
-0.014109 0.803314 0.311892
0.629790 -0.149294 -0.318295
0.452487 -0.182844 -0.660269
-0.258995 -0.527920 0.603279
0.069761 0.053971 -0.877989
-0.011182 0.892119 0.187163
-0.317823 -0.299754 -0.729380
-0.255177 0.715564 0.124427
0.367452 0.440946 0.240285
0.643720 -0.379166 -0.140815
0.639458 -0.255587 0.168020
-0.096655 0.871348 -0.062871
-0.115603 0.302978 -0.692514
0.330255 -0.531267 0.157629
-0.395292 -0.265300 -0.692356
-0.109994 -0.560776 0.401192
-0.402838 0.018490 -0.676476
0.131350 0.670964 0.634490
0.459269 -0.553593 0.164867
0.402980 -0.230767 -0.696953
0.490608 -0.081371 -0.591871
0.467542 -0.064993 0.217726
-0.147160 -0.159430 -0.851717
0.176203 0.859861 0.001694
-0.549765 -0.459510 -0.068686
-0.096449 0.878658 0.157945
-0.031141 -0.300974 0.739931
0.261877 -0.097141 -0.821058
0.492396 -0.129487 -0.601955
-0.234328 -0.367332 -0.386971
-0.082574 0.233489 -0.602289
0.337030 0.109264 -0.555796
-0.056214 0.756395 -0.178446
0.596835 -0.106649 0.105506
-0.236590 0.310719 -0.139816
0.432930 -0.008186 -0.086979
0.325700 0.265018 0.260960
-0.514487 -0.492568 0.087946
-0.677988 -0.156663 -0.212204
0.625856 -0.392713 0.135210
-0.162790 -0.430277 -0.050705
0.113187 -0.234166 0.713261
-0.353198 -0.375491 -0.637270
0.338191 0.075619 -0.747028
0.455561 -0.518766 0.037611
-0.377022 0.050648 -0.692559
-0.439554 -0.399548 -0.312930
-0.514122 0.034590 -0.432781
-0.139817 0.064225 0.444278
0.394437 -0.390538 0.545484
-0.087281 0.157247 0.401965
0.416103 -0.417196 -0.506017
0.145351 0.104787 -0.218277
-0.679921 -0.326582 0.065940
-0.470410 -0.022906 0.184575
-0.288066 0.342829 -0.098142
-0.331021 -0.431295 -0.062934
-0.153639 -0.476853 0.125592
0.478029 -0.488848 -0.098438
-0.151773 0.164982 -0.821882
-0.563405 -0.486768 0.100510
-0.275691 0.196925 0.228212
0.257635 0.463106 -0.171496
-0.539986 0.021809 -0.366375
-0.519302 -0.059040 -0.522478
0.014510 -0.583042 0.627632
-0.356635 0.438312 0.058991
-0.521774 -0.334328 0.438714
-0.317499 0.250463 0.197113
-0.391190 -0.353371 0.583314
0.499014 -0.471165 0.370844
0.067571 0.715413 0.651379
-0.219797 0.196242 0.333987
-0.489907 0.006220 -0.018687
0.010872 0.452763 0.627623
-0.299663 -0.575358 0.459820
-0.079444 0.446039 0.658581
0.372412 -0.384334 -0.604587
0.452280 -0.451169 -0.276463
-0.294558 0.584971 0.000399
-0.173758 0.720739 0.295415
-0.379993 0.053368 -0.236868
0.156736 -0.229915 0.702576
-0.338474 -0.084539 -0.765941
-0.331322 0.465882 -0.020980
-0.015895 0.197101 -0.162107
0.581795 -0.077470 -0.389909
-0.392657 -0.544740 0.445821
-0.273959 0.300937 0.358772
0.327406 -0.004558 0.348754
-0.347507 -0.545553 0.505962
0.605171 -0.365461 -0.280194
-0.053986 0.894731 0.154941
-0.077233 0.680223 0.558397
-0.159983 -0.592612 0.512062
-0.332564 -0.535570 0.538601
0.234125 0.505544 -0.186208
0.314382 0.052804 -0.012358
0.196382 0.533631 -0.212245
-0.126252 0.202102 0.410938
0.271550 0.750309 0.132866
-0.071232 -0.477474 0.117266
-0.299682 0.105172 -0.462964
-0.050726 0.687385 -0.213358
-0.460249 -0.520632 0.221849
0.179391 0.357285 0.531445
-0.671465 -0.225886 0.142377
-0.114082 -0.356538 -0.466599
0.186875 0.098587 -0.265069
-0.007031 -0.510723 0.215620
-0.637885 -0.064453 -0.033322
-0.271393 0.484865 -0.126526
-0.048110 -0.590715 0.496048
0.612578 -0.189825 0.193719
0.628016 -0.294322 0.203868
0.555955 -0.337655 0.329133
0.005108 -0.370040 -0.121233
0.108270 0.733739 -0.183677
0.609904 -0.108881 0.071462
-0.053036 -0.515895 0.678566
0.033994 -0.531403 0.274520
0.221394 -0.392894 -0.580850
0.493975 -0.520765 0.015938
0.656702 -0.189232 0.052115
-0.312238 0.236726 0.129462
0.131486 -0.611574 0.570181
-0.455055 0.010639 -0.014121
0.198414 0.594196 0.528859
0.296718 0.002203 0.388864
-0.192683 -0.393549 -0.208709
0.331179 -0.383061 0.602702
-0.267816 0.147001 -0.751897
0.534526 -0.129668 -0.523457
-0.021730 0.122182 0.423831
0.180413 0.804677 -0.086437
-0.180792 -0.039058 0.566518
0.252498 0.100325 0.255219
0.116326 0.224392 0.432576
0.222506 0.542713 0.457050
-0.194540 0.311464 0.452657
-0.383163 0.086015 -0.440302
0.158369 -0.525023 0.231146
-0.117160 0.151868 -0.843199
-0.419751 -0.054622 -0.686318
-0.053480 0.107167 0.428335
0.343893 -0.420640 0.584558
0.214457 0.531829 0.568640
-0.298541 0.117756 -0.741328
-0.301233 -0.387833 -0.256985
-0.262232 -0.446005 0.652057
-0.621952 -0.265301 0.269500
0.385044 0.066083 -0.462571
-0.571803 -0.429399 -0.192265
-0.480973 -0.432679 0.460549
-0.157368 -0.371040 -0.657997
0.108158 0.111151 -0.228605
-0.221081 -0.528219 0.295271
0.412865 -0.174988 0.472021
0.585526 -0.360228 -0.339211
0.292804 0.071167 0.184743
-0.197019 0.568545 0.569670
-0.285591 0.541418 -0.078067
-0.257672 0.152779 0.069951
-0.211211 0.104896 -0.357934
0.224894 0.568666 0.539282
0.008352 0.688935 0.398503
0.022819 -0.365671 -0.418362
-0.276466 -0.208906 0.634304
0.131769 0.219800 -0.611225
0.252469 -0.373887 0.658167
-0.309041 -0.081292 -0.785450
-0.430906 -0.421758 -0.145698
0.289547 0.251977 -0.072927
0.032497 -0.375046 -0.713547
0.237648 -0.485982 0.060617
0.168150 -0.399315 -0.232417
0.389183 -0.588327 0.334033
-0.314994 -0.563312 0.507728
0.307856 0.269828 0.299338
0.493166 -0.164358 0.344439
0.104575 -0.061583 -0.875180
0.159262 0.672605 0.612622
-0.041558 -0.185332 -0.864824
