-0.038892 -0.183618 0.134781
0.229625 -0.054645 -0.467044
-0.334939 0.031909 -0.011091
0.145183 -0.149944 0.810637
0.278775 0.149123 0.770652
-0.399805 -0.136218 -0.605965
0.304883 -0.144261 -0.422149
0.204717 -0.144930 -0.851699
-0.071840 0.059621 0.290863
0.345262 0.075936 0.826534
0.152662 -0.077387 0.700527
0.076819 0.037785 -0.726425
0.471319 0.056342 -0.506025
0.114396 0.071797 0.723300
-0.364873 0.028008 0.141080
0.172176 -0.043674 0.665851
-0.207509 -0.042781 0.609961
-0.112311 -0.126079 0.773202
-0.172054 0.080600 -0.687876
0.391333 -0.051242 -0.786847
-0.207282 -0.127303 -0.881232
-0.149040 0.152549 0.846613
-0.108298 0.195899 0.030880
-0.420786 -0.044817 -0.746152
0.238853 0.072203 0.549788
-0.478525 0.023976 -0.565110
-0.468931 -0.003693 0.646775
-0.099893 -0.126042 -0.924609
-0.190075 0.109992 -0.320847
0.206718 0.137588 0.291156
-0.230736 -0.155760 0.042494
-0.330305 0.147988 -0.552957
0.022241 0.105817 -0.961260
0.381964 -0.147025 -0.455093
-0.214435 -0.017541 -0.437097
-0.104531 -0.150461 -0.871160
0.234553 0.124982 -0.358729
0.360970 -0.150873 -0.615347
-0.067140 0.002636 0.991005
-0.450940 -0.078315 0.421295
-0.318910 -0.146287 -0.454862
-0.364638 0.144225 0.413793
-0.330458 -0.070094 -0.846876
0.006951 0.098646 0.963498
0.347605 -0.143290 0.715222
0.202083 -0.077306 0.930004
-0.422309 -0.081249 0.343993
0.349546 -0.009677 0.044333
-0.394590 0.113186 -0.713264
-0.424048 0.102706 -0.381104
0.161226 -0.019430 -0.966864
0.036661 -0.051351 -0.985646
-0.427398 -0.048025 0.315709
0.297517 0.046290 -0.885430
0.061190 0.080830 -0.274749
-0.207502 0.040645 0.614266
-0.333576 -0.149849 -0.686951
0.264519 -0.131536 0.023323
-0.294526 0.051802 0.886414
0.087145 0.135332 0.917541
-0.467724 -0.062972 -0.499252
0.422215 0.058108 0.308084
-0.369140 -0.121648 0.741026
0.279252 -0.136109 0.413168
0.185087 -0.035598 -0.954276
-0.303303 -0.083773 0.862045
-0.420162 -0.072187 0.721140
0.030942 0.149835 0.886364
-0.401382 -0.039536 -0.247993
-0.350613 0.059803 0.837857
0.142315 -0.105073 -0.289166
0.219063 -0.144101 -0.731613
0.305846 -0.133745 -0.205012
-0.051057 0.197254 -0.086221
0.267902 -0.151424 -0.722426
-0.260638 -0.138533 -0.661104
-0.044132 0.068433 0.276606
-0.242776 0.077532 0.511261
-0.256300 -0.095639 -0.489586
-0.259583 -0.078021 0.897777
-0.091150 -0.137623 0.794914
-0.228615 -0.042976 -0.548205
0.105045 0.074353 -0.292960
0.291209 -0.153206 0.296395
-0.357460 -0.105874 -0.239797
-0.030001 -0.039618 0.988755
-0.266190 -0.144371 -0.808548
-0.260040 0.136305 -0.057124
-0.027991 0.202806 0.043372
-0.076392 -0.092217 -0.960350
0.106499 -0.073368 0.966441
-0.198415 -0.062785 0.384319
-0.325463 -0.146961 0.314530
0.192943 -0.145279 -0.761578
-0.198495 -0.172208 -0.148770
-0.248844 -0.002711 0.932692
-0.276440 0.131979 -0.396089
-0.291452 0.147456 -0.236667
0.452877 -0.053137 0.660393
0.232018 0.062621 0.454070
-0.032030 -0.087753 -0.758632
-0.177227 -0.107236 -0.319259
0.367582 0.057984 -0.173794
-0.225972 0.039954 -0.553102
0.345060 0.006205 -0.857161
-0.248278 0.108929 -0.406168
0.210145 0.046561 0.607066
-0.027171 0.205133 -0.015721
0.260886 0.143521 -0.107169
-0.406964 -0.120498 0.385832
0.127514 -0.111758 0.937539
0.093232 -0.079049 -0.967425
-0.254698 -0.141717 -0.053322
0.426520 -0.071101 0.352082
-0.131179 0.034090 0.697675
-0.231685 0.126173 0.350462
0.231994 0.061841 -0.481136
0.282814 -0.144804 -0.192396
-0.203301 -0.154074 -0.256110
-0.118730 -0.141988 0.228731
-0.291180 -0.153876 -0.725787
0.072658 0.173316 0.165172
-0.016657 0.140296 0.919321
-0.287732 0.130096 0.526420
-0.329909 -0.149409 -0.373776
0.335126 0.113624 0.208338
-0.016477 -0.156113 -0.197694
0.175994 -0.094245 -0.931306
-0.361699 -0.146803 -0.446162
0.143670 0.136887 -0.771433
-0.063240 0.159947 -0.190141
0.297768 0.020276 0.891589
0.256092 -0.141230 -0.079872
0.201784 0.113339 0.326200
-0.068652 0.147039 0.892796
-0.165732 0.099532 -0.709814
-0.300863 0.147756 -0.261804
0.086089 -0.082474 0.743210
-0.124274 0.142472 -0.791485
0.061743 -0.203650 0.008334
0.252917 -0.156379 0.163591
-0.328004 -0.076500 0.091702
0.214285 0.008292 -0.445217
0.324922 -0.150879 -0.617316
0.175326 0.154259 0.221858
-0.360213 0.011364 -0.107450
0.362199 -0.153255 -0.561978
-0.064467 -0.185149 -0.144126
-0.439133 0.117364 -0.529650
0.383481 0.143802 0.418331
0.040782 0.181780 -0.148649
-0.171441 0.016505 -0.656784
-0.206822 0.090766 0.919015
-0.394303 -0.143363 0.598935
-0.332069 0.143904 -0.742041
-0.472968 -0.047303 0.571963
0.420638 0.109425 -0.654783
0.041103 -0.142959 0.814548
-0.482186 0.011530 -0.541698
0.322549 -0.143916 0.750348
-0.223723 -0.025271 0.540580
-0.439527 -0.040853 -0.353720
0.179718 -0.176138 -0.044977
-0.331020 0.147001 -0.319273
0.237217 -0.113138 -0.884048
-0.199215 -0.100518 0.341773
-0.172225 -0.038103 0.661332
0.261760 0.155712 -0.187989
0.351255 0.013545 -0.052532
-0.479403 -0.015807 0.551565
-0.435237 0.110636 0.562281
-0.260638 -0.144398 -0.343903
0.425895 -0.123384 -0.479539
-0.207646 -0.142961 -0.858595
-0.419408 0.076748 0.718966
0.333138 0.085547 0.140669
0.045488 0.006599 0.728485
-0.174892 0.135869 0.753323
0.262299 0.113569 -0.572922
-0.269793 -0.096836 -0.877566
0.357401 0.024322 0.119137
0.207050 0.145338 -0.849095
0.041478 0.150512 -0.844793
-0.100474 -0.195559 -0.087211
-0.122881 -0.126690 0.250394
-0.258060 -0.028440 -0.920493
0.425867 -0.123770 -0.570339
0.273706 -0.124555 0.585345
0.126366 -0.175436 -0.137225
0.451288 0.080162 -0.472592
-0.000473 0.000171 -0.999911
-0.184085 0.071472 -0.665744
-0.297373 -0.117583 0.119109
-0.379949 0.053401 -0.800565
-0.414869 -0.132050 0.470312
-0.228520 0.154976 0.781620
-0.286151 -0.131618 -0.460920
-0.305482 0.138488 -0.538243
0.061379 0.140657 0.914323
-0.428839 0.027607 -0.310598
0.002395 -0.184968 -0.137507
0.367921 -0.000207 0.121247
-0.118107 0.192240 0.057090
0.434288 0.005761 -0.732112
0.325918 -0.072847 0.077852
0.158342 -0.182471 0.119931
-0.449591 0.079152 0.461338
-0.269903 0.026584 -0.911293
0.005556 -0.125938 0.936940
0.400002 0.122667 -0.666531
-0.221372 0.013665 -0.555127
-0.298831 -0.143584 0.229533
-0.241612 0.130206 -0.342614
-0.266054 0.107967 -0.515099
0.235301 -0.078658 0.442291
0.153440 0.159092 -0.211923
-0.333382 0.150657 -0.353218
0.169474 0.140015 -0.882144
-0.203257 -0.012873 0.607011
-0.412079 0.087826 -0.718151
0.138059 0.042141 -0.972541
0.450124 -0.030841 -0.683688
-0.348697 -0.125673 0.760576
-0.251123 -0.143869 0.072760
0.264277 0.150062 -0.161789
0.270510 0.122335 -0.454249
-0.324631 -0.146088 -0.481014
0.353824 -0.109355 -0.231620
-0.263735 0.140662 -0.120682
-0.285645 -0.127311 -0.557956
-0.365098 -0.049816 -0.821821
-0.141694 -0.097588 0.723772
0.123481 0.152018 0.829724
0.185408 0.070668 0.663487
0.329435 -0.062030 -0.051252
-0.328695 0.062558 -0.050803
-0.144424 0.133964 0.258373
-0.215984 0.132373 -0.708335
-0.426010 -0.099913 -0.659095
0.358165 -0.071907 -0.175297
0.316443 0.127732 -0.206212
0.204187 0.024241 -0.948156
-0.203965 0.120289 0.699324
-0.266561 0.154650 0.194467
-0.397654 0.060223 -0.775754
0.155672 0.123188 -0.745327
0.296662 0.141322 -0.791092
0.218383 -0.016212 -0.456659
-0.325620 -0.056361 -0.048115
-0.167502 -0.112544 0.721239
0.067735 -0.144980 -0.903559
-0.292178 -0.137212 -0.801836
-0.393333 -0.112775 -0.347603
0.306550 0.088801 0.855783
0.042703 -0.145872 -0.825398
-0.464022 -0.031717 -0.434090
0.454789 -0.083918 0.536663
0.460885 0.029337 0.659925
0.353317 0.019976 0.091532
0.234594 0.152556 0.019636
0.265866 0.109210 0.479059
-0.207254 0.144457 -0.852069
-0.071721 -0.019002 0.299885
-0.039966 0.080063 -0.268138
0.203471 0.130878 -0.878068
0.297984 0.150995 -0.674260
0.394320 0.122412 -0.384358
-0.020422 -0.178138 -0.156863
-0.071245 -0.146962 0.212831
0.392107 -0.087126 -0.278382
0.305524 0.146496 0.260137
-0.350013 0.055232 0.115927
0.063421 -0.092948 -0.265286
-0.307867 -0.074823 -0.862118
-0.387992 -0.146413 0.487879
0.297237 0.149668 -0.253171
0.313088 -0.143532 -0.531106
-0.168464 -0.084654 -0.692027
-0.384931 0.144212 0.499706
-0.454886 0.045816 0.411596
0.115836 0.173764 0.165530
0.285026 -0.088565 -0.872122
0.248136 0.032469 0.925656
-0.176986 0.099840 0.927277
-0.203628 0.104558 0.352973
0.257056 0.113050 0.416730
-0.370972 0.084284 -0.787760
0.296074 0.131188 0.532013
0.412358 -0.060543 -0.754430
0.228025 0.150998 0.762363
-0.169203 0.150059 -0.849526
-0.170822 0.180970 0.073431
-0.126115 0.186948 -0.105142
0.369102 -0.152473 -0.536288
-0.176625 -0.082686 0.938042
0.226786 -0.019906 -0.508054
-0.067209 0.151994 0.845082
0.187871 -0.131212 -0.736541
-0.284339 0.102243 0.861027
0.337820 -0.057525 -0.077438
0.476507 0.029906 -0.505256
0.367638 -0.142037 0.688603
-0.396914 0.117399 0.373491
-0.215654 0.047205 -0.422233
0.141554 -0.190381 0.073449
0.129717 -0.081741 -0.299582
-0.198871 -0.111518 0.688527
0.336986 0.151799 -0.664654
0.298998 0.143466 -0.432668
0.014730 0.140819 0.916830
0.250330 -0.131325 0.660279
0.351086 -0.054476 -0.117172
-0.272700 -0.148248 0.697580
0.278915 0.127811 -0.092189
0.196219 0.112055 -0.692316
0.443086 0.112346 0.510865
0.226914 0.046996 0.557296
0.199871 -0.133849 -0.290336
0.105999 0.065479 0.973589
-0.046689 0.143096 -0.214774
-0.265607 -0.145677 0.325727
-0.279542 -0.113314 0.854959
0.156793 0.180652 -0.122124
-0.454918 0.016231 -0.679106
0.105740 0.144013 0.801758
0.265800 -0.144529 0.132014
-0.239455 -0.148565 -0.810588
0.390570 -0.143370 0.564834
-0.360393 -0.012863 -0.837502
0.284329 0.056655 0.893205
0.199426 -0.035932 0.624840
-0.290422 -0.143125 0.201073
-0.196367 -0.081502 -0.661180
0.211287 -0.123803 0.329634
-0.152607 -0.144501 0.783065
-0.082661 -0.039118 -0.982452
-0.165140 -0.111741 -0.720386
0.274987 -0.139220 -0.376164
0.086907 0.063614 0.289220
0.434015 0.062176 0.704609
-0.421093 -0.014191 0.282372
0.364749 0.006595 -0.833320
-0.430547 0.001096 0.302658
-0.137976 0.119711 -0.750397
0.065242 0.176957 -0.159481
-0.149923 -0.152822 -0.234584
-0.426569 0.113990 0.617908
0.427992 0.066003 0.336259
-0.396619 0.017205 0.219443
-0.439522 -0.071928 -0.390315
0.319264 -0.147138 -0.575304
-0.198221 0.012757 0.952591
-0.424154 -0.114635 0.643076
-0.010754 -0.200714 -0.080421
-0.391655 0.119941 0.703460
0.052239 0.080030 0.970948
-0.182213 -0.143759 -0.868563
0.318832 0.146249 -0.568938
0.189463 0.174388 -0.062724
0.045634 0.079377 0.752475
-0.227242 0.026355 -0.493796
-0.231817 -0.087746 -0.417212
0.439486 -0.069907 0.385983
-0.203500 0.075920 0.381480
0.438583 -0.074141 0.670963
-0.416500 0.115744 -0.660196
0.165026 -0.183653 0.010268
-0.235881 0.135507 0.694006
-0.315153 -0.080890 -0.007141
-0.480346 0.038602 -0.532662
-0.473366 0.038985 -0.590152
-0.080208 -0.199267 0.036283
-0.012975 0.146275 0.829258
-0.144865 -0.132492 -0.263032
-0.444714 -0.097648 0.442946
-0.243676 -0.154398 -0.285944
0.462671 -0.033084 -0.412895
0.357418 -0.085830 -0.198150
-0.176061 -0.063893 -0.669676
-0.444208 0.096038 0.603376
0.453474 0.016579 -0.378756
0.056373 0.203290 -0.012455
0.191985 0.174490 -0.117968
0.226172 0.008693 0.511050
0.243014 0.150090 0.071503
0.122123 0.152482 0.856248
-0.005503 0.178659 -0.153956
-0.292724 -0.107763 -0.046843
-0.181817 -0.109842 0.315938
-0.262963 -0.153767 -0.742984
0.315513 0.144890 -0.538384
0.195629 0.146946 0.258822
0.145415 -0.014515 -0.681267
0.259791 -0.147753 -0.162353
0.061178 -0.171400 -0.163992
0.437540 0.093343 -0.636320
0.044865 -0.142553 0.218135
0.328203 0.111233 0.180501
0.215206 -0.158171 -0.196018
0.038729 -0.012990 -0.292280
-0.290863 -0.149521 -0.359212
0.066339 0.121071 0.938203
-0.264908 0.143895 -0.337877
-0.327910 0.149980 -0.407693
0.225519 -0.162420 0.084568
0.258116 0.141420 0.092516
0.083099 -0.041653 -0.298557
-0.263754 0.134524 0.045396
-0.362972 0.097481 0.784824
-0.194998 0.015953 0.625410
-0.461597 -0.037279 0.409168
0.332051 -0.112770 0.196563
-0.265509 -0.138017 -0.079356
-0.215801 0.036061 0.940226
0.118792 0.153735 -0.854503
-0.235033 0.065588 0.484972
0.433220 0.092678 0.666196
-0.401920 0.102542 0.721505
-0.390572 0.076775 0.265596
0.369459 0.030008 -0.821296
0.299688 -0.111734 0.106998
0.397694 -0.019133 -0.226485
-0.235843 -0.120497 0.359876
0.070386 -0.199055 -0.046730
-0.096365 -0.126916 0.238795
0.366977 0.141755 0.688427
0.220164 -0.166007 0.213907
0.246257 -0.124536 -0.861021
0.375926 0.143571 -0.645198
-0.105628 -0.032706 0.981462
0.202893 -0.065168 -0.388056
-0.467196 0.053548 -0.614697
0.233116 0.051710 0.530317
0.139330 -0.115770 -0.743804
0.181747 -0.061029 0.948868
-0.229524 0.159111 0.073999
-0.336008 0.150190 0.533797
-0.097142 -0.108416 0.754760
0.303284 -0.126855 0.164232
0.413917 0.017319 -0.765417
0.217464 0.127116 -0.698577
-0.076362 0.079516 -0.968840
0.161305 -0.164120 0.209101
0.362378 0.145252 -0.670150
0.367268 0.063135 -0.811533
0.300712 0.147832 -0.756448
0.368052 0.033250 -0.156564
0.165497 -0.033402 -0.669002
-0.301764 -0.134140 -0.196926
0.392046 0.141315 -0.472387
-0.234223 -0.146109 -0.310249
0.135162 0.020914 -0.690287
0.422221 0.121602 -0.520461
0.084438 -0.056171 0.978574
0.313049 0.126223 0.198567
-0.080855 0.144213 0.809664
-0.278090 0.126016 0.066573
0.419450 -0.123831 0.497503
-0.236245 -0.091292 -0.603578
-0.158561 0.042021 -0.343375
0.233305 -0.090011 -0.608025
-0.136163 -0.116469 -0.745887
0.297480 0.132826 0.488477
0.062185 -0.130244 -0.793822
-0.192377 0.048544 0.947832
-0.132740 0.110670 0.283369
0.206271 0.097691 0.350813
-0.063986 0.055981 -0.733396
-0.057762 0.005478 0.296948
0.270943 -0.141158 0.380315
0.354157 0.108970 0.234594
-0.259401 0.120316 0.420281
0.336056 0.127171 -0.251439
-0.156484 -0.070038 0.953216
-0.233079 0.049233 -0.506022
-0.102304 -0.099216 0.954336
0.086033 -0.198919 0.076570
-0.300524 -0.136714 0.478105
-0.133149 0.146573 -0.231612
0.143290 0.146257 -0.877239
-0.350946 -0.079631 0.170691
0.391794 0.014206 -0.795995
-0.217827 -0.150160 -0.280353
-0.035961 0.111181 -0.247046
-0.472423 -0.004229 -0.445881
-0.469221 -0.031952 -0.460774
-0.337901 -0.143907 -0.726047
-0.184978 0.047630 -0.649701
-0.264926 -0.113183 -0.567182
0.130704 -0.084759 0.721802
0.431747 0.118188 0.580914
-0.083884 -0.115512 0.943799
-0.111181 -0.102244 -0.947930
0.004496 -0.143484 0.913709
-0.096662 0.056466 0.300807
-0.170381 -0.122497 0.282790
-0.343556 0.047618 0.082136
-0.177840 0.020733 0.649360
-0.334736 -0.151729 0.671805
0.260096 -0.016131 0.921329
0.047438 -0.061745 -0.741473
0.176755 0.121488 -0.726726
0.354280 0.092765 0.207457
-0.238154 -0.070384 0.543704
0.369720 0.068347 0.201842
-0.322380 -0.153624 0.356975
0.045724 0.171888 0.166525
-0.184548 0.143419 -0.262090
-0.338960 -0.068254 -0.108938
0.050394 0.083324 -0.751666
-0.264262 0.150854 -0.192930
0.012167 -0.134614 -0.804798
0.214495 -0.059709 -0.604800
-0.339888 -0.146742 0.337150
0.177013 -0.099833 -0.699323
-0.109915 0.079253 0.728570
0.390693 -0.140276 0.618395
0.020486 0.131685 -0.226575
0.201665 -0.143535 0.287799
-0.078863 0.071053 -0.281056
0.386594 0.146770 0.566086
0.097785 0.182714 0.137133
0.303447 -0.122849 -0.159229
-0.075726 -0.018740 -0.722050
0.236469 -0.163832 0.185517
0.328618 0.139448 -0.276665
-0.134884 0.098881 -0.728853
0.222984 0.159034 0.143448
-0.274475 -0.127777 0.075863
0.340185 -0.080928 -0.145505
-0.195422 0.159993 0.228727
0.213910 -0.104172 0.906497
-0.082759 -0.113322 -0.259477
0.224006 -0.122338 -0.681357
-0.362880 0.111135 -0.259244
0.407879 0.021839 -0.252927
0.149676 0.187892 -0.027838
-0.174015 -0.177957 0.055308
-0.052876 0.204208 0.003282
0.217177 -0.037895 -0.439560
-0.475804 -0.020764 -0.485171
-0.228624 -0.048130 -0.476253
0.261843 0.123375 -0.618470
-0.264016 0.142024 0.111485
-0.164146 0.156135 -0.212442
-0.434131 -0.019435 0.322326
0.120150 0.101521 -0.946764
-0.337816 -0.032320 -0.042637
-0.356360 -0.108909 0.782762
-0.362264 -0.116515 -0.756539
-0.374629 0.130603 0.361068
-0.442705 -0.046485 0.357995
-0.314241 -0.124244 0.192775
-0.372672 -0.096646 -0.770833
-0.058242 0.118656 0.778573
0.415794 -0.111062 -0.378907
-0.390213 -0.031628 -0.213728
-0.048190 -0.014844 -0.292409
-0.242277 0.160345 0.163600
0.472506 0.047565 0.585337
-0.315654 -0.134678 -0.785045
0.298753 -0.135327 -0.480254
-0.403767 0.129692 0.623067
-0.299913 0.150032 0.277242
-0.392523 -0.144212 0.457027
-0.206490 -0.169583 -0.176374
0.378159 0.143203 -0.449066
-0.183935 0.007377 -0.382854
-0.236557 0.151535 0.044719
0.363030 0.147415 0.399888
0.076046 0.145442 0.816687
-0.105341 -0.150820 0.830417
-0.248053 0.112167 0.881784
-0.194529 -0.018998 -0.391462
0.426295 0.101060 -0.419425
0.357965 -0.141978 0.362867
-0.163193 -0.151326 -0.844792
0.375609 0.025197 0.814849
0.427058 -0.114002 0.472831
0.182893 0.054686 -0.371533
-0.355101 0.010763 -0.081297
-0.169171 -0.126736 -0.742903
0.082296 -0.008226 0.717146
-0.189745 -0.044627 -0.378860
-0.094725 -0.071271 -0.969474
-0.245903 -0.098300 0.431529
0.117295 -0.047702 0.975225
0.292501 -0.145556 -0.636925
0.125309 0.193614 -0.014231
0.331835 0.110819 -0.190124
0.127554 0.110679 0.937038
-0.341217 0.143801 0.722088
0.326237 0.113527 0.809320
-0.289295 -0.138150 0.804739
0.063814 -0.084775 0.273076
0.316368 -0.081436 0.038015
-0.218460 -0.118900 0.336497
0.081834 -0.148014 0.825376
0.466261 0.071515 0.494093
0.288298 0.143523 0.198181
0.335721 0.152727 -0.439544
0.454709 -0.063596 0.436909
0.361385 0.112725 -0.263853
-0.074290 -0.094028 0.266563
-0.376088 -0.150135 0.511490
-0.331999 0.147458 -0.519618
-0.264151 0.111231 -0.556078
0.310401 0.119300 -0.816816
-0.302377 -0.145640 0.258866
-0.117547 0.077352 0.298932
0.282765 0.132235 -0.121496
-0.004174 0.193202 0.107435
-0.180592 -0.042864 0.954359
-0.309731 0.102651 0.838970
0.131072 0.005002 -0.981608
-0.340608 -0.041982 0.068524
-0.060877 -0.023105 0.988660
-0.198801 0.169930 -0.005318
0.262927 -0.142919 -0.128367
0.221191 0.075997 -0.415654
-0.183010 0.142407 -0.875253
-0.416982 -0.042882 0.284487
-0.081390 -0.143650 0.906764
0.354160 0.077422 0.179688
0.340174 -0.090648 0.821861
-0.344772 0.037990 -0.086895
-0.005770 0.203866 -0.043475
-0.388895 0.107300 -0.739363
0.351350 0.152872 0.619417
-0.125130 0.138220 0.903347
-0.266921 -0.110799 -0.512593
0.278751 -0.119869 -0.001000
0.335321 0.142252 -0.303584
0.481820 -0.006228 0.549030
-0.359901 -0.091044 -0.216285
0.100649 -0.115373 -0.255147
-0.438701 0.111702 -0.469775
0.370729 0.080678 0.225367
-0.461732 0.066224 0.593486
0.032669 0.124031 -0.939598
0.308071 0.149962 -0.313743
0.410420 0.128400 -0.605827
-0.150929 0.105541 0.935996
-0.164433 -0.153404 0.210221
0.190400 0.119332 -0.900668
-0.475295 0.054136 -0.557703
-0.353065 0.031269 0.842452
0.135916 -0.189750 -0.024067
-0.392048 0.144182 -0.456643
0.192927 0.167198 -0.197796
0.359707 -0.147189 0.444647
0.356164 -0.078793 -0.810679
-0.157992 0.037097 0.675652
-0.228380 0.062554 -0.575656
-0.096035 0.128960 -0.781888
-0.332887 0.121856 0.224297
0.197403 -0.092502 -0.670144
0.294316 0.105856 -0.049662
0.212416 -0.163089 -0.045192
-0.440426 -0.081364 0.393909
-0.300775 -0.138992 -0.508104
-0.282126 -0.127517 -0.827526
0.188066 -0.078580 -0.351865
0.243304 -0.128619 0.859398
0.323097 -0.079250 -0.082740
-0.286074 0.124836 0.107883
-0.328798 0.150610 -0.601206
0.392391 -0.111851 -0.318477
0.351083 0.084104 -0.814447
-0.018069 0.201302 0.071841
0.358377 0.046108 0.138547
0.203804 -0.108122 -0.912545
-0.108662 0.112925 -0.940851
-0.366235 0.151342 -0.461204
-0.252796 -0.149757 0.728967
0.160029 0.079491 -0.325856
-0.346409 0.083344 -0.818247
-0.327925 0.072720 0.079773
-0.427275 0.052191 -0.727583
-0.478488 0.005751 -0.481344
0.057418 0.141884 0.216908
-0.120362 0.006152 -0.698737
-0.170908 0.124855 -0.903269
0.164077 -0.130913 -0.750939
-0.043546 -0.144353 -0.908946
0.022960 -0.188315 -0.121170
0.160952 0.008442 0.968733
-0.354835 -0.141524 0.713095
-0.212341 -0.087000 0.921990
0.315830 0.117662 -0.165267
0.143104 0.050757 -0.692268
-0.162452 -0.164495 -0.208635
0.267015 0.138645 0.362433
-0.255398 -0.144554 0.100393
-0.228470 0.123082 -0.677432
-0.329479 -0.128097 -0.239203
0.154824 0.100793 0.934623
-0.417439 -0.127510 0.593508
0.267823 0.142748 -0.367247
-0.409418 -0.029096 0.260406
-0.050014 -0.137413 -0.223926
0.392131 0.041598 0.789284
0.201880 0.051452 -0.625651
0.171222 0.173546 -0.164793
-0.098093 -0.144621 -0.896537
-0.173361 0.140720 0.267753
-0.355420 -0.149974 -0.471819
0.104301 -0.024140 0.982232
-0.094177 0.137213 -0.226507
-0.251314 0.154865 0.765228
0.386441 -0.028379 -0.799648
0.266467 -0.154841 -0.270631
0.434039 0.071697 0.361721
-0.133637 -0.174863 0.135073
-0.203884 -0.056099 -0.940908
-0.334541 -0.113853 0.799447
0.052832 0.194512 0.097051
0.277384 -0.145205 -0.662314
0.020393 -0.199672 -0.079973
-0.152609 -0.178080 0.109257
-0.243561 0.060977 0.921241
0.287970 -0.126797 0.823499
0.262593 -0.144644 -0.685274
0.346838 0.142102 -0.721547
0.326749 -0.142960 -0.753303
-0.388430 0.142784 -0.421278
0.179632 -0.149936 0.842528
0.023109 -0.203217 -0.043497
0.041830 0.150226 -0.885386
0.426473 -0.015990 -0.298693
0.257000 0.137784 -0.037661
-0.017791 -0.191545 -0.116100
-0.039879 0.145358 0.905610
0.180874 -0.009697 0.960232
0.037649 -0.188435 0.129558
0.340250 -0.126165 -0.769612
0.107617 -0.039116 -0.714265
0.267075 -0.131265 0.633678
0.105881 -0.043617 0.306292
0.422292 0.095512 0.366009
-0.083359 -0.202119 0.003884
0.103166 -0.145411 0.809332
-0.181196 -0.141157 0.878454
0.403181 -0.028281 -0.777736
0.300351 -0.149768 0.372495
-0.205439 -0.030347 -0.413429
-0.462765 0.062916 0.478332
0.134802 -0.170755 0.184258
0.466105 0.026627 -0.639936
0.101183 -0.100879 -0.953672
0.244560 -0.113632 0.881983
-0.406716 -0.141939 0.510435
-0.114959 -0.020782 -0.705524
0.048105 0.201863 -0.038560
0.044925 0.203662 0.019991
0.328234 -0.113721 0.809686
0.434596 0.117073 0.484972
0.147557 -0.142505 0.889637
0.329078 -0.103076 0.166461
0.321523 0.077210 0.078436
-0.240595 0.154780 -0.122217
-0.331700 0.080400 0.110929
-0.103809 -0.181204 0.126895
-0.232235 -0.054336 0.496220
-0.227314 -0.029166 -0.524394
-0.041145 0.040255 -0.286571
0.220043 -0.023757 0.450549
0.383888 -0.049446 0.795806
-0.012165 0.083932 -0.263357
-0.421202 -0.089274 -0.693888
0.155390 -0.151556 -0.849458
0.095513 -0.174935 -0.156116
0.294437 0.152966 -0.728307
-0.027255 -0.079226 0.753193
0.170368 0.042904 0.665122
-0.078597 0.172085 -0.167712
-0.032828 0.125505 0.937758
0.308059 -0.096205 0.083320
0.264882 -0.106363 -0.528392
0.098569 -0.066990 0.294598
-0.177522 0.117838 -0.296149
0.114277 0.188602 -0.105565
0.382343 -0.145141 0.536110
0.440298 0.021396 -0.710661
0.182928 -0.045862 -0.372159
-0.325252 0.148779 0.456800
-0.172370 -0.006401 0.652980
-0.143226 -0.043532 -0.970165
-0.411476 0.086454 -0.323177
0.253600 -0.089949 0.895738
0.066636 -0.077380 -0.970973
0.403513 0.117395 0.367177
0.139069 -0.128191 0.913386
-0.214096 -0.027936 0.587538
0.315805 0.057699 -0.867429
-0.298960 -0.129413 -0.162310
-0.432824 -0.022398 -0.322323
0.140878 0.013394 -0.338913
-0.354264 0.136894 -0.310842
0.219362 -0.126498 0.876278
-0.317169 0.077816 0.055923
-0.197129 -0.057504 0.638875
0.477709 0.021428 0.575654
0.378714 -0.142563 0.649238
0.132059 -0.012187 -0.333381
-0.185046 0.026226 0.381784
0.178080 0.099805 -0.328932
-0.248404 -0.143177 -0.692982
-0.146539 -0.110300 -0.292227
0.265194 -0.076497 -0.894719
0.284958 -0.142065 -0.802044
-0.125856 0.123362 -0.921126
-0.212430 0.147907 0.834673
-0.181741 0.176770 -0.024833
-0.097259 0.182551 -0.137875
-0.193275 0.165750 -0.168503
0.361991 -0.059591 0.163601
-0.400818 -0.010689 0.228870
0.160272 0.043438 0.344356
0.172441 0.143512 0.877405
0.336037 0.062588 -0.847867
0.139828 0.027716 0.688360
-0.091501 -0.182635 -0.152818
0.006250 0.078919 -0.755244
-0.045388 -0.114196 -0.775685
-0.478066 -0.046621 0.529871
-0.315737 -0.083585 -0.063003
0.388092 -0.137245 0.434655
0.176461 0.034120 0.363123
0.344345 0.069724 -0.126079
-0.086591 0.119647 -0.245846
-0.296120 -0.099657 0.015784
-0.137023 0.126017 0.759242
-0.195651 0.147799 -0.771438
-0.418023 -0.111389 -0.419690
0.171611 -0.057261 0.353373
-0.076791 -0.182630 0.129898
-0.118999 0.045449 0.317276
0.392893 -0.051074 -0.230391
0.172302 0.096637 -0.698897
0.258673 -0.124688 0.401029
-0.423843 -0.099396 0.375643
0.474128 -0.048807 0.509463
-0.389939 0.014854 -0.205058
-0.208355 -0.168208 -0.202921
0.009042 -0.089629 0.261840
-0.067851 0.199592 -0.065113
-0.236664 -0.084860 -0.908563
0.203518 -0.014156 0.608938
-0.400069 0.143349 -0.565358
0.284947 -0.004069 0.904434
0.209515 -0.146608 0.752934
0.242748 -0.066234 0.918207
0.034465 -0.143464 0.914452
-0.296399 0.131903 -0.502469
0.040243 -0.204250 0.033903
-0.014381 -0.114510 -0.951989
-0.023130 -0.205970 0.009433
-0.212510 0.169367 0.144125
-0.199065 0.026180 0.407383
-0.259958 -0.120756 -0.857618
-0.057221 -0.070342 0.278122
-0.385615 -0.071713 -0.777728
-0.434333 -0.015310 -0.728956
-0.336509 -0.024182 0.860840
0.347163 -0.024104 -0.064078
0.234996 0.079099 -0.453088
0.199677 -0.134458 -0.876622
-0.208955 0.110594 -0.907002
-0.011204 -0.169214 0.170467
-0.148859 0.077915 -0.704515
0.293394 -0.134983 -0.445694
-0.109135 -0.146460 -0.812307
-0.161166 -0.089968 0.705847
-0.111774 0.057084 0.714211
-0.376851 -0.099301 0.767183
0.118690 0.059339 -0.311968
-0.213788 -0.108059 -0.664400
0.417172 0.104815 -0.390668
0.129883 0.156018 0.201866
-0.322921 -0.146260 0.544954
-0.388753 -0.143828 0.430455
-0.374814 -0.022579 0.166793
-0.422066 0.077146 0.351510
-0.188888 0.052410 -0.949088
-0.200948 0.168497 -0.041970
0.188956 -0.151951 -0.795666
-0.194923 0.150889 0.256092
0.086463 0.106303 0.953134
0.265010 0.074919 0.895633
-0.218215 0.108071 -0.356543
0.247083 -0.094963 0.575652
-0.446362 0.089738 -0.627931
-0.049905 -0.119881 0.783971
-0.088600 0.013196 0.715452
0.201532 -0.173997 0.127633
0.296392 -0.111177 -0.068660
0.351199 0.108629 -0.229550
0.292670 0.133092 0.173707
-0.466939 -0.012932 0.425743
0.320451 -0.128272 -0.788807
-0.151476 0.135362 0.897671
-0.036633 0.177112 -0.156893
-0.179655 -0.005660 -0.643264
0.369710 -0.132129 -0.710105
-0.138963 0.187343 0.089162
-0.263752 -0.148014 0.182509
0.164141 -0.179844 -0.077435
-0.130685 0.145254 0.236139
-0.338545 0.143449 0.317894
0.285979 0.142091 0.800652
-0.176337 0.118992 -0.725147
-0.059906 -0.038890 -0.290989
-0.076331 -0.012288 -0.301337
-0.285867 -0.126526 0.548359
0.432159 0.037737 0.324596
0.451160 0.107957 0.536433
-0.432337 -0.111909 0.615581
0.416756 0.079337 0.720180
-0.299566 -0.103362 -0.078622
0.254244 -0.146717 0.806968
0.395039 0.091265 -0.304447
0.062878 -0.144388 0.904790
-0.286009 -0.070907 -0.882805
0.149085 0.053700 0.689246
0.120340 -0.063666 -0.970644
-0.364075 -0.052390 -0.163628
0.036645 -0.136226 -0.921400
0.231368 0.081640 0.414815
0.372629 -0.079911 -0.789289
-0.467636 -0.052983 -0.599404
0.116613 0.130738 -0.248720
0.359681 -0.069229 0.816156
-0.112338 -0.029024 0.314144
-0.038377 -0.004695 0.994372
0.157032 0.028153 -0.674722
0.048125 0.108314 -0.955615
0.154678 -0.151954 -0.817155
0.263624 -0.153876 0.304092
-0.247733 -0.125987 0.652977
-0.071799 0.174313 0.165056
0.050925 0.054300 0.983615
-0.264507 0.111127 0.546850
0.445138 0.069822 0.389064
0.433635 -0.112964 0.518071
0.447443 -0.110086 -0.533909
-0.325834 -0.143235 -0.750190
-0.132513 -0.087690 -0.300564
-0.289962 -0.143515 -0.625529
0.202839 -0.013799 -0.418660
0.013993 0.078606 0.753509
0.011567 -0.012419 -0.288998
-0.093333 0.151009 0.835204
0.464767 -0.047751 0.458539
-0.079331 0.143506 -0.908025
0.442164 0.104851 0.601278
-0.165696 0.011861 -0.357916
-0.057461 0.131131 0.926396
-0.037386 -0.144016 0.818148
-0.016669 -0.122069 -0.789999
-0.279892 0.134562 0.433333
0.421269 0.074680 -0.717181
-0.371560 -0.004572 -0.142123
-0.048667 -0.097613 0.763105
-0.122062 0.154430 0.850912
0.462835 0.058747 0.636704
-0.048628 -0.161300 -0.191208
0.399378 0.112121 0.706228
-0.181735 0.123363 0.725338
-0.194171 -0.138241 -0.739559
0.430124 0.012883 0.307612
-0.039159 -0.060286 -0.740310
0.084098 0.201162 -0.016524
0.440050 0.059063 -0.690633
0.129370 -0.151611 -0.857765
-0.110697 0.174134 -0.164673
0.248097 0.147463 0.719775
-0.071273 -0.007623 0.721778
0.340195 0.151389 -0.547986
0.355501 -0.092238 0.208798
0.286049 0.142645 -0.399344
0.275140 -0.127459 0.437898
0.276385 -0.122140 0.467506
-0.294875 0.108197 0.077587
0.335275 0.111212 -0.808469
-0.143742 -0.067804 0.700768
-0.290411 -0.107835 -0.020334
-0.385080 0.080707 0.770252
0.019432 0.199780 -0.081894
-0.049985 -0.143352 0.911069
0.108962 -0.042571 0.711767
-0.413252 -0.062589 -0.299699
-0.313104 -0.143779 -0.546291
-0.144340 0.185446 -0.085459
0.454110 -0.079882 -0.447727
0.264382 0.135578 0.832163
0.219835 0.073650 -0.617150
0.260083 0.137360 -0.830771
0.410144 0.137116 0.474646
0.077453 -0.043870 0.727523
0.379440 0.145471 0.630724
-0.367773 0.120059 -0.295550
-0.287693 -0.119193 -0.097356
-0.010951 0.025595 -0.993570
0.386969 -0.071227 0.246620
-0.181409 -0.172702 -0.190619
0.017387 -0.206821 0.006606
-0.222373 -0.016051 -0.473738
0.315607 -0.134994 0.232489
-0.362021 0.067110 0.815123
0.094004 -0.092060 -0.274262
0.361735 -0.127899 -0.738043
0.234457 0.010526 0.938058
0.077476 0.201640 0.015431
-0.231616 0.158884 -0.200748
0.274259 -0.116952 -0.853174
0.339620 0.025084 -0.028888
0.108513 -0.016859 -0.983535
-0.261906 0.154262 -0.231727
0.023171 0.079602 -0.268330
-0.231384 -0.145437 0.286606
0.238320 -0.152948 -0.182044
0.220017 -0.075010 0.409915
-0.383065 -0.069921 0.785040
0.111087 0.141303 0.228652
0.083369 -0.057073 -0.979821
-0.134705 0.079872 0.957380
-0.455429 -0.079917 -0.576737
-0.471814 -0.022739 0.458870
-0.374305 0.036583 0.813305
0.352728 0.135906 -0.324563
0.234417 0.077161 -0.578096
-0.220578 -0.158614 0.219726
-0.217411 0.065115 -0.933177
-0.077717 -0.145822 -0.817156
0.177484 0.119463 0.907909
-0.140793 0.053543 -0.324073
-0.139253 -0.191026 -0.039497
0.028510 0.143264 0.815686
0.228106 -0.023307 0.511347
-0.455989 -0.088619 0.495556
-0.059691 0.120900 -0.239723
0.404386 -0.135705 0.586172
-0.256919 -0.147896 0.297879
-0.417813 0.044822 -0.752216
-0.043475 -0.190895 0.105905
-0.016800 0.088303 0.971471
0.235865 0.064131 -0.922800
0.061003 0.039025 0.731035
0.295734 0.136354 -0.187812
0.215033 0.153850 0.787587
-0.222056 0.016385 -0.469735
0.154510 -0.111043 0.929212
0.390938 -0.112176 -0.723192
0.292288 0.150937 0.683845
-0.293834 0.080770 -0.870598
-0.333396 0.063903 -0.080777
-0.266500 0.135467 -0.094779
0.124977 0.191729 -0.044062
0.277625 0.122619 -0.029742
0.145980 -0.096885 -0.720548
-0.392648 0.014229 0.794870
-0.206656 0.053099 -0.397889
0.052871 0.134915 0.802909
0.127870 0.182159 -0.129538
-0.356385 0.046872 -0.831685
-0.000313 0.056684 0.279919
-0.286000 0.143306 0.633553
-0.480169 0.021089 -0.503546
0.212925 0.109043 -0.667060
-0.261274 0.002612 -0.923133
-0.401124 0.144065 -0.535463
-0.247267 -0.094173 0.573362
0.315469 -0.150079 0.715786
0.264259 -0.141784 0.104272
-0.214708 -0.103047 -0.366911
-0.196737 -0.094794 -0.921116
0.154059 -0.036990 0.340109
0.227448 0.124402 0.333966
0.377766 0.140484 -0.412288
0.309835 -0.145675 0.258219
0.358397 0.138712 0.322531
0.204138 0.097784 0.667334
0.236547 0.151068 -0.015931
-0.389924 0.143747 0.580508
0.287760 0.127518 0.137720
0.285521 0.122699 0.106026
0.009974 0.201211 0.072052
0.074764 0.094056 0.265907
0.368141 0.014106 0.144437
0.336003 0.151650 0.591162
0.045741 0.159410 0.190198
-0.072142 0.143918 -0.811424
-0.206095 0.144063 0.742212
-0.332168 -0.114122 -0.199466
-0.357861 -0.078341 0.808968
0.129070 0.041910 0.318024
0.389115 -0.013149 -0.198843
-0.039592 -0.138158 0.218765
-0.145858 0.078525 -0.309602
-0.233511 -0.026011 0.935995
0.088671 -0.130302 -0.785881
-0.454607 -0.081411 0.602516
0.260572 0.152274 0.201914
-0.168578 0.000136 -0.966916
-0.363144 0.149689 -0.425594
0.214604 0.026225 0.586828
0.297877 -0.137343 0.559291
-0.376468 0.027926 -0.812925
-0.294044 0.103146 0.014211
0.411495 0.064415 -0.298342
-0.407032 0.129903 0.473905
-0.010876 0.086482 0.759927
-0.044843 0.023283 0.990637
-0.018446 -0.085262 0.262078
0.450807 0.042016 -0.388067
-0.300559 0.146723 0.764589
0.269464 0.127934 0.029736
0.108012 0.019544 -0.982635
0.275442 -0.044976 -0.902650
-0.243172 0.078681 -0.547812
0.290590 -0.147048 0.220225
-0.277371 0.139402 0.138442
-0.462167 0.044428 0.445535
-0.041285 -0.092057 0.965014
0.348973 -0.151612 0.473224
0.229852 -0.148426 0.297485
-0.470319 0.040025 0.594403
-0.172472 -0.061704 -0.952621
0.414150 -0.123430 -0.414884
0.173130 -0.175187 -0.109404
-0.238402 0.144393 -0.832007
0.371763 -0.140795 0.390751
-0.381721 0.143878 0.472989
0.337244 0.143428 0.739066
-0.323652 0.109611 -0.161171
-0.295838 0.143124 -0.603762
-0.074623 0.081937 0.746161
-0.259423 -0.147353 0.153147
-0.329602 0.129958 -0.247322
-0.463241 0.048454 0.633592
0.420905 0.027706 -0.292958
0.150862 0.187815 -0.000725
-0.384903 -0.139860 0.657815
0.174338 0.143828 -0.766928
0.001936 -0.126976 -0.230591
-0.233309 0.085000 -0.601232
-0.147299 -0.125937 0.753964
-0.326762 0.149468 0.361056
-0.472061 0.002088 0.447933
0.030047 0.051742 0.739374
-0.117400 0.078050 -0.725621
-0.399804 -0.134971 0.634772
0.084721 0.013616 -0.717149
0.198588 -0.149595 0.779450
0.202751 0.161653 -0.227195
0.425947 0.041103 -0.316510
0.442366 -0.111070 -0.501051
0.223000 0.029871 -0.477890
0.141975 0.076810 0.708075
0.423766 0.111533 -0.447131
-0.243635 0.126922 0.660498
-0.222527 0.165412 0.119518
0.186247 0.143871 -0.271772
0.085690 0.078819 -0.966694
0.303387 -0.035264 -0.884489
-0.317597 -0.095174 0.109858
-0.185359 0.176194 0.051834
0.307902 -0.088813 0.011467
0.296193 -0.150838 0.740807
0.425436 -0.088186 -0.363269
-0.412941 0.132731 -0.586859
0.323298 0.078629 -0.076296
-0.171271 0.153546 0.830469
-0.055919 -0.203989 -0.010281
0.448363 0.073726 -0.439472
0.371330 -0.045514 -0.173908
0.145538 0.132504 0.253356
0.386003 0.067781 0.783561
-0.182018 0.080410 0.349462
0.051401 -0.111368 -0.249697
-0.031408 0.113988 0.778671
0.452717 -0.032880 -0.380704
-0.389529 0.137087 -0.393092
0.296952 0.112000 0.084063
-0.454129 0.031459 -0.382759
0.225286 -0.167281 0.157413
-0.240944 0.152093 -0.075335
-0.227334 -0.017836 -0.499703
0.455342 -0.085657 -0.582608
0.262446 0.119068 0.605774
-0.006555 -0.022003 0.994758
0.455779 0.018748 0.382497
0.188955 0.173392 -0.144648
0.109033 0.193214 0.075791
0.329169 -0.080008 -0.841665
0.164384 -0.030821 -0.353329
-0.166993 0.056830 0.957286
-0.238347 -0.154421 -0.070421
-0.272636 0.143462 -0.655957
0.126801 0.077632 0.959400
-0.373101 0.144232 0.645627
-0.179516 -0.150022 0.843393
0.251125 0.099671 -0.468927
-0.315155 0.104759 -0.129605
-0.017545 -0.087097 -0.972253
0.156816 0.060520 -0.960368
-0.409799 -0.122205 -0.442964
0.275723 -0.016150 -0.909474
0.008477 -0.150896 0.883816
-0.456230 -0.010090 0.381598
-0.027671 0.115212 0.244811
0.479174 -0.005109 0.576475
-0.425218 -0.112557 0.409140
-0.227565 -0.144910 -0.840362
-0.254353 -0.111488 -0.593812
-0.343127 -0.116766 0.232252
-0.296504 -0.105921 0.046764
-0.345185 0.130385 -0.279257
-0.050117 -0.047642 -0.985740
-0.209307 -0.093168 0.366272
-0.037184 -0.068266 0.978879
-0.132364 0.147065 0.879195
0.245015 -0.075987 0.499563
0.073536 0.199470 -0.047487
0.317708 -0.119692 -0.184926
-0.173675 -0.179823 0.014558
-0.169042 0.145905 -0.779283
0.423612 -0.006323 0.285441
0.325296 -0.034314 -0.867670
0.286179 0.110877 -0.004100
-0.402869 -0.054508 0.771510
0.393479 -0.064385 0.773761
-0.292903 -0.146490 -0.223370
-0.042662 -0.151178 -0.881345
0.273090 -0.147323 0.786736
-0.350338 -0.068103 -0.144754
0.141567 0.106670 0.730381
0.155580 0.186122 0.026898
-0.123262 0.150446 -0.823258
-0.034924 -0.020978 -0.992259
0.342906 -0.140524 -0.297500
0.023611 0.015132 -0.994623
0.199675 -0.163381 -0.169147
-0.239923 -0.153505 0.120491
0.225152 -0.143550 0.721258
0.197523 0.022312 -0.623628
0.333158 0.089506 -0.142117
-0.039930 0.173246 0.165308
-0.467892 -0.059889 -0.561673
0.348410 -0.152123 -0.503730
-0.209536 0.011720 -0.948154
-0.088494 0.164680 0.184990
-0.294557 -0.143917 0.618781
-0.302361 0.141320 0.477518
-0.249170 -0.088432 0.459484
-0.229336 -0.127923 -0.342450
-0.218989 -0.072082 -0.925555
0.339980 0.148280 0.691672
-0.376230 -0.094658 -0.262310
0.083948 -0.106316 0.266462
0.147990 -0.185221 -0.049346
-0.247413 0.028105 -0.927283
0.013938 -0.074798 0.753538
-0.214977 -0.166929 -0.074941
0.179469 0.086316 0.684245
-0.207771 -0.112451 0.905003
-0.279354 0.146334 0.363271
-0.074723 0.018828 -0.722034
0.107931 0.120620 0.251732
0.039781 -0.029324 0.732787
0.232810 -0.024531 -0.936521
0.361805 -0.026824 -0.831221
0.317402 0.151651 0.705154
-0.021552 0.163318 0.182912
-0.120592 -0.179256 -0.163941
0.442081 0.102822 -0.531116
0.017368 0.026511 0.735277
0.228230 -0.111710 -0.368843
-0.372676 -0.147057 0.634889
0.326419 -0.147457 0.560258
0.369631 0.123831 -0.729543
0.144332 0.058367 0.964571
0.329384 0.127562 0.239604
-0.283053 -0.123656 -0.486221
0.041837 0.124733 0.233120
0.060564 0.197843 -0.079696
-0.036445 0.017869 -0.992585
-0.082099 0.201998 0.007471
0.277339 0.151370 0.313614
0.131820 -0.060019 -0.317572
-0.208340 -0.127372 0.707650
0.213844 0.053708 0.411766
0.074976 -0.030744 0.298249
0.452519 -0.002375 -0.688146
0.096404 -0.014223 -0.310788
-0.412386 -0.111234 0.680370
-0.297792 0.113181 -0.102713
0.324472 0.145206 -0.738227
-0.401479 0.017240 -0.237317
0.381419 0.012656 0.180928
0.242100 -0.156724 0.136009
-0.419426 0.110501 0.423059
-0.325245 -0.146714 0.468106
-0.259138 0.141900 0.080488
0.128974 -0.193321 0.043768
-0.228816 0.031724 -0.527113
0.231321 0.145456 -0.726506
-0.108569 0.155234 -0.848681
-0.041080 0.136209 -0.921161
0.355803 0.153114 0.474864
0.244790 -0.078051 -0.496806
-0.457758 -0.059036 -0.438492
-0.328568 -0.149139 0.571965
0.028078 -0.194623 0.105581
0.386593 0.114514 0.316310
-0.018025 0.110288 -0.954947
-0.317800 -0.150335 -0.348855
-0.055170 0.185496 -0.133126
0.056595 -0.158891 -0.187601
0.171595 -0.122955 0.733962
-0.243963 0.062612 -0.919472
-0.165685 -0.152945 -0.813544
-0.171069 -0.073478 -0.339829
-0.197967 0.154772 0.805007
-0.389809 0.042987 0.219000
-0.211611 0.037705 -0.943132
0.222823 -0.013602 0.479024
-0.048937 0.202496 -0.036291
0.396354 0.047860 -0.778962
0.420849 0.132649 0.532582
0.142000 -0.099298 -0.940166
0.403932 -0.143151 -0.522188
-0.108524 0.102174 0.948464
-0.265170 0.111877 -0.449657
-0.127853 -0.154508 -0.848687
-0.437126 -0.073961 -0.675235
0.198365 0.171073 -0.025767
0.073411 0.134965 -0.796374
0.424618 -0.004342 0.755629
0.223094 0.042443 -0.567767
-0.222901 0.106030 0.900942
-0.458760 0.066187 -0.636958
-0.275320 -0.117695 0.478655
0.267068 -0.143061 -0.347586
0.466851 -0.051813 -0.452917
-0.399279 -0.012303 -0.786959
0.031616 -0.123391 -0.233543
-0.055728 0.013544 0.728254
0.019791 -0.030558 0.992701
0.382481 0.071069 -0.782901
0.130713 -0.188405 0.107368
0.226074 0.107517 -0.644110
0.327443 -0.149021 -0.332413
0.303714 0.141329 0.443800
-0.367087 -0.067135 0.189139
0.356424 -0.151327 -0.422307
-0.338701 -0.142764 0.740238
-0.420060 0.062387 -0.308901
0.014007 0.076338 0.976494
0.388275 0.146351 0.493597
-0.348627 0.011764 -0.852368
0.235658 -0.132452 0.686597
-0.344001 -0.152857 0.643499
0.343949 -0.067249 0.837511
-0.042096 0.144206 -0.819020
-0.249056 0.086286 -0.898564
-0.034440 -0.202166 -0.063549
-0.349892 0.089213 0.187794
-0.170241 -0.112219 -0.920026
-0.363695 -0.013534 -0.116747
0.439456 -0.107153 0.544108
-0.202954 0.150746 -0.824661
-0.219723 0.126893 0.875570
-0.184080 0.173519 0.150261
-0.181754 -0.062849 0.660975
0.405679 -0.084119 -0.302947
0.358934 0.103427 -0.784329
0.110798 0.127813 0.775931
0.266555 0.109037 0.507631
-0.260809 -0.124201 0.623091
-0.237708 0.139878 0.846327
-0.140699 0.098985 -0.291533
-0.280517 0.127082 0.469811
0.035226 0.120276 -0.786054
0.409159 -0.064585 0.291936
0.170944 0.148874 -0.249536
0.224294 0.011084 -0.512774
0.412763 0.129052 -0.563896
-0.210772 0.166576 0.173164
-0.418681 0.133199 -0.516128
0.001384 0.117839 0.783914
0.299338 -0.146633 0.636234
0.004539 -0.129353 0.798745
0.213271 -0.089886 0.644110
0.150963 0.151390 0.851548
0.309896 0.145619 0.591232
0.463178 -0.032587 0.646005
-0.266952 0.153099 -0.759324
0.290207 -0.029080 0.895448
-0.180335 -0.143505 0.761031
0.459433 0.032277 -0.416897
-0.358033 0.109923 -0.779010
0.264905 0.133257 0.062055
0.011391 -0.152942 -0.200720
-0.051990 0.032392 -0.733395
-0.422549 -0.099208 -0.394967
-0.108587 -0.063822 -0.300343
-0.454417 -0.019638 -0.381835
0.265980 0.143902 0.146686
0.364501 0.140026 -0.698862
0.464342 -0.063493 0.585972
0.360591 -0.113246 -0.258100
0.015349 0.184728 -0.138606
-0.334989 0.081654 -0.135933
0.028189 0.093898 -0.763385
-0.027029 -0.133134 -0.929035
-0.434786 -0.114428 0.470389
0.002021 0.170942 0.167909
-0.361702 0.052679 -0.153711
-0.154921 0.186347 0.042436
-0.456561 -0.087470 0.566612
-0.172799 0.180288 -0.051326
-0.396299 0.144061 -0.490096
0.060075 0.102626 0.762364
0.014786 -0.075174 -0.977139
-0.203583 -0.054554 -0.399660
0.186766 0.077011 -0.937082
-0.316451 0.091406 -0.101330
-0.392054 0.143737 -0.600613
0.237098 -0.127939 -0.343910
-0.444629 -0.109981 0.509432
-0.261057 -0.156909 -0.228763
0.230146 0.125483 -0.872327
0.400549 -0.114828 -0.350118
-0.193399 0.013263 -0.628036
-0.080453 0.045337 -0.982556
-0.232697 -0.012773 -0.938002
0.211504 0.003879 0.437234
0.431961 -0.022271 -0.730427
-0.352492 0.109339 -0.232259
-0.048887 -0.143333 -0.813616
0.263842 -0.154326 -0.755933
-0.340362 0.148165 0.386658
0.166801 -0.144715 -0.775223
-0.218673 0.039280 0.448817
-0.076295 0.152529 -0.846528
-0.207107 0.138317 0.300112
-0.100229 0.020524 -0.712284
0.012079 -0.201826 0.072624
-0.132752 -0.047982 0.322952
-0.117438 -0.041127 -0.976591
-0.167067 0.018677 0.363053
0.238535 -0.143560 0.323859
0.255790 0.155679 0.230791
0.150855 0.063061 0.327475
0.243404 -0.145962 0.009814
0.430483 0.113645 0.426625
0.419215 -0.110612 0.420610
0.282647 0.152797 -0.325533
0.062701 0.118091 -0.776834
0.145149 0.121859 0.916309
-0.139781 0.188463 -0.057631
-0.267095 -0.130828 -0.632637
-0.337808 -0.127602 -0.768687
0.374290 -0.096841 0.261361
0.201331 0.092706 -0.920353
0.232603 -0.081571 0.595154
-0.444143 0.037631 -0.357650
0.398291 -0.143349 -0.479564
-0.395452 0.084896 -0.756731
0.047778 -0.139715 -0.217992
-0.312863 -0.148885 0.734143
-0.012641 -0.137051 0.219140
-0.273648 0.129189 -0.835148
-0.273981 -0.143467 0.355638
0.445024 0.012914 -0.351936
-0.085310 -0.080700 -0.742372
-0.007576 -0.062182 0.744673
-0.044706 -0.099339 0.258063
-0.107562 0.072736 -0.293225
0.007950 -0.040084 -0.281634
-0.238665 0.149472 0.014782
-0.284962 -0.132783 0.587824
-0.139351 0.081853 0.715864
0.147029 -0.076112 -0.953141
-0.219229 -0.051928 -0.432724
-0.152631 -0.151414 0.850954
0.192918 -0.169438 -0.077517
0.381276 -0.122248 0.349187
-0.381459 0.145085 -0.628665
0.017121 0.153336 0.856459
-0.155319 0.144150 -0.880362
-0.271472 -0.126560 0.413014
-0.313846 0.131807 -0.219015
0.145972 0.104078 -0.726879
-0.350756 -0.010672 -0.051415
-0.391018 -0.110158 0.311841
-0.391451 0.142928 0.532605
-0.424636 -0.119925 -0.541197
-0.339541 0.037648 -0.060702
-0.050756 0.082519 0.970097
0.392046 -0.120358 0.700242
0.048367 0.144281 -0.215904
0.193602 -0.080165 0.664012
-0.411638 -0.102126 -0.367537
-0.174345 0.174659 -0.133412
0.197369 -0.154165 0.813984
0.388929 -0.101244 0.307242
-0.174983 0.031504 0.959065
0.108692 -0.122240 -0.769156
0.047979 0.143537 -0.814702
0.080139 0.103139 -0.757583
-0.313722 -0.038717 0.875836
0.291361 0.141476 0.610716
-0.472316 0.013067 0.621029
0.440354 -0.083044 0.426112
0.233119 -0.053818 0.510430
0.446613 0.096075 0.442302
-0.141480 -0.092158 -0.721277
0.310061 -0.089962 -0.058946
0.351240 0.078622 -0.169675
0.071532 -0.063139 0.287809
-0.335528 -0.152040 -0.430990
0.468368 0.059726 -0.541436
0.197390 0.143621 -0.747846
0.468955 -0.072440 -0.529434
0.045415 0.080885 0.268608
0.104184 0.026375 0.712302
0.142250 -0.145092 -0.792331
0.290356 0.152650 0.284634
0.276943 0.154638 0.738989
-0.244500 -0.111954 0.880839
-0.355411 0.153312 -0.591380
0.294188 -0.107618 0.061233
0.025239 -0.012580 -0.732179
-0.303433 -0.046801 -0.880397
-0.429032 0.112221 -0.636974
-0.251430 0.149727 0.793818
-0.319129 0.082221 -0.851036
-0.200592 0.085881 -0.927067
0.177896 0.026761 0.958803
0.099550 0.197611 0.030601
-0.194802 -0.029514 0.631801
-0.242584 0.146119 0.719722
0.263366 0.134200 0.645464
0.102716 -0.067356 -0.296696
-0.227457 -0.157014 0.078266
0.316786 -0.151938 -0.646448
0.462292 0.066877 -0.576987
0.028015 0.144637 -0.910334
-0.414366 0.003265 -0.769555
-0.021990 -0.144444 0.908349
-0.209822 0.013084 0.434573
-0.444561 -0.014773 -0.350575
0.153440 0.170484 -0.185247
-0.435647 0.060538 -0.703117
-0.107939 0.078158 -0.965772
0.392791 -0.121090 0.375333
-0.276146 0.124936 0.575621
0.448548 0.039683 0.686242
-0.414196 -0.086135 -0.345120
0.388036 -0.074296 -0.251954
-0.395342 0.111613 -0.327182
-0.081472 -0.119505 0.773747
0.031938 -0.154071 0.871738
0.156383 0.012598 0.672960
0.336982 0.128827 0.768186
-0.084410 -0.090768 -0.275988
0.215219 -0.042615 0.593797
0.121977 -0.062762 -0.712024
-0.098465 -0.134931 -0.790465
-0.232399 -0.153551 0.170750
0.253960 -0.121225 -0.386163
-0.125401 0.147287 -0.877089
-0.297472 -0.144733 0.390522
0.390581 0.144480 0.453369
-0.296769 0.110448 -0.076081
-0.424953 0.050927 0.320530
-0.087293 -0.199366 -0.059675
0.118689 -0.152246 -0.205456
-0.285340 -0.137780 -0.429051
0.438355 -0.065078 -0.363318
0.421747 0.026970 0.752075
-0.062134 -0.122766 -0.243065
0.102915 -0.136127 -0.229274
-0.434855 0.050315 0.348078
-0.464088 0.003645 0.404236
-0.267506 -0.110476 0.534370
0.288063 -0.136100 -0.593652
-0.068945 -0.193415 0.089473
-0.262683 -0.143329 0.821342
-0.146947 -0.147671 -0.869160
0.483955 0.008702 0.527199
0.427250 0.051612 0.727919
-0.125020 -0.141059 -0.787379
-0.334259 -0.035508 0.006077
-0.150701 0.187080 -0.031732
-0.181316 -0.056131 0.365246
-0.447625 -0.002526 0.700283
-0.168045 0.054756 0.355043
0.145055 -0.084561 0.310394
-0.158131 -0.008824 0.354696
-0.305767 -0.148170 0.287793
-0.012607 0.182109 0.147630
0.137619 0.146141 0.877862
-0.275592 -0.151843 -0.199926
-0.331133 0.147411 -0.451962
0.315734 -0.146457 0.585626
0.006320 -0.151343 0.849365
-0.076245 0.118101 -0.941152
0.163960 -0.143413 -0.880657
-0.008647 -0.028870 0.284486
-0.057545 -0.042116 -0.732357
0.125271 0.187778 0.098679
0.345306 0.065060 0.123848
-0.019489 0.144872 -0.906785
-0.208250 -0.024097 -0.946342
-0.089285 0.078967 0.284754
0.324841 -0.132919 -0.244257
-0.371322 -0.121637 -0.731859
0.377750 -0.110303 -0.285111
0.012148 0.132235 -0.802718
0.044683 -0.154624 -0.866311
-0.212678 -0.061539 0.937119
-0.298128 0.131022 -0.808176
-0.473370 -0.026590 -0.595450
-0.359333 -0.043211 -0.135774
0.322483 0.095783 0.834406
-0.318487 -0.148189 -0.322229
0.198924 -0.002656 -0.613945
0.360480 0.145359 0.370988
-0.270986 0.146198 -0.682510
0.357431 -0.048516 0.133846
-0.144082 -0.166172 0.178589
-0.263573 0.151200 0.311329
-0.373299 -0.146937 -0.505917
0.409125 -0.079269 -0.735216
0.181724 0.026853 -0.645987
0.225435 0.160346 0.107096
0.378247 -0.109670 -0.755767
-0.194394 0.153172 -0.797558
-0.436296 0.112030 -0.596716
0.237439 -0.102368 -0.397250
0.118765 -0.141930 0.899786
-0.368419 -0.149749 0.601802
-0.364846 0.120547 0.300421
0.405839 -0.048414 -0.260219
0.423411 -0.054240 -0.306980
-0.465107 0.064325 -0.462591
0.264976 0.143999 0.674735
0.284848 -0.138523 -0.403253
-0.172380 -0.137326 0.259138
0.103685 0.026870 0.309642
-0.126855 -0.145199 -0.888144
0.273222 0.083545 -0.884319
-0.082739 -0.140067 -0.229966
-0.289051 0.036637 -0.894818
0.103889 0.107243 0.751792
0.448853 -0.035672 0.683130
0.266418 -0.041248 0.911500
-0.348013 0.089703 0.813481
-0.388314 -0.047811 -0.790246
0.396059 -0.081406 0.753034
0.043036 -0.204364 -0.012892
0.232748 -0.144672 0.837195
0.397098 0.099144 0.733609
0.442907 0.066755 0.678679
-0.405754 0.111897 -0.355607
-0.244071 0.029548 0.929071
-0.213568 -0.043810 0.426464
-0.456082 -0.074934 -0.613392
0.359277 0.150498 -0.509102
-0.332875 0.058889 -0.856863
0.190981 -0.121617 0.311214
-0.328393 -0.105008 -0.169377
-0.038319 -0.118292 0.239657
-0.252081 0.107835 0.450026
-0.403115 0.078205 -0.292341
-0.109898 -0.086909 0.286231
-0.443122 0.063151 0.385267
0.233753 0.150041 -0.808088
