0.357821 0.378064 0.056586
-0.024110 -0.319882 -0.151867
-0.198931 -0.098283 0.272243
0.367764 -0.297821 -0.301205
0.337371 0.300141 -0.005946
-0.244999 -0.337681 -0.193140
0.280323 0.574766 0.005549
-0.280884 0.104139 -0.063480
0.307225 0.534778 0.298395
0.157947 0.605912 0.208032
0.242155 0.813329 0.255808
0.244303 -0.188465 -0.013348
-0.308346 -0.637381 -0.163665
0.300712 0.020587 0.246638
0.167546 0.693188 0.124967
-0.253932 -0.209731 -0.290280
0.211778 -0.177169 0.053235
0.128421 0.128315 -0.035620
0.109631 0.236045 -0.003408
0.275243 0.182306 -0.079470
-0.316119 0.110906 0.049440
0.279746 -0.160517 -0.306671
0.066552 0.245201 -0.012259
-0.027979 -0.154829 0.191859
-0.370240 -0.346300 -0.114118
0.057707 0.005196 0.361940
-0.623678 -0.312459 -0.170030
0.093359 0.165779 0.301117
0.197830 0.101595 -0.046182
-0.106979 -0.362595 0.194335
0.212862 0.464575 0.083381
0.127531 0.687451 0.320946
-0.150439 -0.075660 -0.254374
0.171056 0.623416 0.196100
0.291674 0.325622 0.227002
0.043160 -0.305776 0.082484
0.027138 0.028850 0.207295
-0.463618 -0.238500 -0.248513
0.203559 0.230517 -0.140472
-0.256396 -0.336901 0.228514
0.179781 -0.262137 -0.130401
0.296611 -0.058078 0.289208
-0.354460 -0.438971 0.065730
0.336695 0.331110 0.220939
0.165701 -0.120557 0.121347
0.413503 0.445945 0.300099
0.260007 -0.295632 -0.346417
-0.451955 0.007290 -0.021602
0.280616 0.157628 -0.237024
0.201073 -0.340793 -0.072922
-0.645535 -0.494111 -0.395795
0.194915 0.012516 -0.108917
0.301842 0.119433 0.187826
0.211469 0.533942 0.267095
-0.089000 0.294866 -0.088378
0.004510 0.034895 0.212772
0.321188 0.109226 0.177345
-0.270280 -0.527445 -0.159121
0.224826 0.924951 0.199098
0.200230 0.471816 0.107106
-0.443409 -0.239574 -0.267771
0.284003 -0.109760 0.314938
-0.529768 -0.465926 -0.243363
-0.357507 -0.407284 -0.069000
0.154824 0.248267 -0.129688
0.248512 0.293938 -0.041576
0.219787 0.138540 -0.021624
-0.159195 0.043531 0.194747
-0.073657 -0.400449 0.096120
-0.227124 0.072319 0.153441
0.167435 -0.464054 -0.041872
-0.055377 0.293818 -0.015408
0.189538 -0.319372 0.005660
-0.053647 -0.377153 -0.051751
0.146334 0.673432 0.327757
-0.206548 -0.499698 0.043263
0.112211 0.163186 -0.274559
0.099737 -0.043100 0.444721
0.345989 0.283603 0.011107
0.116124 0.042722 0.376355
-0.427474 -0.010259 -0.129123
-0.465342 -0.424727 -0.223037
0.000704 0.282572 -0.095217
-0.219029 -0.164863 -0.287465
-0.476151 -0.044216 -0.082604
0.151128 0.341121 0.022380
-0.313042 -0.264536 0.249498
0.348245 -0.082202 0.249264
0.334790 -0.179874 -0.293831
0.156663 0.193622 -0.094784
-0.268990 0.071556 -0.175962
-0.433024 0.044747 0.027295
-0.571014 -0.421949 -0.235617
0.181200 0.748714 0.244335
0.314842 -0.283254 -0.266155
0.476124 -0.297357 -0.413841
-0.337024 -0.608370 -0.165906
-0.086844 -0.375818 0.161296
-0.556673 -0.316842 -0.197661
0.163549 -0.037905 0.151934
0.182403 0.488147 0.177978
0.389864 0.335326 0.176067
0.222146 0.798746 0.324983
0.046926 0.184710 -0.151267
0.195256 -0.175755 0.071107
0.174841 0.211439 -0.020723
-0.397009 -0.347918 -0.325689
0.399610 -0.231285 -0.317736
-0.507542 -0.183820 -0.146738
0.248473 0.010469 0.106012
-0.176797 0.085438 0.136395
0.299391 0.130058 0.019039
0.065989 -0.196608 -0.276494
0.082330 0.060072 0.391537
0.167320 -0.096407 0.348652
-0.301073 -0.680737 -0.074948
-0.045744 0.072204 -0.085785
0.076473 0.172572 -0.166317
0.320120 0.431925 0.204527
-0.179581 -0.453627 -0.068699
-0.472438 -0.139194 0.171020
0.367861 0.524669 0.267109
-0.063551 -0.040209 -0.176194
0.246694 -0.200649 -0.151274
0.101859 0.748493 0.281467
0.012495 0.244460 -0.180386
-0.298074 -0.070108 0.273831
-0.368499 0.100266 0.031231
-0.068790 -0.058505 -0.193434
-0.306645 -0.506631 0.021677
-0.219554 -0.536298 -0.092768
0.096922 -0.269970 -0.184475
-0.422266 -0.195792 -0.255347
0.170827 0.588062 0.191795
0.249266 0.884459 0.267826
0.223270 -0.037896 0.108379
-0.641734 -0.463426 -0.357970
-0.002729 -0.222039 -0.237966
0.055007 0.242717 0.134957
0.322773 0.471799 -0.001623
-0.204378 0.082412 0.036634
0.129257 -0.207579 0.107732
0.147123 -0.054154 0.332962
0.178350 -0.209358 -0.346425
-0.498929 -0.181852 0.126584
-0.230614 0.069952 -0.146782
0.110392 0.804505 0.297997
0.287235 0.913695 0.103640
0.012685 -0.078507 0.204535
-0.136022 0.052708 -0.060760
0.270084 0.922598 0.162856
0.262553 0.501341 0.055106
-0.472494 -0.292669 0.098318
0.200353 0.554148 0.274872
0.225180 0.915646 0.105813
-0.087873 0.211256 -0.207472
-0.204171 0.059888 -0.137665
-0.189838 -0.324982 0.264430
-0.305396 -0.178212 0.297024
-0.320552 -0.189183 0.281374
0.279606 0.237080 0.201750
-0.646057 -0.328371 -0.234782
-0.027323 0.173923 0.175929
0.217879 0.122710 -0.217674
0.098761 -0.339623 0.060126
-0.527398 -0.191993 -0.087247
-0.282022 0.096554 0.133887
-0.024871 0.295232 -0.053425
-0.564749 -0.201210 -0.004639
0.350699 -0.402855 -0.432669
-0.387892 0.070476 0.192058
0.223641 0.407929 0.016990
-0.406108 0.068386 -0.054183
-0.381496 0.094734 0.129369
0.076097 0.135570 -0.026178
0.307742 0.542690 0.324248
0.411700 0.474099 0.301037
-0.082258 -0.403790 -0.031039
-0.242732 -0.591463 -0.045603
0.229398 0.688344 0.353611
-0.168358 -0.459225 -0.034774
0.078963 -0.177090 0.152833
-0.094558 0.135899 0.067549
0.214881 0.493856 0.114882
0.040599 0.021608 0.457543
-0.297517 0.093074 0.164461
-0.095835 -0.236779 0.228939
0.112150 0.213364 -0.216358
0.196549 0.936732 0.134624
0.070010 0.016943 0.343788
-0.269820 -0.060817 -0.259871
-0.396089 -0.398960 -0.265035
0.151519 -0.327331 -0.117696
-0.622029 -0.347950 -0.237734
-0.144946 -0.244866 0.274313
0.287277 0.570872 0.330360
-0.449301 -0.423832 -0.241466
-0.273311 -0.440243 -0.134437
0.343858 -0.371582 -0.427664
0.256179 -0.061765 0.051358
0.253010 0.160256 0.204701
0.023842 0.015906 -0.156917
0.261638 0.437315 0.009493
0.305534 0.178429 -0.086664
0.221827 -0.278775 -0.241364
-0.096819 0.233604 -0.197474
0.270883 0.635821 0.300903
0.203420 0.729686 0.251717
-0.344121 -0.149323 -0.263104
-0.623709 -0.485138 -0.405866
0.015740 0.231785 -0.200442
-0.347490 -0.469865 0.022594
0.367810 -0.352507 -0.364791
0.194580 0.012348 0.248005
0.187088 0.078336 0.205390
0.105737 -0.598451 -0.159085
-0.568757 -0.401427 -0.347940
0.279155 -0.154622 -0.180467
0.366999 -0.073885 0.166877
0.136128 0.635421 0.244124
-0.092975 -0.207432 0.222188
0.189677 0.507464 0.227268
0.205271 -0.234239 -0.356805
0.104666 0.382769 0.128213
-0.503934 -0.207784 -0.151564
0.273428 0.012910 0.181153
0.060227 0.053891 -0.120298
0.100653 0.103647 0.187950
-0.050094 0.044002 0.219383
0.075709 0.160001 -0.197795
-0.072937 0.198104 -0.190895
0.106962 -0.084425 0.389000
0.392000 -0.257092 -0.301294
-0.545299 -0.172809 -0.044736
0.110528 -0.083544 0.167428
-0.196483 -0.350722 0.238398
-0.188847 -0.394240 -0.147356
0.306285 -0.053092 0.200628
-0.141862 -0.319130 0.250944
-0.019393 0.184889 0.098993
0.077384 -0.625265 -0.116695
0.076048 0.258048 0.047334
-0.209706 -0.526644 -0.002178
0.382106 0.375626 0.257009
-0.176719 -0.435829 0.123634
0.270798 0.068040 0.243333
0.208595 0.446689 0.064577
0.169057 0.377040 0.234071
-0.373073 -0.385635 -0.272174
0.040594 -0.016005 0.391244
0.281536 0.026179 -0.036664
0.283104 0.002460 -0.039627
-0.196247 -0.009928 0.216392
0.123710 0.834432 0.304411
-0.087255 -0.185471 0.213301
-0.477505 -0.074138 -0.136904
-0.622662 -0.325301 -0.261241
0.113940 -0.000619 0.321336
0.076251 0.280882 -0.078798
-0.400923 -0.389075 0.010489
0.144953 -0.083025 0.149796
-0.128494 -0.422249 0.121933
0.369805 0.029108 0.182672
0.158576 0.127457 -0.266001
-0.149454 0.239769 -0.148027
-0.047862 0.180848 0.162218
0.212437 0.182407 -0.232727
0.314465 -0.296664 -0.400728
0.165910 0.130828 0.277065
-0.547975 -0.236449 0.029780
-0.125476 0.296890 -0.103837
-0.380193 0.093413 0.010089
0.053364 0.309237 0.052370
-0.147548 -0.400858 -0.113982
0.340730 0.128594 0.114854
-0.230572 -0.076785 0.274966
-0.366563 -0.068980 -0.223544
-0.074417 0.236216 -0.084930
0.066108 0.010273 0.195684
0.252427 -0.012033 0.085057
-0.058858 0.129035 0.013504
-0.057849 0.169676 0.106102
-0.029173 0.205975 -0.230829
-0.529264 -0.375480 -0.345788
-0.514515 -0.490660 -0.309920
-0.319861 -0.239211 -0.301854
0.365182 -0.096219 0.230314
-0.301178 -0.202376 0.295048
-0.477882 -0.096933 -0.161401
0.138704 0.395316 0.198641
-0.508172 -0.511930 -0.343540
0.300735 0.187809 -0.143034
0.318450 0.159776 -0.121656
0.221267 0.098785 0.261927
0.099410 0.221969 -0.053978
-0.085406 -0.347976 -0.153741
0.080166 0.180552 -0.259908
-0.458861 -0.085873 -0.173206
-0.240645 0.089416 0.098613
0.381475 0.045124 0.163159
-0.291037 -0.096624 -0.262162
-0.462612 -0.005620 0.098144
-0.464163 -0.311531 -0.323887
0.189244 -0.352241 -0.009814
0.422237 0.405361 0.272079
0.336319 -0.099655 0.263665
0.249792 0.572739 -0.007214
-0.566964 -0.467400 -0.243695
-0.217620 0.086421 -0.024848
-0.416936 0.065978 0.059935
-0.082525 -0.387848 0.139695
-0.225327 -0.463476 -0.132003
0.217907 -0.269327 -0.010025
-0.470017 -0.291581 -0.308113
-0.449903 -0.079515 0.189293
0.279815 0.560927 0.243387
-0.594431 -0.449668 -0.251356
0.185628 -0.116823 -0.279277
0.336300 0.490970 0.300808
0.292352 -0.127648 0.298357
-0.659785 -0.484042 -0.347831
0.169753 0.180437 -0.010140
0.143912 0.378048 0.216627
-0.075851 0.047753 0.219807
0.186981 0.439059 0.207842
0.140135 -0.294914 0.058817
0.182560 -0.070594 0.391210
0.224661 0.017629 0.219936
-0.030836 -0.304860 -0.179972
0.396561 -0.282738 -0.463509
0.112128 0.135922 0.313560
0.275648 0.331442 -0.023676
-0.198837 -0.419329 0.148940
0.196008 0.882282 0.112745
-0.469884 -0.027620 -0.053294
-0.486137 -0.213984 -0.201360
0.366679 0.493186 0.329240
-0.293929 0.103463 0.111848
0.058643 -0.168809 0.166519
0.219008 0.738490 0.307596
0.394620 0.004712 0.103348
0.075348 -0.456094 -0.155280
0.374428 -0.067195 0.212639
0.165472 0.057181 0.173979
0.261623 0.023722 0.277875
-0.218882 -0.484223 -0.119388
0.307284 -0.320329 -0.328984
0.200451 0.690921 0.358579
0.043777 -0.554142 -0.095046
0.268534 0.120748 -0.199666
-0.091588 0.284817 -0.031274
0.099141 0.100634 -0.064978
0.144219 -0.108669 0.141663
-0.230620 -0.595968 -0.074069
-0.003413 0.015750 -0.152046
0.308781 0.128653 -0.234148
0.085251 0.092601 0.281901
0.145436 0.158768 -0.275755
0.257290 0.664827 0.331747
-0.220539 0.080262 0.113670
0.419313 -0.261415 -0.443122
-0.074886 -0.236476 0.208210
0.166775 -0.433398 -0.114967
-0.304526 -0.673732 -0.098190
0.337706 0.323941 0.007340
0.197029 0.855704 0.192655
-0.455090 -0.320629 0.091234
-0.406652 -0.336893 -0.101487
0.153092 0.264109 0.218701
-0.517018 -0.518024 -0.320074
0.202764 0.116466 -0.262046
0.261941 0.030904 0.112074
0.004520 0.272502 -0.124520
-0.287313 0.101933 -0.088669
0.099060 0.172119 -0.157906
-0.310366 -0.570351 -0.167076
0.109659 -0.278179 -0.164453
0.264608 0.150658 -0.256069
-0.146068 0.007393 -0.168098
-0.069863 0.177728 0.148085
-0.089575 -0.402412 0.121666
0.304875 0.490035 0.175933
0.068728 -0.478961 -0.159834
0.229433 0.689580 0.280051
0.243261 0.542462 0.051814
0.282845 0.097915 -0.007011
0.196041 0.690219 0.175950
0.217874 -0.223516 -0.140005
-0.342277 0.108299 0.062268
0.074111 0.096554 0.191479
0.155730 -0.451702 -0.023731
0.002776 -0.346587 -0.006861
-0.028170 0.058377 -0.107285
0.024365 -0.256855 0.127701
-0.291659 -0.506231 -0.147285
0.350833 0.578034 0.321800
0.061566 0.029075 0.433899
0.183758 0.197652 -0.078775
0.206162 0.024927 0.148793
0.094995 0.184513 0.279888
0.310687 0.086468 0.201543
-0.367757 0.101572 0.106170
0.272075 -0.218057 -0.377698
0.041268 -0.422522 -0.066038
-0.001434 -0.318091 0.102208
0.085006 -0.161516 -0.305154
-0.571058 -0.369410 -0.310011
0.127074 -0.078467 0.367409
-0.501811 -0.270639 0.046107
0.363227 0.212126 0.109903
0.233614 0.375589 0.226671
-0.036033 0.289684 -0.074884
0.141907 -0.625855 -0.103947
-0.339580 -0.431123 -0.092565
-0.168745 -0.029859 0.215261
-0.280771 -0.574728 -0.176607
0.145615 0.212782 -0.207766
-0.561605 -0.265438 0.000835
-0.312945 0.103265 -0.098392
-0.053051 -0.158755 0.193170
0.082645 0.175571 0.191035
0.167642 0.180173 0.241657
0.209981 0.657675 0.173867
0.220427 0.176280 0.218556
0.274261 0.646912 0.321887
0.365021 0.557078 0.333711
-0.227986 -0.532683 -0.119475
0.245347 -0.097536 -0.145257
0.239663 0.123377 -0.206097
0.008830 0.187472 0.076447
0.483093 -0.340637 -0.499803
-0.160317 0.264519 -0.090607
0.001193 0.147985 0.012063
-0.414918 0.008205 -0.138813
-0.475178 -0.289484 -0.003840
-0.143603 0.043744 -0.090646
-0.497949 -0.267765 -0.227862
-0.392209 -0.372645 -0.029687
-0.505031 -0.535108 -0.331887
-0.001226 -0.247932 0.140259
0.258306 -0.129601 -0.084663
0.103406 -0.005207 -0.176477
-0.175097 -0.096977 -0.270973
0.289893 0.519798 0.057868
0.397937 -0.020013 0.110597
-0.359209 0.066938 -0.168598
-0.065276 0.208370 -0.147524
0.056651 0.015442 -0.159474
-0.399809 -0.293941 -0.317536
0.421714 -0.253825 -0.336219
0.291986 0.102804 0.206688
-0.220047 -0.627859 -0.153327
-0.545004 -0.540218 -0.302553
-0.352456 -0.520973 -0.107723
-0.325438 -0.176690 -0.278981
0.141890 0.101913 0.229286
-0.454380 -0.134350 -0.204694
-0.452918 -0.159430 -0.216140
0.056030 -0.442661 -0.144540
-0.445836 -0.055161 0.185153
-0.564675 -0.348586 -0.172538
0.060707 0.253772 0.013740
0.216130 0.966309 0.123117
-0.503124 -0.327506 -0.328503
-0.028291 0.026148 -0.136357
-0.089946 -0.372435 -0.114197
-0.124862 -0.020173 -0.184196
-0.114222 -0.426545 -0.026988
0.139026 -0.003501 0.388535
0.054048 -0.016779 0.468134
-0.649258 -0.468178 -0.303526
-0.562187 -0.293826 -0.287072
0.394488 -0.070019 0.144965
-0.086585 0.107400 -0.007089
0.132707 0.208758 0.247527
-0.222399 -0.348535 -0.186846
0.363329 -0.360909 -0.488008
-0.601366 -0.473502 -0.256159
0.266057 -0.148670 -0.290885
-0.081837 -0.224654 -0.261029
-0.332056 0.083489 0.193156
0.353402 -0.260197 -0.270663
0.230822 0.645458 0.113077
-0.579825 -0.304209 -0.120193
-0.282588 -0.373663 0.177772
-0.521550 -0.281109 -0.236942
0.179435 0.892215 0.280787
0.404210 0.350704 0.189416
-0.097090 -0.418428 0.094237
-0.097251 0.154975 0.178359
0.245189 -0.270545 -0.230486
0.257405 0.157835 -0.130804
0.257720 0.036918 0.161578
0.414818 -0.000840 0.115504
0.045087 0.090387 -0.080805
-0.507739 -0.078346 0.044158
0.196716 0.879925 0.302510
0.453573 -0.402676 -0.419595
0.286076 0.880126 0.106650
0.030819 0.294673 -0.031228
0.272182 0.591130 0.251360
-0.342666 -0.555201 -0.051803
0.170410 -0.594259 -0.150489
-0.438110 0.034595 0.125069
0.332835 0.264237 -0.010564
0.353406 0.277727 0.190455
-0.312355 0.107166 -0.070329
-0.405864 -0.066051 -0.197938
0.082183 -0.592833 -0.055037
-0.650614 -0.572316 -0.314218
-0.077367 -0.115109 -0.241036
-0.193072 -0.369052 0.216248
0.187916 0.356220 0.248614
0.169340 0.042533 0.337220
-0.367343 0.098932 -0.015579
0.285467 -0.311639 -0.348178
0.081659 -0.223615 0.128547
-0.416104 -0.364088 0.124606
-0.443116 -0.266262 -0.288655
0.296317 0.071769 0.002651
-0.305876 -0.345455 -0.220826
0.203059 0.769171 0.341243
0.369812 0.292940 0.064422
-0.524242 -0.307062 -0.312026
-0.095236 -0.246486 -0.260769
0.188940 -0.010274 0.355502
-0.324059 0.096127 0.173294
0.109777 0.767686 0.333400
0.001589 0.067706 -0.106532
0.029003 0.152890 0.007573
0.106757 -0.263675 -0.206501
0.231997 0.429062 0.029577
-0.387839 0.090910 0.094147
0.107780 0.155577 -0.191817
-0.112175 0.149569 0.124254
0.112456 0.374617 0.182175
0.171973 0.800578 0.355221
-0.126187 -0.409385 0.144831
-0.321008 -0.347227 -0.157642
-0.440848 -0.182786 -0.236054
-0.109696 0.057834 -0.063029
-0.263672 -0.023586 0.247683
0.226735 -0.235691 -0.172526
0.004803 0.170944 -0.217119
0.407549 -0.368926 -0.375437
0.197638 0.792309 0.346931
-0.301186 -0.064546 -0.252573
-0.136269 -0.426771 -0.055730
0.027395 0.041899 0.362849
-0.338404 -0.505599 -0.119625
0.172091 0.023345 0.258748
-0.652609 -0.551513 -0.301124
0.126929 0.415901 0.149620
0.322033 0.521232 0.279321
0.229399 0.840204 0.191149
-0.157579 -0.419213 -0.093028
0.058734 -0.411664 0.003077
-0.554792 -0.522124 -0.284185
0.262852 0.885207 0.247755
0.045416 0.127152 -0.032430
0.121832 0.818964 0.280738
0.241343 0.043806 0.178463
-0.208622 -0.448094 -0.118324
0.273599 -0.038524 0.027853
0.410373 0.381661 0.193342
-0.397371 -0.096308 -0.220277
0.105702 0.213665 0.244827
-0.507298 -0.544134 -0.357097
0.243619 -0.073829 -0.116607
0.114963 -0.162714 -0.314661
0.216767 -0.118555 0.362411
-0.347044 -0.483892 -0.100971
0.243894 -0.113325 0.299302
-0.249379 -0.526101 0.022774
0.052351 -0.387427 0.003179
0.361516 -0.023993 0.133697
0.329417 0.140444 0.075510
-0.366483 0.027420 -0.191037
-0.566169 -0.205070 -0.029895
0.224930 -0.118160 -0.262684
0.081111 0.071653 0.298340
-0.631670 -0.445383 -0.340671
-0.220501 -0.193285 -0.288481
-0.337163 -0.128659 0.273827
0.235424 0.266421 -0.044728
0.236132 -0.013983 0.105471
0.480834 -0.321879 -0.484442
0.128221 0.132066 0.219976
0.360509 0.205736 0.134038
0.049245 -0.613414 -0.127826
0.137846 0.382989 0.078114
0.173162 -0.269454 -0.214051
-0.493067 -0.123974 0.132383
0.399936 -0.391415 -0.384710
0.421853 -0.298200 -0.336835
-0.344215 -0.576369 -0.063161
-0.012587 -0.356043 0.012170
0.392885 0.376985 0.177601
-0.158370 -0.338475 0.246560
-0.048993 -0.354766 -0.104619
-0.259900 -0.130163 0.306857
0.052138 0.162931 0.012046
0.226604 0.112609 -0.240939
0.028416 0.285479 0.043954
0.047282 -0.432451 -0.040842
0.330971 0.119768 0.156090
-0.052583 0.303705 -0.039681
0.129597 0.045115 0.277727
-0.086388 -0.268523 0.219405
0.083833 -0.141044 0.163903
-0.521334 -0.264413 0.032847
0.381480 0.322367 0.069742
-0.047879 0.190209 -0.221592
-0.206699 -0.029485 0.233418
0.340869 0.383518 0.039867
0.156918 -0.513593 -0.135852
0.250938 -0.176771 -0.126510
0.144664 -0.093832 -0.263229
0.265063 0.552480 0.153961
-0.208124 -0.461181 0.096662
0.194465 0.547467 0.161769
-0.166404 -0.231939 0.289801
-0.501690 -0.278573 0.020670
-0.472152 -0.379110 -0.172495
-0.402172 -0.357083 0.149633
0.372135 0.526315 0.339441
-0.422376 0.029461 -0.100646
-0.148230 0.268516 -0.151622
0.215891 0.594238 0.043131
0.280179 0.049464 -0.029281
0.134479 0.806059 0.260324
-0.556511 -0.560599 -0.307832
-0.252890 -0.562025 -0.167734
0.122774 -0.567781 -0.193205
-0.060046 -0.104083 -0.228748
0.375712 0.253728 0.089465
0.137204 0.195973 -0.235398
0.263290 0.858467 0.257727
-0.370042 0.087792 0.184535
0.359617 0.461662 0.240961
0.129189 0.249913 0.220388
0.219039 -0.105250 0.313141
-0.649840 -0.557356 -0.360629
-0.391274 0.085264 -0.019360
0.180760 0.239320 0.220360
0.044801 -0.267885 0.116292
-0.232393 -0.632055 -0.052688
-0.072350 -0.151802 -0.257390
-0.093173 -0.426012 0.049966
0.274029 0.282368 0.219925
-0.320770 -0.551169 -0.154215
0.227546 0.005432 0.315250
0.263833 0.463112 0.240303
-0.346901 -0.150890 0.266320
0.065806 0.241104 -0.179463
0.226468 -0.082526 -0.176587
0.063916 0.245502 0.103154
0.138601 -0.025200 0.400080
0.125523 -0.322202 0.054906
0.244469 -0.180678 -0.103496
0.042556 -0.588153 -0.120894
-0.171834 -0.418815 0.146943
0.179653 0.165964 -0.141557
0.139653 -0.032501 0.323450
-0.146353 -0.204799 -0.282483
0.187111 -0.036197 0.138514
0.056384 -0.103423 0.185909
-0.215448 0.016420 0.206480
0.216817 0.056801 0.292152
0.330561 -0.320412 -0.406744
0.322670 0.445567 -0.006241
-0.356087 -0.087798 -0.235750
0.188401 -0.096401 0.390190
0.207612 0.638634 0.053720
-0.492098 -0.406532 -0.196363
0.169872 0.259336 -0.091315
-0.670356 -0.545829 -0.375724
0.393314 0.485633 0.324385
0.056515 0.227517 -0.204631
0.427177 -0.022627 0.132751
0.128384 -0.335232 -0.125848
0.063105 -0.342681 -0.133874
-0.133899 -0.121163 0.235073
-0.378163 -0.367177 -0.305976
-0.226354 -0.572078 -0.076106
-0.559466 -0.564852 -0.333535
0.279924 0.570746 0.294925
0.250348 0.585666 0.174398
0.358737 0.306883 0.196915
0.111162 -0.223086 0.111789
0.326294 0.596665 0.306427
0.288591 0.899337 0.123222
0.190464 -0.094078 -0.248209
0.472468 -0.285566 -0.438752
0.379814 0.341420 0.151933
0.383883 0.318282 0.125856
0.152458 0.196828 -0.004566
-0.217496 -0.642390 -0.134114
-0.246354 -0.451906 0.109288
-0.057769 -0.243492 0.191125
-0.324335 -0.590295 -0.052666
-0.121809 -0.306860 0.242701
-0.428462 0.034732 0.163855
-0.506816 -0.505432 -0.369216
0.167373 0.333231 0.003767
-0.037744 0.189199 0.138354
-0.183017 0.043485 -0.148561
-0.188380 -0.465456 0.079205
0.149105 0.229223 -0.176631
0.042487 -0.057352 0.421788
0.061824 -0.070834 -0.234966
-0.339236 -0.533819 -0.034974
0.112161 0.308732 0.007874
-0.450188 -0.337211 -0.121506
0.123733 0.742142 0.225089
0.348315 0.041314 0.102315
0.130475 -0.440463 -0.002466
0.132418 0.078941 0.252982
0.201576 0.863207 0.169913
0.362590 -0.387615 -0.456672
-0.005463 0.223061 -0.212003
0.252260 0.605985 0.316981
-0.371293 -0.379270 0.142988
0.269152 0.538764 0.254627
0.157820 0.304172 0.223215
-0.536240 -0.503841 -0.431791
0.022602 -0.146495 -0.263061
0.198878 -0.008918 0.139944
0.225500 0.635216 0.197869
-0.088224 -0.066009 -0.206637
0.240186 -0.115923 -0.242655
-0.537635 -0.288561 -0.290715
0.049403 -0.484801 -0.057306
0.294061 0.136901 -0.252390
-0.487021 -0.208675 0.141641
0.251935 -0.040616 -0.089128
0.168630 -0.565978 -0.178712
0.090323 -0.038265 0.367313
0.264801 0.178862 0.186026
-0.363234 0.099502 -0.049687
-0.171565 0.080798 0.163443
0.193708 0.629703 0.099666
0.253445 -0.256356 -0.374256
-0.493330 -0.432079 -0.335761
0.272121 0.215444 0.190138
-0.166707 -0.131591 -0.279842
-0.492267 -0.237362 -0.197210
0.344021 0.365360 0.022946
0.037547 -0.180311 0.170179
-0.528102 -0.365176 -0.190402
0.020938 -0.327635 0.044336
0.360398 0.224630 0.089621
-0.157336 -0.050802 0.219860
0.040969 0.109673 0.319311
0.247225 0.274676 0.220026
-0.143534 0.132278 0.165875
-0.247633 -0.566329 -0.016675
-0.003501 -0.342482 0.057252
-0.362127 -0.365712 0.161083
0.288675 0.045485 0.110600
-0.427725 -0.289497 0.185301
-0.465082 -0.011224 -0.013575
0.093095 0.212148 -0.076903
0.157762 -0.038459 -0.194511
0.234124 -0.183143 -0.345445
0.203213 0.392560 0.016796
0.062707 0.159277 0.273472
0.332613 -0.068062 0.189874
0.351275 0.038496 0.195362
0.268437 0.857043 0.226586
0.208624 0.752189 0.263806
0.328451 -0.328214 -0.336925
-0.240221 0.036559 0.200904
0.123596 -0.401885 0.019376
0.390613 -0.267457 -0.445076
0.059139 0.189912 -0.250416
0.334831 0.500894 0.274755
0.167182 0.080366 0.186284
0.335475 0.214544 0.052477
0.201075 -0.356645 -0.036006
0.143235 0.707311 0.164843
-0.105022 -0.188156 0.230127
0.309705 0.475791 0.050804
0.121331 0.269748 -0.091892
-0.452619 -0.207171 0.195825
-0.553359 -0.195155 0.024547
-0.098583 0.244227 -0.078085
-0.044810 0.100843 -0.049642
-0.509681 -0.191491 0.106307
-0.335678 -0.513861 -0.012718
0.266908 -0.036956 -0.070257
0.083085 0.235989 0.053865
-0.607436 -0.566136 -0.340872
0.219674 0.211083 -0.174801
-0.231333 -0.671410 -0.069103
0.057094 0.003663 0.455597
0.216329 0.605194 0.097661
0.240734 -0.077367 0.068181
0.448046 -0.351324 -0.504945
0.042491 -0.522341 -0.095009
-0.343294 -0.531799 -0.127786
0.140187 -0.356713 0.029922
0.298816 -0.098533 0.299330
-0.089272 0.212265 -0.151889
0.210308 -0.317241 -0.044317
0.364452 -0.406456 -0.401837
0.392777 0.485473 0.249534
0.041832 -0.489928 -0.092029
0.289465 0.535989 0.209084
0.380612 0.233816 0.104048
-0.294369 -0.560303 -0.021761
-0.438132 -0.321242 -0.082520
0.245903 -0.042270 0.325932
-0.536936 -0.505247 -0.281181
-0.564674 -0.297194 -0.221603
-0.048171 0.213931 -0.124631
-0.359683 -0.304518 -0.318659
0.301342 0.632005 0.334369
-0.316713 -0.409856 0.132881
0.235083 0.936288 0.114731
-0.159435 0.069913 0.188161
-0.509693 -0.117549 -0.120001
-0.462533 -0.154380 0.188547
0.225220 0.103911 -0.036815
-0.213855 -0.331816 0.256175
0.152911 0.150158 -0.183759
0.204866 -0.028463 0.352762
-0.309868 -0.314557 -0.296398
-0.091741 -0.168182 -0.267016
-0.513129 -0.287650 -0.009638
0.383588 -0.210841 -0.320104
-0.510653 -0.160810 0.105875
0.338693 -0.018167 0.235159
0.221833 0.173944 -0.022449
0.056504 -0.556859 -0.069632
-0.135095 -0.451977 0.041819
0.171671 -0.253594 -0.312919
0.036320 -0.086377 -0.241339
-0.238176 -0.358004 0.214906
0.089035 -0.205308 -0.288192
0.087095 0.311585 0.161131
-0.603899 -0.428301 -0.350765
0.220207 -0.008847 0.124102
0.324960 0.182051 0.109174
0.126457 0.145597 -0.207442
-0.508861 -0.077788 -0.040984
-0.615793 -0.363665 -0.189974
-0.393006 -0.391628 0.105360
-0.244829 -0.051746 -0.261092
-0.387058 0.074214 -0.120348
0.243934 -0.109161 -0.212491
-0.586527 -0.317856 -0.065202
-0.348605 -0.492728 -0.009369
-0.460707 -0.033258 -0.102085
-0.479450 -0.187147 -0.200931
0.165745 0.013867 0.358598
0.225743 0.779277 0.309478
0.331852 0.149309 0.104253
-0.163197 0.268223 -0.122446
-0.164739 0.103493 0.126004
0.251333 0.547637 0.269938
-0.180388 0.075063 0.030451
-0.403574 -0.352259 -0.035914
0.085569 0.207941 0.038521
0.397512 0.021516 0.160915
0.217935 -0.285940 -0.308479
0.428799 -0.250948 -0.422320
-0.139307 -0.098883 -0.261381
-0.425648 -0.347653 0.007867
-0.236657 -0.025212 0.242442
0.010257 -0.011601 0.412924
0.092357 -0.528251 -0.178121
0.098028 0.306978 0.192588
0.406886 -0.043839 0.174438
0.140031 0.018389 0.375229
-0.194511 -0.506602 0.001224
0.154046 0.117487 0.293895
-0.499943 -0.263639 -0.203187
0.080941 -0.254371 -0.215568
-0.342550 -0.231536 -0.298651
-0.517858 -0.490037 -0.341494
0.123665 -0.378814 0.029706
-0.188891 -0.078747 0.254588
0.201149 -0.228388 0.038991
0.209439 0.026570 -0.091768
0.049696 0.223159 0.101427
0.047833 -0.525070 -0.152044
-0.453217 -0.011419 -0.074162
0.120133 -0.283867 0.076479
-0.581367 -0.572026 -0.324927
-0.352934 0.012121 -0.208388
-0.102291 -0.285599 0.232710
0.248229 0.045137 0.275432
-0.432162 -0.350367 0.111050
-0.330558 -0.494204 0.013768
0.015514 0.123448 -0.032757
0.388079 0.261388 0.115733
0.251942 -0.282183 -0.250406
0.225576 0.016556 0.132594
-0.295750 -0.340597 -0.196978
0.044930 -0.367067 -0.009551
-0.355556 -0.353417 -0.166180
0.126106 0.288165 -0.041248
0.218715 0.944070 0.146372
0.242716 0.525510 0.263647
-0.139523 0.293214 -0.070684
-0.646298 -0.309867 -0.217246
0.084014 0.267188 0.187736
-0.132811 0.072854 -0.018450
-0.243595 -0.635123 -0.155584
0.067694 -0.271277 0.107649
0.455438 -0.315793 -0.497963
0.056381 -0.463401 -0.032803
0.052962 0.126521 0.190776
0.136081 -0.235917 -0.299499
0.199291 0.222183 -0.163130
-0.311110 -0.533165 -0.008405
0.004259 0.208959 -0.232412
0.395129 0.466251 0.234268
-0.226621 0.088207 -0.049004
-0.596667 -0.331135 -0.088454
-0.052294 -0.072570 -0.204537
0.353200 0.465554 0.301045
0.143983 -0.404959 0.006181
0.252643 0.079999 -0.036988
0.000541 -0.294843 -0.178375
0.133032 -0.263419 0.078472
-0.136548 0.251030 -0.082633
-0.425490 0.055862 0.116625
0.145205 -0.608027 -0.135114
0.026658 0.216267 0.133842
0.231439 -0.231144 -0.050847
0.360215 0.560763 0.302829
-0.443488 -0.410105 -0.215029
0.376698 0.374720 0.074357
-0.481055 -0.032489 -0.006527
0.190005 0.336333 -0.007942
-0.114109 -0.239747 0.247798
-0.431207 -0.172474 0.221806
-0.310990 -0.599732 -0.176266
-0.113424 -0.094002 -0.245608
-0.110268 -0.320873 0.225566
-0.268424 0.092644 -0.112810
0.252916 0.930335 0.181797
0.116835 -0.611405 -0.048926
0.149555 -0.272267 0.063066
-0.278881 -0.130261 -0.273335
-0.343652 -0.321588 0.200184
0.251975 0.512893 0.122942
-0.562461 -0.326008 -0.080708
-0.331735 -0.206571 0.263492
-0.526799 -0.402832 -0.203882
0.085826 -0.430087 -0.149370
-0.383255 -0.350377 0.167438
0.453308 -0.281862 -0.459801
0.399835 -0.415191 -0.403087
-0.444641 -0.291408 -0.310770
0.426114 0.433623 0.272486
-0.002740 -0.061056 0.210282
0.406230 -0.233472 -0.397976
-0.308504 0.111677 0.001431
0.055398 -0.320737 0.068418
0.125287 0.185164 -0.121657
-0.388430 -0.385713 -0.294055
-0.549117 -0.320407 -0.308081
0.063261 -0.216373 -0.255882
0.204330 0.356923 -0.004971
-0.237005 -0.509526 0.041505
-0.459153 0.005256 0.073420
0.251202 -0.164997 -0.016224
0.135512 -0.627333 -0.059790
0.024528 -0.041775 0.424443
-0.140335 -0.192659 0.265940
0.063325 -0.346978 0.050770
0.286023 -0.234603 -0.211921
0.234900 0.452089 0.048818
0.048252 -0.120883 -0.272766
-0.377425 -0.371876 -0.055327
-0.038802 0.202476 -0.147862
0.368908 0.494960 0.249420
0.395723 0.348565 0.047668
0.111462 0.323489 0.040613
0.110783 0.770421 0.268396
0.117559 0.387346 0.092165
-0.507780 -0.215664 -0.128781
0.008973 0.198065 0.098178
-0.538689 -0.175744 0.052102
0.346488 0.566839 0.350144
-0.582590 -0.560894 -0.298567
0.173338 -0.319403 -0.105751
0.356949 0.265324 0.049482
-0.271470 0.087432 0.154890
0.225028 -0.027633 0.250439
-0.023460 0.179640 -0.225322
-0.501570 -0.514646 -0.404146
0.281626 0.633766 0.362938
0.136687 0.290780 0.216204
0.166941 0.301036 -0.014662
0.124214 -0.243053 -0.278250
0.209907 -0.031364 -0.130640
-0.169235 -0.025404 -0.232005
0.316374 0.293541 -0.035818
0.137472 0.329771 0.220543
-0.201426 -0.342328 -0.198706
0.302857 0.155347 0.159625
0.031154 0.168354 0.029621
-0.066355 0.223507 -0.110512
0.365380 0.265534 0.173619
0.247324 0.827154 0.233558
0.399656 0.363005 0.246622
-0.451451 -0.317419 0.125717
0.231162 0.468692 0.242288
0.291258 0.111547 -0.252982
0.134017 -0.145664 -0.308307
0.205665 0.661516 0.078997
-0.543590 -0.258983 0.020487
0.167546 0.419306 0.082377
-0.341813 0.104924 -0.064219
0.026183 0.102655 0.343277
0.255823 0.593825 0.006694
0.327699 0.398100 0.021077
0.308272 0.473403 0.156616
-0.227320 -0.311814 -0.228176
0.023615 0.254496 -0.160465
0.201215 0.077093 -0.062369
0.075372 -0.568253 -0.056641
0.336977 0.293043 0.206380
0.188677 0.249485 -0.102964
-0.456476 -0.318846 0.062997
-0.288445 -0.626647 -0.176984
0.248763 -0.070023 0.335339
-0.141933 -0.348678 0.231962
-0.272717 -0.259110 0.291493
0.283096 0.071270 -0.017763
0.275834 0.880150 0.133762
0.037910 0.015501 0.370964
0.380836 0.269668 0.147806
0.054184 -0.361770 0.023913
0.193800 0.931660 0.097116
-0.104913 -0.163901 0.224720
-0.227836 -0.569812 -0.049579
-0.202470 0.072336 0.135306
0.234109 -0.287691 -0.265812
-0.186224 0.022436 -0.194717
0.316024 0.453026 0.192532
0.156076 0.345985 0.234076
0.244840 -0.016823 -0.088186
-0.238277 -0.333368 0.244548
0.355437 -0.115995 0.216328
0.474087 -0.376244 -0.405189
0.051653 0.229098 -0.054245
0.221582 0.711472 0.304779
0.133615 0.116452 0.307555
-0.497442 -0.197465 -0.173408
0.176075 -0.546692 -0.115759
-0.506248 -0.070460 0.018410
0.261614 -0.102991 0.007898
0.200249 0.209829 -0.188923
-0.378075 -0.193682 -0.274589
0.111644 0.195899 0.264322
-0.607757 -0.310776 -0.079337
0.029700 0.132274 0.192709
-0.593969 -0.398637 -0.294816
-0.187573 -0.406051 0.165518
0.196447 0.177299 0.229994
-0.550865 -0.457102 -0.374843
0.097366 -0.205340 0.128978
-0.499938 -0.102525 0.105181
-0.092101 0.255655 -0.174909
-0.193383 0.020718 0.195776
0.028785 -0.060410 0.201713
-0.388004 -0.395865 -0.018949
0.334088 -0.188423 -0.338165
-0.434846 -0.133140 -0.218415
0.109580 0.010884 0.405072
0.049636 -0.101614 -0.258133
0.153695 0.595686 0.254296
-0.347865 0.083894 -0.150935
0.051765 -0.594643 -0.153389
-0.457882 -0.317189 -0.105269
0.232781 0.196647 -0.035559
-0.353541 -0.503711 -0.035250
-0.201590 -0.098090 -0.274134
0.271029 0.890849 0.087727
0.275299 -0.114546 0.274873
0.177235 0.412795 0.060299
0.190705 0.633367 0.184863
-0.308288 -0.142939 -0.269432
0.098030 0.235675 0.028639
-0.538859 -0.205348 0.053682
0.069347 0.268832 0.097814
0.311031 0.399611 -0.007025
0.264348 0.465245 0.012357
-0.030191 -0.369499 -0.003571
-0.451125 -0.041128 -0.133301
0.096905 -0.094907 0.427929
0.201734 0.629326 0.136526
0.349197 0.106866 0.144533
-0.167691 0.071657 0.008770
0.245125 0.408529 0.233508
0.234981 0.813941 0.310312
-0.063018 -0.399533 0.050906
-0.124381 0.268224 -0.159700
0.125860 -0.635871 -0.084749
0.080712 0.163475 0.243261
0.311964 0.125036 0.041335
-0.163063 -0.375748 0.209384
-0.222810 -0.236843 0.309854
-0.650692 -0.517073 -0.288147
0.262389 0.582896 0.206314
0.151068 -0.017782 0.303877
0.276357 -0.047297 -0.049472
-0.338647 -0.423769 0.104732
-0.051180 -0.301355 0.173325
0.081315 0.060730 0.191400
0.223037 -0.264133 -0.039490
-0.005666 0.194376 -0.150852
0.191660 -0.583173 -0.144146
0.054086 -0.248522 -0.217741
0.196123 -0.590805 -0.117539
0.109675 0.348112 0.088409
0.185935 -0.153921 -0.316836
-0.487144 -0.276931 -0.026226
-0.439409 -0.303649 0.165291
0.265380 0.105707 -0.242040
0.119739 -0.091396 -0.261989
0.333256 0.426581 0.139997
-0.143055 -0.448116 0.077877
0.277279 -0.018715 -0.052832
0.197568 -0.269610 -0.099322
0.281747 -0.029318 0.004331
0.368106 0.334906 0.220271
0.170322 0.207365 -0.206369
-0.357708 -0.628128 -0.115181
-0.175355 -0.204509 0.294833
-0.255303 -0.068694 0.275851
-0.087253 0.252255 -0.055244
0.083300 -0.521924 -0.039053
-0.098538 -0.423883 -0.005489
0.336295 -0.183342 -0.268609
0.103779 -0.020384 0.431344
-0.504430 -0.094716 -0.107478
-0.046684 -0.330948 -0.148825
-0.249332 -0.214103 0.314987
-0.230722 -0.291411 -0.250386
-0.498334 -0.239082 -0.170494
0.255065 0.605901 0.228269
-0.273546 0.016705 0.224645
-0.524075 -0.103369 -0.031749
0.243980 -0.015666 0.314217
0.361400 0.377151 0.096175
-0.337573 -0.610088 -0.065774
-0.295749 0.009746 0.231642
-0.237587 -0.611499 -0.179591
0.231886 0.921150 0.222354
0.261393 0.607971 0.060122
0.066889 -0.065267 0.188379
-0.393212 -0.405856 0.054343
0.090941 0.185808 0.214076
0.152093 0.377369 0.054337
-0.071427 0.299563 -0.067452
0.239263 0.396328 0.000280
0.228738 0.568375 0.051829
-0.227195 -0.140954 -0.283886
-0.451986 -0.013306 0.150951
-0.195980 0.077594 0.088539
0.213622 -0.082209 -0.205090
0.358650 0.020045 0.107157
-0.028535 -0.346918 0.107053
0.023749 -0.201524 0.162501
-0.264237 -0.539932 0.006362
0.422462 0.366763 0.217552
0.036280 -0.366890 -0.058082
-0.379060 -0.289665 0.209154
0.219483 0.775450 0.270680
-0.570866 -0.490521 -0.256427
0.366719 -0.322026 -0.476712
-0.056539 -0.353089 0.147953
0.001015 0.208472 -0.116087
0.082009 -0.242225 -0.237579
0.292947 0.222128 -0.042181
0.128760 0.191162 0.004089
-0.370642 0.018226 0.223559
-0.055138 0.239927 -0.068845
0.323839 0.412278 0.223559
-0.075992 -0.391519 -0.052932
0.082685 0.146320 -0.248146
0.267021 0.583925 0.071576
-0.509008 -0.133490 0.102476
0.393394 0.053092 0.140662
0.060337 0.156219 0.306009
0.375823 -0.403170 -0.433190
0.031094 0.183299 0.052217
-0.126509 -0.191272 -0.277769
0.072029 -0.267384 -0.192817
0.250726 0.830418 0.281278
0.011516 0.058394 0.371048
0.225212 0.587002 0.076165
0.131171 -0.099987 0.420063
-0.616437 -0.442587 -0.273656
0.149988 -0.479016 -0.032186
0.188656 -0.071279 0.124155
0.170190 -0.141193 0.108689
-0.367984 -0.263035 0.222805
0.293276 -0.022448 0.275314
0.270103 -0.012297 0.202501
0.001472 0.183952 -0.247653
-0.322591 -0.567229 -0.041098
-0.466731 -0.085558 0.163950
0.076634 0.007275 0.432592
0.306100 -0.161860 -0.244541
-0.478501 -0.260799 0.132730
-0.257724 -0.294561 -0.259631
-0.163364 -0.467973 0.008299
0.254859 0.558151 0.071685
0.171362 -0.254322 0.054774
-0.589348 -0.299483 -0.048657
-0.131198 0.142826 0.144603
-0.393266 -0.247256 0.222471
0.198539 -0.293257 -0.084789
0.169913 0.379344 0.034326
-0.260378 0.063824 0.186432
-0.445871 0.026945 0.038480
-0.331683 0.019917 -0.217749
-0.281405 -0.098726 0.291215
0.171500 -0.361164 0.004343
0.421196 0.440523 0.247688
0.165262 0.082525 -0.069658
-0.432584 -0.158664 -0.231108
-0.594508 -0.535062 -0.278570
-0.160721 -0.262823 0.282828
-0.202814 -0.480244 0.067144
-0.256020 -0.238021 -0.288390
0.139211 -0.122691 -0.290811
0.260777 0.263741 -0.045407
0.262964 -0.111945 -0.069146
-0.002118 0.024982 0.400291
0.354706 0.407983 0.167428
0.311879 0.237727 -0.013408
-0.341939 -0.039169 0.249238
0.166153 0.618807 0.301995
0.097551 0.322769 0.086310
-0.251763 -0.655006 -0.124678
0.398995 -0.366061 -0.491755
0.084473 -0.013157 0.353706
-0.081911 -0.319594 -0.194896
0.082185 0.205746 0.200447
0.318103 0.127333 -0.209098
0.417717 -0.339246 -0.357295
0.198551 0.045375 0.313368
-0.222628 -0.553263 -0.029573
-0.281274 0.082046 -0.157689
0.074588 -0.020502 0.191333
-0.533067 -0.225217 -0.075753
-0.626793 -0.500244 -0.424783
-0.228593 0.006318 -0.235342
0.253023 0.196916 -0.183973
0.224136 0.552337 0.277436
-0.343468 -0.390101 0.143160
0.187175 -0.275347 -0.233244
-0.387117 -0.223104 -0.285775
-0.331581 -0.037714 -0.234510
0.321137 0.148519 -0.144384
0.329504 -0.069352 0.263728
-0.288437 -0.463033 0.082834
0.118013 -0.058942 0.169455
0.230634 0.686351 0.328256
0.365474 0.084180 0.104001
-0.203679 -0.315951 -0.226956
-0.005165 0.259746 -0.157125
-0.493201 -0.159559 0.137756
-0.650393 -0.489079 -0.290910
0.305996 0.604396 0.361670
0.199347 -0.246465 -0.122018
0.488404 -0.373987 -0.458470
0.281398 0.025335 0.162215
0.038543 0.221508 -0.074831
0.113591 -0.436230 -0.147660
-0.419877 -0.410191 -0.246563
0.271863 0.478336 -0.023500
0.385915 0.439274 0.208681
0.228540 -0.169411 0.035882
0.173101 0.127876 -0.229759
0.141647 -0.263098 -0.262260
0.068828 -0.371012 0.041381
-0.246710 -0.469406 -0.142144
0.174654 -0.231688 -0.337188
0.379039 0.283633 0.088671
0.292583 0.036617 -0.012342
0.080103 0.285043 0.168642
-0.368858 -0.248302 -0.301504
-0.271270 -0.476966 0.072988
-0.218221 -0.547955 -0.071032
0.252942 0.451375 0.031036
0.043375 -0.447178 -0.065459
-0.106297 0.111990 0.028359
0.039245 0.083872 0.330028
-0.144054 0.105458 0.075399
-0.677727 -0.534473 -0.355993
-0.347821 -0.656816 -0.107679
0.082873 -0.082877 0.179331
-0.133163 -0.033652 -0.207558
-0.428811 -0.359177 0.077569
-0.517460 -0.222412 -0.094402
-0.428369 0.044777 -0.032128
0.411350 -0.228969 -0.351533
0.348490 0.407651 0.243633
-0.032034 -0.129396 0.200980
0.179487 0.063749 0.225320
0.080841 0.065141 -0.105674
-0.541135 -0.148328 -0.034934
0.268126 -0.145221 -0.160990
0.143841 0.046791 0.353086
0.298181 -0.201335 -0.204935
0.106265 0.075229 -0.090955
0.065358 0.262471 0.120855
-0.466912 -0.220198 0.173689
0.283563 0.173222 0.170600
0.143623 0.020714 -0.134497
0.283106 -0.007289 0.024269
0.289196 0.038607 0.134735
0.247328 -0.200344 -0.361213
-0.016178 -0.259454 -0.220355
0.076947 -0.085977 0.437894
0.058875 -0.190931 0.156424
0.013442 0.205735 0.150964
0.206064 0.532135 0.147259
0.033634 0.202037 0.082901
0.117475 0.712923 0.247688
0.053109 -0.424424 -0.017472
0.166328 0.005307 0.275632
-0.179031 -0.310193 -0.235583
-0.577026 -0.539648 -0.380926
0.392738 0.037592 0.108477
0.304612 0.069233 0.070908
0.295656 -0.290092 -0.387112
0.336551 0.117007 0.084109
0.003396 0.083616 -0.087524
-0.249072 0.074807 0.164559
-0.152495 0.097943 0.182000
0.279146 -0.074182 0.238535
0.260134 0.231275 -0.089329
0.135546 -0.131785 0.138476
0.111992 0.085162 0.346649
-0.036944 -0.364260 0.092631
0.042262 0.195413 -0.129513
-0.522872 -0.266216 -0.079094
0.057386 0.044380 0.197982
0.102174 0.734569 0.307244
0.195083 0.128315 -0.029128
0.180897 -0.603700 -0.131117
0.415145 -0.042158 0.121119
-0.356913 -0.614955 -0.095170
0.206765 -0.033812 0.269838
0.191752 -0.041522 0.287622
0.062248 -0.250463 0.121604
-0.354785 -0.432512 -0.072664
0.378306 -0.249089 -0.425262
0.308819 0.150098 -0.219525
0.262530 -0.252006 -0.214149
0.260636 0.050917 -0.046645
0.271017 0.456869 -0.010719
0.303260 0.178224 -0.165022
0.125981 0.760333 0.350248
0.209062 -0.123701 -0.279996
0.068800 -0.495869 -0.034135
0.262638 0.240751 -0.064691
0.304321 0.241082 0.198272
0.297482 0.140112 -0.151938
-0.438785 -0.422195 -0.265621
-0.005044 0.127184 -0.021141
0.227382 -0.210063 -0.122389
-0.206995 -0.253670 0.302630
-0.424738 -0.002677 0.194519
-0.365072 -0.039495 0.243006
-0.239773 -0.556960 -0.146547
-0.295031 -0.243895 -0.300256
-0.425514 -0.064781 -0.183633
0.072505 0.231330 -0.042118
0.298417 0.170317 -0.195728
0.169832 -0.486790 -0.059481
-0.177546 -0.289704 -0.252815
0.224009 0.297162 -0.035325
0.321940 0.612665 0.337888
0.013626 -0.085929 -0.232316
-0.025924 -0.036644 -0.183852
0.193734 0.490617 0.134268
-0.377848 0.043564 0.212409
0.229280 0.241523 -0.092723
0.221937 0.304054 0.225191
-0.380829 -0.129925 -0.243331
0.049954 -0.004010 -0.176628
-0.629280 -0.346356 -0.137190
0.217215 0.636643 0.156832
-0.238073 -0.141973 0.308821
0.027605 0.267240 -0.132286
-0.330193 -0.468956 -0.112710
-0.274779 -0.256136 -0.293029
-0.168723 -0.360744 0.228283
0.093282 -0.501310 -0.027336
0.382564 -0.222888 -0.298420
-0.520554 -0.439226 -0.221575
-0.331352 -0.359939 -0.264618
-0.440633 0.016447 0.151545
0.313892 0.046701 0.222540
0.148105 0.734877 0.216197
0.083797 -0.623415 -0.057054
-0.217150 0.039485 0.190208
-0.109110 0.078735 0.212842
0.349682 -0.247178 -0.415557
-0.023016 0.207378 -0.128329
0.264862 0.021120 0.090428
-0.089275 -0.153487 0.209540
0.251900 0.087531 0.246109
0.308580 0.461830 -0.026035
-0.139100 0.117649 0.184834
0.229127 0.199208 -0.194484
-0.142926 0.078478 0.006630
0.074174 0.184769 0.265448
-0.031035 -0.057471 0.215063
0.016357 0.073147 0.205568
0.016262 0.028370 0.460052
-0.384287 0.088309 -0.043856
0.392737 -0.218861 -0.371156
-0.011495 -0.030822 0.214608
0.164913 -0.592731 -0.067384
0.184081 -0.422506 -0.089157
-0.036038 0.266445 -0.014705
0.259282 -0.181005 -0.344702
0.051403 0.149962 0.185905
0.363241 -0.229809 -0.403297
-0.422018 -0.342020 -0.015671
-0.258668 -0.380801 0.180327
0.231638 -0.061813 0.087812
0.306541 -0.029637 0.183801
-0.236011 0.094532 -0.010267
-0.138804 0.251341 -0.168586
0.130206 -0.419649 -0.138797
-0.131639 -0.067721 0.213330
0.328000 0.582201 0.357262
0.179279 0.794477 0.241695
0.178988 0.182564 -0.109483
0.083296 0.034537 0.190739
-0.189049 -0.030861 -0.246208
0.279936 0.185329 -0.021184
-0.563855 -0.311182 -0.048012
-0.102428 0.091981 -0.018217
0.291935 0.194129 0.162343
0.298655 0.554867 0.284437
0.266562 0.416686 -0.005666
0.383556 -0.347987 -0.508019
0.091846 0.123126 0.256251
-0.025850 -0.361974 -0.044336
0.039217 -0.396699 -0.067896
-0.259607 0.016304 -0.232838
-0.603745 -0.345398 -0.113066
0.280318 -0.045234 -0.020189
-0.411692 -0.333069 -0.077624
0.302623 -0.130156 0.276086
-0.153267 -0.156098 -0.281845
-0.119772 -0.055845 -0.217866
-0.064178 -0.039485 0.217829
-0.234164 -0.465803 0.094117
-0.119111 -0.391272 0.169106
-0.515351 -0.142337 -0.122778
0.174728 -0.558362 -0.088652
0.189207 -0.257017 0.037055
0.285858 0.379905 0.230908
-0.168292 -0.118090 0.262063
-0.256250 0.101961 0.001242
-0.010122 -0.002000 0.460754
0.287757 0.463740 0.230870
0.053264 0.212410 -0.225639
0.239752 0.372803 -0.010670
0.167358 0.063959 0.323888
0.084703 -0.225564 -0.262014
0.356309 0.342207 0.022580
-0.557132 -0.212889 -0.051462
-0.124662 -0.096052 0.218175
0.320669 0.459494 0.035144
0.363541 0.371651 0.123260
0.246922 0.902702 0.102525
0.313201 0.038547 0.126221
-0.453749 -0.270947 0.170157
-0.231036 -0.268796 0.299918
-0.673846 -0.511905 -0.345618
0.244751 0.446509 0.238569
0.180568 0.008747 0.154797
-0.224948 -0.064933 -0.265165
-0.172343 -0.377924 -0.160784
0.110758 0.263277 0.210518
-0.214738 -0.379410 0.196818
-0.274055 -0.664631 -0.113043
-0.313218 0.102384 0.146445
0.096151 -0.281764 0.090628
0.110976 0.199481 -0.236369
-0.423664 -0.030916 -0.153377
-0.521038 -0.212173 0.081088
0.176094 -0.453145 -0.099157
0.402898 0.497412 0.301512
0.198035 0.186663 -0.095325
0.305583 -0.321307 -0.359261
-0.021635 -0.086977 -0.220312
0.111278 -0.465566 -0.008193
-0.193408 -0.129652 -0.281992
-0.165954 -0.263349 -0.269869
0.139998 0.167352 -0.007206
-0.191679 -0.387759 0.190140
-0.135212 0.132469 0.123099
-0.233712 0.057105 0.180210
-0.334051 -0.012831 -0.226708
0.105115 0.187841 0.013404
-0.137312 -0.040141 0.208480
0.154128 0.014301 0.166884
0.229583 -0.099722 0.071202
-0.428785 -0.397233 -0.314253
-0.198256 -0.200197 0.307096
-0.404558 -0.364943 -0.162034
0.210364 -0.269828 -0.220176
-0.215372 0.071186 -0.115922
0.361086 0.242847 0.073816
0.225928 0.648473 0.071267
-0.399209 -0.386235 -0.209067
0.028530 0.212614 -0.097017
0.246997 -0.041230 0.241721
0.147610 0.635213 0.221189
-0.564391 -0.286421 -0.245838
0.203824 0.589305 0.172615
0.247147 0.880554 0.088752
0.043575 -0.022462 -0.191868
0.220400 0.722599 0.283464
0.183612 0.217718 -0.042539
-0.296326 -0.037149 -0.248159
0.051688 0.172996 -0.176772
0.091972 0.150354 -0.215752
0.078479 0.237585 0.192313
-0.290489 -0.302558 -0.288402
-0.361930 -0.395713 0.127372
0.429694 -0.243402 -0.395102
-0.280426 -0.675698 -0.090831
-0.465331 -0.288729 -0.036126
-0.275284 -0.551196 -0.168213
0.453283 -0.343576 -0.383481
0.218873 0.448520 0.233066
-0.514561 -0.394289 -0.353227
0.300506 -0.298219 -0.281008
0.214130 -0.273498 -0.329067
0.196181 -0.009418 -0.124770
0.139962 0.003455 -0.155816
0.024657 0.305071 0.030682
0.155667 -0.423440 -0.010209
0.117606 -0.066445 -0.236900
-0.255556 -0.243693 0.306526
0.256491 0.214315 -0.136345
0.239763 0.229439 -0.113958
0.139192 -0.056398 -0.223662
0.118257 0.086966 0.184866
-0.125471 0.006440 -0.147173
0.067765 0.140568 0.333294
-0.420908 -0.235192 -0.277951
0.008588 -0.199388 -0.245922
0.288472 -0.236717 -0.390076
-0.109885 0.032057 -0.097268
0.249285 -0.236466 -0.190061
0.210561 0.385384 0.235209
-0.503031 -0.077161 -0.072687
0.194481 0.912619 0.152347
-0.320677 -0.027051 0.249229
0.054691 -0.611951 -0.077829
-0.555600 -0.486065 -0.419061
0.169541 0.876528 0.302683
0.309986 0.273319 0.210811
0.253579 -0.093152 -0.102340
-0.240921 -0.051990 0.262238
0.358774 -0.264938 -0.429886
-0.311397 -0.359689 -0.138725
0.122520 0.235303 -0.175784
0.247892 0.855197 0.170589
-0.212296 -0.042904 -0.257319
0.054785 -0.583017 -0.076323
-0.279094 -0.231657 0.301793
0.224752 -0.192259 0.028128
-0.073523 -0.086830 -0.218886
-0.207441 -0.513901 0.020401
0.313365 -0.078540 0.279948
-0.368214 -0.229778 0.234353
0.222365 0.830916 0.323301
0.027139 0.191250 -0.249666
-0.305150 0.057715 0.206819
-0.584304 -0.517346 -0.419485
0.355518 0.285022 0.035047
0.041175 -0.463415 -0.096662
-0.446538 -0.149532 0.208658
-0.031049 -0.365904 0.067481
-0.374307 -0.352428 -0.084283
0.277046 -0.001249 0.047313
-0.360776 -0.305115 0.205680
0.427764 0.417904 0.242802
0.191688 -0.394391 -0.040591
-0.508413 -0.093886 0.073175
0.091391 0.132060 0.333789
-0.120851 0.101765 0.203631
-0.228905 -0.591592 -0.147112
0.252405 0.165875 -0.239974
-0.296717 -0.437954 -0.125761
-0.311673 -0.006519 -0.234999
0.032938 -0.040252 -0.203882
0.312621 0.454955 0.064746
0.167639 -0.045810 0.389492
-0.407864 -0.386907 0.043323
0.143900 0.115037 0.203617
-0.596357 -0.497081 -0.260588
0.291876 0.513011 0.169871
0.291301 0.017875 0.005415
0.114455 0.132324 0.197758
0.285952 0.562266 0.048590
0.189130 0.128298 -0.279308
-0.040554 -0.203137 0.180194
0.182180 -0.607129 -0.076867
0.286951 -0.079026 0.306478
0.224446 0.220627 -0.149287
0.167967 -0.263301 -0.188689
0.381073 0.222619 0.125709
0.102935 0.068233 0.283265
0.356542 -0.014028 0.214822
0.375455 -0.013431 0.116430
0.413540 0.465330 0.263427
-0.199915 -0.127239 0.287746
0.254139 -0.115833 -0.113220
-0.033640 0.006518 -0.149082
0.048024 -0.236042 0.135306
-0.408899 -0.364233 -0.006083
0.271745 -0.050304 0.227541
0.356429 0.440258 0.219531
0.168089 0.433155 0.193793
-0.468904 -0.275349 -0.288706
0.320978 0.573441 0.281591
-0.448374 -0.236117 0.193755
-0.371201 -0.204581 0.241665
-0.040073 -0.374216 -0.025360
-0.328150 -0.634677 -0.063122
-0.148131 0.270420 -0.070392
0.261561 0.605265 0.034366
0.111043 0.281292 -0.065971
0.159282 -0.068534 -0.230173
-0.061658 -0.388233 -0.032105
-0.410290 0.072971 0.102703
0.358530 0.442791 0.287403
0.148936 0.421223 0.183571
0.026938 -0.175239 -0.260849
-0.068418 -0.379477 -0.072864
0.156544 -0.516091 -0.054689
0.356978 0.085815 0.158109
0.310556 -0.235935 -0.229666
-0.124313 -0.173164 0.245403
-0.308097 -0.663789 -0.053654
-0.245403 -0.186898 -0.289253
0.090305 0.239982 -0.017029
0.284174 0.537033 0.156375
-0.447014 0.026550 0.078791
0.202705 0.254087 -0.081850
-0.394930 -0.346198 -0.064518
0.132943 -0.394396 -0.132808
0.072484 0.100417 0.371563
-0.628242 -0.316269 -0.146181
0.240358 0.319539 0.225393
-0.493153 -0.312198 -0.159551
0.042379 -0.445284 -0.112226
-0.227154 -0.018145 -0.248754
-0.517335 -0.117149 0.071363
-0.368517 -0.443569 0.025209
0.343025 -0.292146 -0.285618
0.074851 0.100241 -0.067603
-0.407151 0.070112 -0.030054
-0.011669 0.185656 -0.176917
0.195573 -0.271920 -0.311114
0.045042 0.287162 0.064500
0.271718 -0.137565 -0.250090
0.099877 0.365044 0.151578
0.310232 0.015694 0.148090
0.269473 0.172781 -0.219375
-0.469562 -0.287598 0.123852
0.168517 -0.130670 -0.296494
0.488409 -0.336473 -0.422944
-0.203581 0.064066 0.158250
-0.342291 -0.654568 -0.080802
0.253184 0.062966 0.260161
