0.454146 0.784409 -0.000575
0.108408 -0.048263 0.621356
-0.239708 -0.197830 0.200339
0.019085 -0.264509 0.101113
0.034014 -0.434430 -0.293897
-0.355987 -0.313062 0.013836
0.132228 -0.250233 -0.381294
0.040770 0.467283 -0.180948
-0.142146 -0.262287 0.304106
0.053844 -0.007318 0.400531
-0.299850 0.403928 0.378046
0.084458 0.010970 0.518589
-0.541922 -0.400365 0.197328
0.067962 0.424726 -0.010744
-0.066391 -0.115664 -0.012177
0.280628 0.515948 -0.413436
-0.280967 -0.233462 -0.303842
0.349234 0.174672 -0.541559
0.396840 -0.135126 -0.558245
0.129774 -0.282675 -0.384161
-0.393700 0.227173 0.367379
-0.660152 -0.130722 0.229514
-0.460510 -0.130481 0.501877
0.253173 -0.404112 -0.036876
0.263398 0.004571 -0.379623
-0.086330 -0.260292 0.678509
-0.593101 -0.380764 0.094841
-0.070225 0.536489 -0.456510
0.248576 -0.308974 -0.198075
0.125337 0.530195 -0.106096
0.246519 -0.192776 0.179128
-0.178129 0.303158 0.302733
0.253414 -0.165137 -0.140347
0.014589 0.485679 -0.394908
0.450587 0.530050 -0.077828
0.260353 0.739075 -0.200959
0.528979 -0.133781 -0.071543
-0.545917 -0.011722 0.078395
0.079634 -0.282257 -0.487416
-0.075797 -0.197491 -0.552616
-0.286929 -0.302032 0.146104
-0.248284 -0.071368 0.412986
0.411867 0.533900 -0.069382
0.064883 -0.165215 -0.470214
-0.663834 -0.285894 0.064417
-0.290080 -0.046590 0.361503
0.417070 0.042171 -0.414162
-0.332155 0.242798 0.497865
0.506272 -0.259394 -0.136861
-0.602908 -0.361328 0.062812
0.414497 -0.234632 -0.185566
0.541970 -0.366890 0.036951
0.182163 -0.164465 -0.018331
0.320811 0.575866 -0.175867
0.113804 -0.064115 -0.031629
0.448061 -0.070829 0.125808
-0.524551 -0.377347 0.028624
-0.292031 -0.186334 0.479437
0.318462 0.314911 -0.314826
-0.115547 0.737054 -0.465420
0.276413 0.714622 -0.191621
0.552568 -0.191031 0.123586
-0.407048 -0.081202 0.576351
-0.357467 -0.026503 0.156778
0.214196 -0.054373 -0.277203
0.080935 -0.003917 0.432364
-0.320885 0.206210 0.354564
0.019389 0.520965 -0.122212
0.407015 -0.086913 -0.591339
-0.027257 0.475020 -0.095419
-0.098122 -0.172202 0.244249
0.115992 0.385394 -0.270595
-0.092254 -0.126633 0.697041
-0.472315 0.008361 0.143396
0.175535 -0.187826 0.571645
-0.236940 -0.232954 0.202019
-0.356268 -0.095778 0.279081
-0.386891 -0.102778 0.568235
0.268049 0.564562 -0.180229
-0.129017 -0.407424 -0.204520
0.222393 0.091684 -0.380325
0.274922 0.213434 -0.453707
-0.468541 0.147310 0.557959
0.465914 -0.306281 0.203141
-0.573769 -0.015479 0.114573
0.356285 0.044890 -0.541801
0.106595 -0.220418 -0.006295
-0.158983 -0.390315 -0.206054
0.285567 0.177923 -0.464252
0.086303 -0.197892 0.683338
0.555546 -0.315236 0.100891
0.317947 -0.079056 -0.481386
0.039419 -0.264319 0.677405
0.155684 -0.207464 0.408668
-0.080972 -0.099107 0.309243
-0.628783 -0.305806 0.022655
0.432795 -0.292493 -0.172248
0.483577 -0.129673 -0.509586
-0.262551 -0.302563 0.355270
-0.379863 -0.232237 0.477397
0.058017 0.585752 -0.386520
0.474044 0.178709 -0.495382
0.277696 0.136312 -0.451836
0.111121 0.711958 -0.285982
0.355850 0.075528 -0.543233
-0.653904 -0.190793 0.266466
0.199487 0.709205 -0.215706
0.242715 0.807589 -0.167419
0.411043 -0.112330 0.187495
-0.618296 -0.294366 0.278992
0.030415 -0.335452 -0.045404
0.080822 -0.337282 -0.033558
0.216244 0.009611 -0.302441
0.143863 -0.241382 0.406439
0.306400 -0.123974 0.180340
-0.327151 0.340577 0.477001
-0.006496 -0.145659 -0.185501
-0.147930 -0.446792 -0.425271
-0.319991 -0.202150 0.508544
0.353422 -0.436260 0.094992
-0.059982 -0.098748 -0.487680
-0.459394 -0.137844 0.343955
-0.066546 -0.184575 -0.151469
-0.359009 0.249187 0.323777
-0.364157 0.062841 0.391846
-0.442056 -0.059693 -0.008016
-0.283241 -0.270861 0.203392
0.465558 -0.130231 -0.552548
0.135749 -0.270508 -0.342792
-0.123062 -0.466792 -0.346796
0.492753 -0.125779 -0.107546
-0.007744 -0.101462 0.308761
0.073651 -0.331456 0.429854
-0.053803 -0.333195 0.380763
-0.065431 0.402638 -0.046904
-0.128129 -0.370932 -0.174323
0.496560 0.779342 -0.004059
-0.173441 -0.303468 0.198026
-0.528275 -0.360918 0.278524
0.381329 0.625431 -0.119892
0.029947 -0.335511 -0.078874
-0.028256 -0.186420 0.153327
-0.639339 -0.145226 0.010397
-0.024714 -0.014589 -0.044903
0.405024 0.822664 -0.072033
0.092192 -0.123722 -0.334432
-0.329218 0.119468 0.416726
-0.094858 0.377992 0.195374
-0.259292 -0.149155 0.437656
-0.674594 -0.145685 0.209149
-0.296654 -0.066306 0.324459
0.018064 0.598924 -0.416843
0.351530 -0.159872 -0.174083
0.011058 -0.342796 0.608448
0.205850 0.547893 -0.375433
0.519083 -0.280288 -0.120258
0.133135 -0.298710 0.533958
-0.475116 -0.404754 0.082267
-0.397243 0.072437 0.387168
-0.188093 -0.394253 -0.477546
0.413767 -0.396607 0.157666
-0.629771 -0.060820 0.093426
0.416753 -0.414601 0.133775
0.056647 0.359083 0.006573
0.581115 -0.273917 0.015164
0.436926 0.135918 -0.446172
0.482620 0.638144 -0.000590
-0.006123 0.593970 -0.437063
0.395064 0.532193 -0.121896
-0.097979 -0.053037 0.028232
-0.461986 -0.045853 0.467107
0.076310 0.298016 -0.100678
0.144177 -0.297384 -0.258490
-0.170565 0.829349 -0.527104
-0.696036 -0.212397 0.137239
0.248165 0.765554 -0.168808
-0.213808 -0.397134 -0.444547
-0.291875 -0.119289 0.473428
-0.487216 0.018992 0.548490
0.549664 -0.299104 0.126593
0.315431 0.046103 -0.491948
-0.295833 -0.313892 0.171976
0.408835 0.221101 -0.418392
0.371917 0.531468 -0.140651
0.381661 -0.063910 -0.562941
-0.469336 -0.034281 0.557061
0.009095 -0.034961 0.086110
-0.461082 0.031781 0.462619
-0.448206 0.006388 0.160323
-0.398851 -0.082744 0.388968
-0.311919 -0.075793 0.173819
0.021921 -0.109380 0.311490
0.195788 -0.292635 0.128808
-0.491940 0.144326 0.501989
-0.129553 0.413442 0.233576
0.345306 0.301591 -0.346935
-0.459070 -0.294399 -0.047737
-0.324563 -0.336269 0.209730
-0.257422 0.413302 0.343913
-0.524273 -0.171608 -0.063763
0.286762 -0.048417 -0.005037
0.386713 -0.438456 -0.039626
0.448414 -0.124820 -0.449696
-0.419959 -0.079094 -0.015933
-0.481181 -0.413082 0.170526
-0.027586 0.627622 -0.449517
0.104177 0.186107 -0.244028
-0.226622 -0.261133 0.193814
-0.106419 0.457500 0.013789
0.123164 -0.063213 -0.250217
-0.562413 -0.106689 0.310476
-0.662832 -0.095263 0.152708
-0.562515 -0.021775 0.209725
0.065297 0.018525 0.545020
-0.442766 -0.392158 0.055121
-0.197081 -0.082385 0.304971
0.199700 -0.337030 -0.057265
-0.355080 -0.252368 0.463868
-0.268454 0.250940 0.246176
0.069566 0.016674 -0.182539
-0.645944 -0.076410 0.179429
0.229962 0.829253 -0.211368
0.053829 -0.113431 -0.164567
0.043104 -0.035905 0.654360
0.113611 -0.026838 0.582904
-0.242466 -0.162957 0.201142
0.149811 -0.082929 0.595965
0.074579 -0.330870 0.581573
-0.281783 -0.026342 0.409491
-0.389492 -0.045264 0.579451
0.027405 -0.231287 -0.156594
-0.477230 0.126860 0.477207
-0.118937 0.796646 -0.498459
0.153896 0.444732 -0.118710
0.270816 0.450027 -0.263579
-0.364212 0.201136 0.539010
0.087239 0.388909 -0.234892
0.336972 0.648491 -0.113909
0.332652 0.121643 -0.316507
-0.343035 -0.066490 0.530710
-0.186572 -0.113646 -0.457829
0.225298 0.457323 -0.207995
-0.215444 -0.084674 0.163115
0.041839 -0.124419 0.698471
-0.163320 -0.326454 0.492444
0.428171 -0.110052 -0.134354
0.218991 -0.333442 -0.091561
-0.438669 -0.297007 0.331197
0.108374 -0.038992 0.409277
0.454985 -0.401680 -0.075483
-0.127800 -0.114015 0.675891
0.089942 0.052392 -0.169671
0.301781 0.027586 -0.310163
0.458171 -0.112912 -0.581148
0.054684 0.527377 -0.082880
0.117556 0.473345 -0.347343
0.282137 0.008204 -0.354825
0.350738 0.550034 -0.155222
-0.074323 -0.219200 0.305979
-0.217540 -0.335051 -0.215491
0.208696 -0.300088 -0.277844
0.343173 0.582469 -0.156944
0.178021 -0.303953 -0.276342
-0.024854 -0.130768 0.300629
0.113471 0.515756 -0.081968
-0.137401 0.665650 -0.532674
0.255468 -0.243892 -0.279415
0.450396 -0.086924 -0.444578
0.020736 0.506935 -0.152033
-0.179445 -0.098570 0.322343
-0.187817 0.792321 -0.545700
0.035088 0.700694 -0.387598
0.070415 -0.200014 -0.484147
0.077599 0.516690 -0.059356
-0.188172 -0.058890 0.240574
-0.489263 -0.148712 0.347673
-0.093381 -0.081398 0.016898
0.151699 0.723172 -0.252151
0.118362 -0.361484 -0.105949
0.071335 0.560921 -0.379358
0.127220 0.768423 -0.303695
0.350163 0.463063 -0.363209
-0.226227 -0.141211 0.403612
0.108616 -0.146649 -0.325269
0.111365 -0.102524 -0.234226
-0.159662 -0.252722 0.638385
-0.044734 -0.240719 -0.029734
0.270052 0.568712 -0.312451
-0.027812 -0.302022 0.069261
-0.120916 -0.061147 -0.401690
-0.124777 -0.056611 -0.372888
0.133002 -0.254567 -0.310281
-0.007378 -0.358180 -0.524398
0.131924 -0.184625 0.366533
-0.014006 0.039714 0.493094
-0.182815 0.756756 -0.517229
0.398830 0.249381 -0.582716
0.200475 0.337906 -0.169601
-0.090626 -0.243903 0.320012
0.469727 0.213936 -0.493653
-0.028787 0.462301 -0.464116
-0.057116 -0.362648 0.560687
-0.425503 -0.014562 0.227312
0.173891 0.454717 -0.144138
0.181027 0.827537 -0.250965
0.171054 -0.301414 0.041595
-0.311717 0.068881 0.443188
-0.276653 -0.298184 -0.413734
0.014773 -0.289942 -0.106059
0.115266 -0.238287 0.647313
-0.010306 -0.025901 -0.073953
0.360464 0.602510 -0.140070
-0.452747 0.122385 0.447098
-0.359071 -0.028777 0.125628
-0.206530 -0.276336 0.517875
0.010616 0.384576 0.061617
-0.091534 -0.099904 -0.488825
-0.366002 0.120050 0.546932
-0.414773 -0.082970 0.306489
0.441487 -0.400000 0.141302
-0.144837 -0.119554 -0.211069
0.392201 0.550831 -0.082835
-0.021862 0.010438 -0.002076
0.008683 0.481850 -0.142111
-0.348011 0.219875 0.518518
-0.506858 -0.320365 -0.033613
0.305037 0.021635 -0.477676
0.056469 -0.303074 0.038401
0.551960 -0.130028 0.048287
-0.269738 -0.195369 -0.294138
0.242514 0.654003 -0.227779
-0.426413 -0.368966 0.025820
0.062026 -0.404354 -0.418533
0.537762 -0.258612 -0.105610
0.549709 -0.230105 -0.090968
0.383252 -0.219432 -0.189675
0.244244 0.618186 -0.231635
-0.029174 -0.064437 -0.063937
0.104993 -0.363811 -0.131876
0.122675 0.086413 -0.158241
0.265165 0.795990 -0.150973
0.291592 -0.107575 0.160150
0.343290 -0.081996 -0.387258
-0.332346 -0.101834 0.260931
-0.123964 -0.131426 0.315045
-0.230027 0.411776 0.333699
0.000707 -0.067747 -0.298137
0.064829 -0.207853 0.042290
0.048282 -0.165287 -0.206382
-0.192001 0.323431 0.318624
0.180811 -0.170510 0.460926
-0.116794 -0.466799 -0.377170
0.146155 -0.268203 0.442783
-0.334687 -0.048541 0.159644
-0.235658 -0.162857 -0.451663
0.135486 -0.239790 -0.336803
-0.126192 -0.306689 0.617360
0.331160 0.501743 -0.177538
-0.667976 -0.207632 0.244385
0.470438 0.103758 -0.484923
-0.363240 0.332285 0.489531
-0.281979 -0.131887 0.177636
-0.208640 -0.367759 -0.481946
0.132876 -0.062948 0.416943
0.248474 -0.058122 -0.241210
-0.275818 -0.273030 0.159697
-0.010278 -0.024097 0.356221
0.471093 -0.202947 0.207239
0.080883 -0.340291 0.476594
0.180085 0.338437 -0.144313
0.346720 -0.028751 -0.524267
-0.256463 -0.199683 -0.449183
-0.073627 -0.301524 -0.139263
0.120151 0.763008 -0.271448
-0.005235 0.013307 0.023399
-0.120756 -0.459016 -0.416222
-0.130032 -0.145641 0.063910
0.392307 0.396726 -0.411086
0.214911 -0.339271 -0.157282
0.350257 0.112435 -0.538744
-0.131664 -0.048645 0.108281
0.038124 0.349160 -0.171965
-0.126391 -0.259991 0.340448
-0.149484 -0.306233 0.598715
-0.311596 -0.276547 0.438168
-0.235103 0.271049 0.375588
0.183980 -0.327771 -0.029232
0.103115 0.079055 -0.180143
0.379729 0.862790 -0.070287
0.272658 -0.406329 -0.062333
0.268389 -0.289768 0.197437
0.146797 0.584238 -0.229157
0.180023 0.542721 -0.353487
0.050462 -0.045281 0.044276
0.169998 -0.283206 0.069916
0.560684 -0.264335 0.117803
-0.389474 0.370464 0.398556
-0.004604 -0.222898 0.300172
-0.435233 -0.399275 0.082453
-0.197524 -0.264267 0.159818
-0.061680 0.038023 0.508378
0.182052 -0.307732 -0.053627
0.441957 -0.365679 0.179491
0.212639 -0.324545 -0.243875
-0.018173 -0.370695 0.484631
0.311697 -0.007749 -0.483934
-0.269018 -0.171274 -0.359738
-0.148424 -0.285034 0.621127
-0.174310 -0.198973 -0.530614
0.091565 0.413917 -0.039328
0.079849 -0.028050 -0.200806
-0.429192 -0.343303 0.297247
-0.653921 -0.280353 0.036570
-0.106154 -0.294224 -0.141838
-0.277652 -0.086856 0.454077
0.174250 -0.133717 -0.098212
-0.043857 -0.369244 0.467388
0.517216 -0.175777 0.164682
-0.155698 -0.093837 -0.251664
-0.108420 -0.227191 -0.141559
-0.645551 -0.341336 0.151206
0.431252 -0.059057 -0.610107
-0.341303 -0.206808 -0.014495
-0.258730 -0.094282 0.232779
0.172384 0.582662 -0.210527
0.415131 0.107533 -0.417015
-0.087782 -0.260147 0.234867
-0.129581 -0.087668 0.662840
0.172232 -0.153710 -0.299684
-0.080853 -0.332697 -0.551071
-0.603464 -0.335541 0.257171
-0.168297 -0.071269 -0.356332
-0.692831 -0.232436 0.165640
0.012834 -0.195135 0.296363
-0.426052 0.243209 0.540771
-0.618528 -0.271050 -0.005628
-0.200364 -0.124862 0.379447
0.457494 0.143039 -0.601948
-0.015208 -0.406749 -0.492425
0.584055 -0.250759 0.033593
0.119949 0.291389 -0.103177
-0.177195 0.337676 0.094805
-0.218446 0.282475 0.354578
0.264158 -0.216141 -0.201967
0.279101 0.542755 -0.214268
-0.422785 -0.182697 -0.059617
0.329625 -0.064843 -0.089600
0.183560 -0.175059 0.546508
0.002440 0.608641 -0.387585
0.253864 0.707851 -0.210756
-0.194255 0.313714 0.116813
0.256001 0.226734 -0.230816
-0.555285 -0.398827 0.097733
0.460321 -0.291699 -0.159702
0.455781 0.624364 -0.059865
0.027359 0.528257 -0.419531
-0.293235 0.244863 0.284822
0.187111 -0.302945 0.102375
0.092418 -0.259927 0.359494
-0.123023 -0.202534 0.682823
-0.066446 -0.040975 0.339696
0.430881 -0.264259 -0.179960
0.274924 -0.337714 -0.138904
-0.158045 -0.096841 0.299911
0.153084 -0.137907 -0.071950
-0.428763 0.218327 0.557335
-0.220805 -0.109477 -0.386657
-0.460591 0.066119 0.576495
0.112323 0.051838 -0.245309
-0.397696 0.262227 0.370631
-0.017995 0.000206 0.627528
-0.284220 -0.013918 0.441652
-0.015790 -0.360945 0.434788
0.528064 -0.322349 0.141799
-0.355508 0.356296 0.465442
-0.257032 -0.155508 -0.326092
0.250708 0.477260 -0.436773
-0.476779 -0.095856 -0.041541
-0.114973 -0.087656 -0.470999
-0.112820 -0.240464 -0.559815
0.356469 -0.116298 -0.424871
0.261283 0.108086 -0.227506
0.000753 -0.122820 0.112484
-0.053891 -0.273785 0.183232
0.062755 0.013261 -0.141518
-0.315167 -0.070368 0.129946
-0.340904 0.287785 0.299964
0.085728 -0.185982 -0.460130
0.247872 0.841602 -0.175562
-0.238102 -0.275415 0.409809
0.263721 -0.099681 -0.232658
-0.079352 -0.290617 0.182701
0.134282 0.434600 -0.093845
-0.030780 -0.124421 -0.195921
-0.348100 0.186344 0.519674
0.211870 -0.179486 0.140647
0.032484 -0.408002 -0.451991
0.103485 0.775562 -0.321695
-0.118930 0.277832 0.195896
0.382258 -0.425431 0.121616
-0.561998 -0.061117 0.004308
-0.171723 -0.137526 -0.210234
0.002688 -0.062914 -0.327374
-0.127075 -0.154427 -0.174902
0.512648 0.054460 -0.564165
0.224479 0.799707 -0.220939
0.315558 0.012921 -0.331550
0.183595 -0.177544 -0.101847
0.543487 -0.343221 0.097017
-0.346155 -0.113594 0.006032
-0.248916 -0.379493 -0.313222
-0.170474 -0.092558 -0.442349
0.541881 -0.350963 -0.031111
0.276509 0.147301 -0.249454
0.554003 -0.141635 0.074896
0.113121 -0.349396 -0.379617
-0.155477 -0.304695 0.238496
0.074985 -0.352083 -0.142257
0.347184 -0.231195 0.230876
-0.289596 0.217135 0.362161
-0.239104 -0.127740 -0.367471
-0.088573 -0.061603 0.329779
0.169240 0.021014 -0.305510
-0.041450 -0.469806 -0.345408
-0.326732 -0.299426 0.032008
-0.060745 -0.020056 0.645897
0.018134 -0.386877 -0.204878
0.169438 -0.284966 -0.067078
0.127751 -0.366753 -0.150478
0.568260 -0.158275 0.053697
0.010558 -0.079923 0.320645
-0.025213 0.285205 0.016668
0.349335 -0.342942 0.205036
0.243907 -0.082257 0.067923
-0.193228 -0.044901 0.450435
0.046828 0.505900 -0.190183
0.079464 -0.357500 -0.450458
0.209556 -0.157719 0.119354
0.126184 -0.219506 0.369801
-0.152660 0.348633 0.268619
0.562476 -0.332661 0.050883
0.179994 -0.208592 0.534478
0.113653 -0.011218 0.533627
-0.535251 -0.338568 -0.010986
-0.380992 -0.130582 0.559975
-0.563833 -0.248337 0.334816
-0.304315 0.327906 0.458481
0.449550 0.672403 -0.020506
0.038695 -0.094528 -0.412488
-0.258345 -0.370672 -0.348088
-0.270659 -0.336934 -0.393448
0.473104 -0.172287 0.198677
-0.051348 -0.277684 0.327672
0.356143 -0.031769 0.037033
-0.035275 -0.381111 -0.519832
0.290138 -0.168348 0.198055
0.214764 0.431599 -0.193309
-0.659478 -0.165923 0.029699
-0.213586 0.321906 0.345810
-0.497937 -0.410811 0.100704
0.516940 -0.392412 0.032841
0.196262 -0.353781 -0.175567
0.415209 0.376203 -0.451427
-0.323717 0.254077 0.286233
-0.303583 -0.328298 0.145262
0.177802 -0.005873 -0.294444
0.418844 0.012569 -0.413600
0.378222 0.419678 -0.395179
-0.509391 -0.007026 0.216141
0.213538 0.488385 -0.195226
-0.120656 -0.062465 -0.298489
-0.672869 -0.198621 0.049270
0.269785 -0.207003 0.198227
-0.256766 0.249415 0.218886
-0.012051 -0.116659 -0.489071
-0.322807 0.207496 0.487672
0.399685 0.484894 -0.112844
0.342640 -0.265319 -0.186013
-0.157016 -0.137400 0.095484
0.090019 -0.060285 -0.002753
-0.119113 0.830001 -0.483404
0.209095 -0.125623 -0.039292
0.232451 -0.393165 -0.018293
0.020844 -0.115896 0.087801
-0.470729 -0.060865 -0.017368
-0.019285 0.735759 -0.427245
-0.156892 -0.287590 0.308197
0.051711 -0.415678 -0.277584
0.130072 0.231339 -0.278688
-0.258798 0.246156 0.392126
0.534882 -0.191694 0.147854
-0.089084 -0.190520 0.699563
-0.249232 -0.158466 -0.422935
-0.324273 0.024731 0.402379
-0.074348 -0.274562 0.208968
0.091774 -0.338593 -0.242743
0.474235 0.241926 -0.519310
-0.122179 -0.224787 0.280054
0.156072 0.138854 -0.157593
0.416364 0.151607 -0.422070
0.304198 0.165770 -0.486112
-0.134870 0.382825 0.244640
-0.390136 -0.370294 0.243463
0.078660 0.790221 -0.301738
-0.428895 -0.392529 0.226154
0.247530 -0.159212 -0.184905
0.173415 -0.262531 -0.291492
0.026798 -0.013045 0.637373
-0.417134 -0.284036 -0.042668
-0.084153 -0.273779 -0.137026
-0.105592 -0.137203 -0.521520
-0.093125 -0.139162 0.233202
-0.542924 -0.198611 -0.062704
0.180541 0.303443 -0.142649
0.134909 0.262426 -0.286068
-0.157419 0.838511 -0.502698
-0.016105 -0.149647 -0.075268
0.058704 -0.299873 -0.502038
0.088580 -0.320799 -0.004109
0.450796 0.252187 -0.551853
-0.140142 -0.270392 0.096396
0.343845 0.797238 -0.124635
-0.035482 -0.130970 -0.511061
-0.017681 -0.091737 0.697621
0.314013 -0.037539 -0.484329
-0.534831 -0.007558 0.196322
0.494265 -0.067392 0.042290
-0.040082 0.341307 -0.075146
0.185231 0.046844 -0.328618
-0.149475 -0.034813 0.605699
-0.526341 -0.066501 0.296043
-0.303620 0.198027 0.382273
-0.211474 -0.162728 -0.483838
-0.086591 -0.061540 -0.423283
0.092313 -0.059370 0.370821
0.223926 0.567557 -0.363845
0.255637 0.216710 -0.430548
-0.402234 -0.395469 0.197364
-0.022372 -0.027036 0.086550
0.267135 -0.061623 0.066150
-0.257720 -0.266059 -0.453673
0.127418 -0.130620 -0.252776
-0.222886 -0.232749 0.403219
-0.445930 0.014138 0.444560
-0.072599 0.647158 -0.443503
0.531348 -0.377843 0.010505
0.271741 -0.337526 0.178205
-0.180578 -0.214294 -0.175871
-0.084115 0.651041 -0.491250
-0.320652 -0.127626 0.508660
0.110738 -0.197299 0.346728
-0.243845 0.396964 0.175444
-0.391916 -0.271295 -0.035740
-0.503472 -0.110085 0.331759
0.248324 0.137694 -0.213959
-0.132274 0.281396 0.101943
-0.084582 -0.131034 0.010169
-0.346366 -0.239158 0.489000
0.013553 -0.033746 -0.112270
0.048869 -0.160288 0.701109
-0.199883 0.402293 0.318376
0.383786 -0.426078 -0.074785
-0.192592 0.718650 -0.552989
-0.390916 -0.372857 0.055915
0.316629 0.520055 -0.375659
0.258570 0.449385 -0.446179
0.311569 0.477497 -0.159766
0.202208 -0.000453 -0.144895
0.384475 0.088078 -0.377645
0.016728 0.315606 0.052194
0.334765 0.052274 -0.515973
0.218506 -0.291982 0.158700
-0.300745 -0.266647 0.043936
-0.360602 -0.232487 0.352438
-0.492924 -0.154648 -0.066002
-0.029141 0.488097 0.032405
0.553409 -0.191540 -0.073677
0.265956 -0.253209 -0.206409
-0.564711 -0.276049 0.324965
-0.185764 0.799985 -0.514331
0.092150 0.482376 -0.044538
0.111568 0.268534 -0.258244
-0.185010 -0.026869 0.485361
0.075941 -0.162336 0.025661
-0.057534 -0.173880 0.191353
0.160965 0.164872 -0.311660
0.500929 -0.095421 -0.060371
0.040668 0.495068 -0.373051
0.036803 0.004640 0.607157
0.044023 -0.214365 -0.512248
-0.009522 -0.178075 -0.081899
0.285633 0.416048 -0.280047
-0.527964 -0.140665 0.339766
0.035215 -0.106390 -0.439910
0.466843 0.014144 -0.472709
-0.171387 0.233063 0.236021
0.240046 0.453178 -0.423813
0.048909 0.532751 -0.115301
0.335300 -0.004636 -0.343968
-0.125106 0.583661 -0.495162
-0.227403 -0.193151 -0.486092
0.402141 -0.140086 0.206414
0.005751 -0.005535 -0.044869
0.234017 -0.037043 -0.256189
0.095252 -0.321945 -0.207287
0.281051 0.622714 -0.161894
-0.357990 -0.341444 0.041383
0.177115 0.213084 -0.147712
0.239520 0.312195 -0.417227
0.071501 -0.410069 -0.373374
0.105015 0.173478 -0.202921
-0.233473 -0.300951 0.362537
0.014564 -0.342331 0.403335
-0.594385 -0.266312 -0.027630
0.465312 0.171243 -0.584114
-0.182932 0.383716 0.303688
-0.187818 -0.031627 0.518092
0.312061 0.077569 -0.489838
-0.060536 0.792886 -0.447893
0.493304 -0.084936 -0.496825
0.374348 0.031763 -0.562560
-0.350618 -0.196610 0.322122
-0.295688 -0.286532 0.292556
-0.060819 0.473192 -0.046400
-0.187419 0.232363 0.208857
-0.264692 -0.316224 -0.273434
-0.344017 -0.008793 0.527729
0.101203 0.492402 -0.328124
0.431645 -0.438854 0.015186
-0.081339 -0.334649 0.609117
0.446521 0.566720 -0.075769
0.038043 -0.328778 -0.016859
0.461289 -0.119418 -0.125181
-0.104268 -0.282505 0.346061
0.187924 -0.228235 -0.306160
-0.097592 0.587959 -0.472073
-0.189728 -0.435230 -0.403249
-0.011741 -0.059474 -0.353578
-0.225241 -0.223261 0.454741
-0.386379 -0.387899 0.099950
-0.090073 0.461550 -0.010452
-0.245925 0.364907 0.177979
-0.296585 -0.102050 0.183632
0.013763 -0.130085 -0.486835
-0.100189 -0.041889 0.115356
-0.565771 -0.330813 -0.005459
0.315203 -0.192648 -0.177805
0.171157 0.568015 -0.183060
-0.296977 0.223832 0.331446
0.031136 -0.440302 -0.377026
-0.144408 -0.040494 0.139827
0.476617 -0.364593 -0.106073
-0.598180 -0.034074 0.100362
-0.430155 0.280581 0.410119
-0.041752 0.009968 0.613511
0.173453 -0.217548 0.561963
0.315245 -0.285637 -0.176286
-0.353051 0.250111 0.523070
-0.182958 -0.368298 -0.502675
-0.257199 -0.229476 -0.455525
0.440722 -0.055640 0.101298
-0.682757 -0.135503 0.165691
0.486809 -0.242429 0.203252
0.020458 -0.024624 0.361649
-0.077051 -0.233234 -0.561130
-0.029652 0.294575 -0.010650
-0.440710 0.098369 0.433681
-0.312950 0.139286 0.433133
-0.036839 -0.096858 0.155432
0.395349 0.659703 -0.103593
-0.126383 -0.342475 -0.159986
-0.058492 -0.245229 0.198437
0.346760 -0.062793 -0.521252
-0.028371 -0.014770 0.058332
-0.194042 -0.048212 0.546382
-0.054820 -0.291268 -0.001470
-0.117265 -0.013977 0.609863
0.218201 -0.340106 -0.191880
-0.570496 -0.250708 -0.047412
0.246563 0.764537 -0.208324
-0.338145 0.312634 0.497141
-0.033917 -0.423666 -0.477189
0.382295 0.205797 -0.384550
0.184553 0.392057 -0.354078
-0.161265 -0.249361 0.111982
-0.138043 -0.278908 0.364553
-0.123435 -0.180218 0.058331
0.265823 -0.064981 -0.023844
0.367413 -0.033586 0.067201
0.448745 -0.231237 -0.173549
0.074658 0.758464 -0.347563
-0.066525 0.035952 0.472756
0.091151 0.816707 -0.289086
0.459234 -0.430084 0.018896
-0.023415 -0.414036 -0.210384
-0.202465 -0.255237 0.576590
0.082615 0.247086 -0.196086
0.392014 -0.006160 -0.378907
-0.158107 -0.066429 0.103682
-0.030512 0.597006 -0.415808
-0.113572 -0.068870 -0.435766
0.045181 0.305771 -0.115189
-0.021607 -0.340519 0.614974
0.432381 0.826903 -0.012139
-0.351447 0.034485 0.391674
-0.358878 -0.057529 0.239865
-0.093732 -0.301604 0.645216
0.281941 0.002784 -0.448241
0.281391 0.482802 -0.279061
0.280981 0.480525 -0.186892
0.392960 -0.108552 -0.571997
-0.458495 -0.108751 0.469200
0.229666 0.221722 -0.399155
0.256043 0.416480 -0.243638
0.262649 0.786168 -0.192211
0.144373 0.831168 -0.243118
0.329775 0.085503 -0.511996
0.213493 -0.369509 -0.032137
-0.329614 -0.273719 0.013441
-0.450786 0.154918 0.442599
0.486215 -0.370947 0.142087
-0.197467 0.689806 -0.550927
0.187096 -0.339334 -0.001233
-0.042206 0.730794 -0.446376
-0.046847 0.519400 -0.439613
0.512284 -0.310585 -0.113331
0.414445 -0.061332 -0.081953
0.249325 0.048288 -0.209275
-0.018848 -0.108532 -0.074338
-0.233132 -0.368673 -0.449761
-0.102105 0.548395 -0.481078
0.337356 0.357524 -0.365770
-0.323159 -0.337665 0.090181
-0.020705 -0.092745 -0.236752
0.291984 0.097038 -0.466561
-0.686168 -0.265588 0.167964
-0.106337 -0.253188 0.258337
0.159347 -0.174785 -0.075399
-0.048168 -0.407508 -0.194960
0.448213 0.201581 -0.585482
0.030753 -0.141123 -0.211359
-0.215096 0.312361 0.142282
-0.394893 0.194651 0.370475
0.036644 -0.314069 -0.517642
-0.104732 -0.173870 0.035369
-0.047464 -0.327586 -0.550446
-0.195932 0.279877 0.136864
0.062513 -0.220084 0.689794
-0.195733 -0.088527 -0.334204
-0.170037 0.451635 0.132094
-0.367179 -0.058827 0.036813
-0.305367 0.263668 0.262035
0.376782 -0.075754 -0.377566
-0.239547 -0.245586 -0.476686
-0.157085 -0.158325 0.663354
0.106526 -0.240201 -0.448829
-0.131389 -0.093825 -0.235114
0.461563 0.591826 -0.059963
0.068811 -0.092097 -0.183336
0.256691 -0.160571 -0.283026
0.394434 0.032539 -0.586679
-0.076767 0.346661 -0.029910
-0.123753 -0.195096 0.279807
-0.307058 -0.300782 0.063609
-0.359589 -0.265302 -0.016866
0.283275 0.482698 -0.447881
0.108582 -0.271957 -0.447858
-0.641937 -0.121749 0.251582
0.324558 0.016153 -0.501183
0.085624 -0.025483 0.614401
0.307367 -0.010230 -0.353886
-0.052811 -0.239179 -0.137861
-0.377065 -0.023450 0.093603
-0.681630 -0.179760 0.070658
-0.187153 -0.138701 0.132086
-0.033443 0.628637 -0.413975
0.196348 -0.350064 -0.137279
0.092247 -0.150869 0.004456
-0.532053 -0.102935 0.322177
0.229424 0.063404 -0.185495
-0.449894 -0.151937 0.468864
-0.625816 -0.061231 0.194952
0.163504 0.085043 -0.309194
-0.274759 -0.287048 0.269805
-0.220778 0.420078 0.306469
-0.088711 -0.191045 0.303680
-0.055948 -0.038856 -0.032070
0.120349 0.577414 -0.247028
0.446536 -0.228662 0.221693
0.185211 0.647028 -0.235627
-0.049556 -0.352567 -0.156641
0.135043 -0.193144 0.636642
0.490708 -0.158072 0.179096
0.075275 0.498082 -0.345595
0.106340 -0.322900 0.478546
-0.667612 -0.252543 0.233880
0.118955 -0.344558 -0.209947
0.211266 -0.132630 -0.143310
0.408086 0.625568 -0.098265
-0.265031 -0.049063 0.402532
-0.335329 -0.245978 -0.004709
0.252087 0.815597 -0.195832
0.042874 0.316315 -0.176146
-0.059789 0.344327 0.151905
-0.332145 0.175683 0.379606
0.119219 -0.277808 0.609445
0.048585 -0.004277 -0.017391
-0.313810 0.341588 0.263592
-0.016971 0.706012 -0.429666
0.203733 -0.268260 0.146857
0.161581 0.306672 -0.120335
-0.216149 -0.309322 0.277103
-0.400366 -0.201165 0.340014
-0.190103 -0.300825 0.489388
0.260766 -0.356483 0.154765
-0.392847 -0.242962 0.435173
-0.085864 0.690746 -0.487255
-0.626650 -0.181214 -0.008471
0.303033 -0.409323 0.124470
-0.452567 -0.180837 -0.065681
0.287583 0.530344 -0.388518
0.342175 -0.032158 0.006839
0.130259 -0.057126 0.599253
0.450142 0.843190 0.004175
0.325216 0.279792 -0.320237
0.465841 -0.018010 -0.468500
0.111722 0.632269 -0.296969
-0.078664 0.463934 0.121205
0.336830 0.496148 -0.371546
0.231213 -0.311071 -0.162652
0.179610 0.004336 -0.119041
-0.267732 -0.228065 0.174924
0.196520 -0.133464 -0.001220
-0.047085 0.365509 0.134664
-0.198832 0.294656 0.329304
0.284285 -0.033498 -0.444057
0.278925 0.373960 -0.449390
-0.092376 -0.091209 0.226822
0.074540 0.421669 -0.220583
-0.331364 0.077094 0.506720
0.547611 -0.120626 0.015144
0.289178 0.551494 -0.331138
-0.431520 -0.063898 0.574438
0.285057 0.288514 -0.471158
0.438602 0.177715 -0.600285
0.026814 0.441370 -0.162669
-0.204846 0.744192 -0.539635
-0.270856 0.401915 0.377437
0.312416 -0.230617 -0.182852
-0.001467 -0.061065 0.682297
0.046693 -0.084409 0.329440
0.410241 -0.318572 0.216471
0.354423 0.454502 -0.442651
0.079592 -0.310179 0.614299
-0.691779 -0.252829 0.141566
0.280633 -0.070018 0.101228
-0.146435 0.806975 -0.519221
0.011186 0.421487 -0.142586
0.164279 -0.322166 -0.072625
0.011346 -0.367840 0.483172
0.236185 -0.081215 -0.003292
0.345462 -0.274649 0.229451
0.157189 0.453799 -0.324748
-0.029135 -0.344681 0.397792
0.139727 0.005982 -0.082656
0.145668 -0.040136 -0.073294
0.487302 -0.282974 -0.147112
0.105505 -0.348820 -0.411560
-0.137038 -0.005203 0.420687
-0.255388 -0.298956 -0.249033
0.349887 0.645979 -0.142298
0.077301 -0.319270 -0.182527
0.115678 -0.318578 0.516222
-0.103268 0.414536 -0.000427
0.294828 0.041689 -0.281318
-0.668380 -0.114889 0.180372
0.247849 0.381751 -0.424629
0.345575 0.006371 -0.525919
0.245957 0.491351 -0.210776
-0.057047 -0.302688 0.046540
0.461681 -0.092061 0.145839
-0.105721 -0.072599 0.670040
-0.270045 0.248239 0.420415
-0.019823 -0.314722 0.646982
-0.122850 -0.395844 -0.509826
0.209548 0.118071 -0.366950
0.120949 0.294983 -0.271216
-0.180464 -0.069983 0.268190
-0.039179 -0.354441 -0.537049
0.013684 -0.064377 -0.116215
0.242152 0.191979 -0.411901
0.111911 0.745586 -0.319496
-0.027108 0.736443 -0.394518
0.116155 -0.170324 -0.309607
0.158863 0.864123 -0.250088
-0.109362 -0.196772 -0.550575
-0.267446 0.364890 0.205448
-0.424237 0.021058 0.417240
0.206793 0.025841 -0.326874
-0.519732 -0.045135 0.276603
-0.323304 -0.176204 0.005079
-0.062505 0.485048 -0.017019
0.151775 -0.166315 -0.280083
-0.332997 -0.355339 0.177679
-0.152651 -0.404185 -0.489438
-0.227461 -0.143982 0.181906
-0.158925 0.433219 0.238626
0.115238 -0.067462 0.388225
0.297053 -0.371303 0.166611
0.238314 -0.400160 0.053129
-0.231167 -0.133190 0.545101
-0.037874 -0.278491 0.156833
-0.470650 0.216114 0.464367
0.175518 -0.201299 -0.039456
-0.125328 -0.043134 0.636878
0.491259 0.159401 -0.517862
0.120116 0.199679 -0.264367
-0.620389 -0.089300 0.027923
0.177255 -0.106024 0.534199
0.030231 -0.143051 0.079088
-0.159950 -0.025665 0.178163
-0.065799 -0.045325 0.133868
-0.224841 -0.112737 0.176370
-0.033747 -0.369302 0.540620
0.268422 0.661686 -0.166734
0.279901 0.109259 -0.250531
0.120021 0.359234 -0.073135
-0.036518 0.665475 -0.451204
0.079668 -0.158061 0.689954
-0.359883 -0.269903 0.307379
0.261097 0.564007 -0.347298
-0.069624 0.620800 -0.483956
0.338770 0.619061 -0.155185
-0.088669 -0.079609 -0.460819
0.521256 -0.336013 -0.086213
-0.368290 -0.267177 0.405742
0.384783 -0.345713 0.204449
-0.623948 -0.147005 0.284319
-0.400908 -0.008001 0.111251
-0.101434 0.540089 -0.520837
0.405484 0.332683 -0.530374
-0.387939 -0.013426 0.580101
0.145928 0.142514 -0.291803
-0.037353 -0.250269 0.172634
0.014386 -0.116289 -0.225339
-0.186306 -0.304892 0.308115
0.310494 0.350541 -0.307194
-0.202625 -0.090554 0.340729
0.250047 0.004814 -0.207075
0.112595 0.509222 -0.272154
0.147858 0.043247 -0.117165
-0.054122 -0.167915 -0.538938
-0.271400 -0.223081 -0.277168
0.349522 -0.081562 -0.117405
-0.018815 0.520780 -0.457839
0.235404 0.248837 -0.408102
-0.155386 -0.331734 0.522098
0.216894 0.087993 -0.171515
-0.231780 0.428602 0.268228
0.128984 -0.171269 -0.253830
-0.429172 -0.023950 0.585526
-0.054749 0.447834 -0.062361
0.366143 -0.079130 -0.542980
-0.615440 -0.245009 -0.018425
-0.276325 -0.273827 0.125604
0.540753 -0.261666 0.144794
-0.325906 -0.075184 0.068373
-0.114929 -0.073928 0.042139
-0.359672 -0.232324 -0.028111
0.116544 0.425571 -0.273559
0.279512 -0.202445 -0.167906
0.274114 -0.141579 -0.139519
0.441552 0.706986 -0.021861
-0.114614 -0.208352 0.050612
0.282455 0.282395 -0.267957
0.051497 -0.324853 0.614888
-0.294019 -0.301428 0.336967
0.397625 0.786847 -0.083030
0.188701 0.537054 -0.169325
-0.192478 -0.160063 -0.207345
0.456488 0.155535 -0.471871
-0.122283 0.286591 0.062595
0.197976 0.082791 -0.149021
0.017306 0.037316 0.489310
0.131646 -0.297094 -0.358761
-0.474472 -0.111844 0.333909
-0.229298 -0.306525 0.332762
-0.439149 -0.074666 0.439411
-0.237845 -0.375676 -0.275606
0.213576 0.244662 -0.381245
-0.377405 -0.073925 0.012804
-0.050984 -0.441251 -0.457794
0.177199 -0.123402 -0.301073
0.162887 -0.213375 0.056129
-0.020190 -0.165364 -0.528024
0.058300 0.337279 -0.195952
-0.456242 -0.115053 0.530883
-0.223505 -0.272943 -0.494825
0.077659 -0.345167 0.511589
-0.574568 -0.184016 0.330516
0.462546 0.073624 -0.472790
-0.242197 0.349238 0.379496
0.547819 -0.355888 -0.002477
-0.062831 0.017822 0.591274
0.177825 0.600235 -0.307401
0.384513 -0.117579 -0.411078
-0.075295 -0.048958 0.166425
0.420033 -0.092322 -0.413524
0.315358 0.579083 -0.140366
-0.423477 0.179752 0.406907
0.582403 -0.232546 0.058795
0.050169 -0.344920 -0.100273
0.164321 -0.094010 -0.090300
-0.143445 -0.317746 -0.547601
0.369128 -0.323442 0.215997
0.076797 0.347048 -0.219656
0.357538 0.620755 -0.101244
0.332148 0.487242 -0.342426
-0.352348 -0.035954 0.539710
0.074172 -0.249389 0.338804
0.445422 -0.332980 0.200178
-0.622818 -0.217406 -0.011270
-0.112201 0.004483 0.408544
0.144608 -0.364383 -0.125180
0.005913 0.009128 0.610675
-0.006139 -0.380780 -0.185770
0.477094 -0.230319 -0.160684
-0.678710 -0.270892 0.196627
-0.601347 -0.129136 0.295115
0.047946 -0.384783 -0.226935
0.213560 -0.321862 0.133954
0.315249 -0.255943 0.224080
-0.233389 -0.309369 0.301717
-0.439928 0.269045 0.506889
0.115089 -0.026540 0.438520
-0.523732 -0.279159 0.338629
0.435227 0.266840 -0.454583
0.386859 -0.004313 -0.574437
-0.361797 0.284815 0.325784
-0.571518 -0.219574 0.333386
0.005791 -0.043708 0.339912
-0.035800 -0.374512 -0.172231
0.234372 -0.266360 -0.288843
0.438503 -0.298311 0.216481
-0.080468 0.565166 -0.461074
-0.042298 -0.040079 0.107293
-0.409518 0.163500 0.579606
-0.073283 -0.215607 -0.140488
0.266207 0.067786 -0.231284
0.229632 0.696057 -0.231981
0.483506 -0.320925 -0.134861
-0.120515 0.304225 0.028112
-0.202117 -0.055429 0.155771
0.093118 -0.333770 0.534923
-0.418205 -0.108670 -0.037615
-0.103020 -0.047650 0.057604
-0.155599 -0.221862 0.101552
-0.137157 -0.189498 -0.542072
0.402849 -0.047558 -0.058647
-0.161813 -0.355516 -0.523438
-0.624486 -0.357623 0.186607
-0.116574 -0.295551 0.106581
-0.285269 -0.244797 0.059916
0.385566 0.697952 -0.105919
-0.303201 -0.091030 0.484115
-0.349505 -0.084846 0.025345
-0.451977 -0.002213 0.204959
-0.275219 -0.270927 -0.427342
0.435089 -0.434706 -0.014176
0.112729 -0.299939 0.429789
-0.219341 0.231096 0.216326
-0.226416 0.287346 0.158009
-0.162014 -0.283244 0.387887
-0.113318 0.523345 -0.493543
-0.650564 -0.233503 0.268849
0.179983 0.450659 -0.351250
-0.386590 -0.349489 0.270926
0.347781 0.481544 -0.395471
0.050105 0.661999 -0.381209
0.268857 0.524798 -0.263659
0.481504 0.573572 -0.038505
0.461689 -0.055946 0.081031
0.159310 0.254978 -0.315917
-0.140377 -0.060128 -0.346058
0.147841 0.333200 -0.105648
0.124942 -0.267431 0.401923
-0.005843 -0.433882 -0.244773
0.080305 -0.112189 0.335633
0.404225 -0.145305 -0.454690
-0.284476 0.271039 0.229716
0.356037 -0.421540 -0.083352
-0.461900 -0.015897 0.465806
0.274070 -0.164138 -0.255055
-0.097846 0.458852 0.142890
-0.170746 0.267837 0.146429
-0.169082 -0.107582 0.108570
-0.264209 -0.058407 0.435176
-0.590972 -0.034197 0.199238
-0.292430 -0.123796 0.209454
-0.049279 0.394515 0.136010
-0.323813 0.151835 0.405144
0.295385 0.732093 -0.173796
-0.437485 -0.264713 -0.055888
0.068352 -0.345453 0.549484
0.327037 0.178952 -0.514821
-0.165318 -0.032147 0.580744
-0.232056 -0.405515 -0.330940
-0.008760 -0.274855 -0.547098
0.419826 0.664677 -0.083062
-0.086006 0.001830 0.609736
-0.032433 -0.127693 -0.055118
-0.440533 0.253944 0.424319
-0.052448 -0.111711 0.302183
-0.547256 -0.082017 -0.021246
-0.081422 0.617233 -0.454842
-0.298856 0.292491 0.246294
-0.326952 -0.350986 0.117412
-0.005838 -0.332271 0.380512
-0.318846 -0.170688 0.510208
0.376750 0.824445 -0.056636
0.015554 -0.311096 0.358928
0.259163 0.336346 -0.242477
-0.195262 -0.100635 -0.420943
-0.134771 -0.371281 -0.524709
-0.152232 -0.003409 0.539953
-0.429242 0.001776 0.130444
-0.563094 -0.280551 -0.039281
0.038831 0.773886 -0.335663
0.001518 0.483559 0.034371
0.458613 0.869927 -0.021131
-0.045211 -0.225170 0.303418
0.582492 -0.250265 -0.002076
0.216258 0.150964 -0.175685
0.314244 -0.037714 -0.002534
0.019049 0.308297 -0.014743
-0.063263 0.660368 -0.473225
-0.053048 -0.233955 0.697971
0.298726 -0.281390 0.213483
0.477691 -0.128546 0.171021
-0.528767 -0.023233 0.238432
0.221128 -0.199754 0.159664
-0.191998 -0.440065 -0.368505
0.437516 -0.438059 0.044077
0.363540 -0.101543 -0.397023
0.429583 0.509063 -0.071860
0.026161 0.522450 -0.091597
0.000406 -0.090725 0.109800
-0.279098 0.216357 0.406533
-0.045605 -0.206901 0.706230
0.319275 0.726889 -0.155265
-0.114283 -0.107515 -0.210074
0.299500 0.216431 -0.483839
-0.252185 -0.297403 0.251519
-0.317876 0.101505 0.439653
0.064444 -0.027856 0.634864
0.044915 -0.191094 0.700303
-0.336106 0.272339 0.501120
-0.662169 -0.306401 0.090676
-0.168803 0.281008 0.118931
-0.008884 0.449362 -0.119245
0.462406 0.661611 -0.049028
0.071290 -0.106221 -0.344953
-0.463642 0.255238 0.477515
0.116954 0.402390 -0.071344
-0.336371 -0.132660 0.295950
-0.175704 0.722007 -0.516553
-0.127376 0.712309 -0.478632
-0.236033 0.304974 0.375021
-0.158950 -0.166392 0.100012
-0.178498 -0.287303 0.158920
-0.283026 0.309776 0.227337
-0.224587 -0.241709 0.519144
0.455021 -0.319713 -0.151774
0.285141 0.385984 -0.277900
-0.416991 0.090122 0.404759
0.442311 -0.064077 -0.069252
0.262417 0.292846 -0.243741
-0.404998 -0.062491 0.006416
-0.471883 -0.317763 -0.035402
0.417936 0.691656 -0.043364
0.004185 -0.232407 -0.540783
-0.459664 0.246342 0.509351
0.027388 -0.311394 0.039418
-0.405700 -0.233634 0.341179
0.433503 -0.102249 -0.596505
0.192114 -0.120296 -0.121217
-0.156551 0.738871 -0.536262
-0.190720 -0.280568 0.432100
-0.560342 -0.367649 0.029904
-0.626167 -0.333349 0.233242
-0.142608 -0.294219 0.135417
-0.029635 -0.287283 0.130138
0.008213 0.006388 -0.003795
0.044502 0.515416 -0.050441
-0.170875 0.267833 0.289188
-0.534619 -0.409113 0.169804
0.282597 0.339792 -0.271831
0.179264 -0.123673 0.472051
0.034709 -0.058921 0.337983
0.054762 -0.008090 -0.165912
-0.275142 -0.226897 0.212576
0.178557 0.147714 -0.331877
0.184770 0.736670 -0.223811
0.253776 -0.413066 -0.003492
0.364965 0.135879 -0.558213
0.318641 -0.439842 0.059446
0.233804 0.159269 -0.197881
0.147674 0.362685 -0.106512
-0.350908 0.155739 0.525206
0.342391 0.094777 -0.326315
0.017592 -0.193726 -0.524217
-0.392374 -0.015892 0.205475
-0.449329 -0.107930 -0.043491
-0.129198 0.446333 0.038029
-0.490883 0.137089 0.532680
0.235168 -0.273061 0.177730
-0.426058 0.125759 0.413721
0.289912 0.688282 -0.184584
-0.122856 -0.351302 0.526433
0.348638 0.827308 -0.082877
-0.153057 0.352274 0.064670
0.209973 0.521234 -0.388780
-0.505662 -0.344877 -0.012299
-0.400365 -0.333224 0.293996
-0.028255 0.023628 0.590936
0.283815 0.447340 -0.468041
0.135342 0.378969 -0.293807
0.246605 0.579023 -0.235469
-0.637517 -0.115142 0.026898
-0.527643 -0.407846 0.105641
0.452982 -0.140129 -0.146147
0.452777 0.289533 -0.482991
0.235530 -0.320659 -0.222350
0.446330 -0.107503 0.170451
-0.032239 -0.263753 -0.043812
-0.116790 -0.035600 0.172326
-0.143260 -0.188489 0.083303
-0.316047 -0.296721 0.248258
0.229300 -0.103663 -0.046801
-0.187136 -0.292582 0.555013
0.304333 0.246569 -0.491776
0.235645 -0.172705 0.159259
0.183103 -0.202785 0.502510
0.346139 -0.123152 -0.155642
0.285458 -0.314539 0.197358
-0.258460 0.425323 0.230260
0.338674 0.140334 -0.526362
0.153920 -0.197123 0.613105
0.158816 0.473079 -0.126637
-0.140729 -0.087809 -0.457432
-0.015954 -0.463217 -0.332762
0.302851 -0.376410 -0.124398
0.145705 0.097838 -0.288422
0.128105 -0.029973 0.555714
0.234747 -0.141993 -0.296901
0.412231 -0.428023 0.107861
-0.429862 -0.408912 0.133037
0.016341 -0.335525 -0.523000
0.399372 0.404447 -0.441415
0.388565 0.596746 -0.118216
0.321337 0.539821 -0.141127
0.106994 -0.185752 -0.009395
-0.286917 -0.132556 0.236882
-0.041807 -0.161602 0.168925
0.484265 -0.036879 -0.489384
-0.005023 -0.383044 -0.507058
-0.212285 -0.099548 -0.356066
0.111365 -0.334350 -0.279681
0.345260 -0.099339 -0.513927
-0.390431 0.125574 0.576728
-0.212354 -0.247983 0.436293
-0.143296 -0.114821 0.078042
-0.099889 -0.035863 0.353156
0.111971 0.431086 -0.066271
0.381368 -0.131908 -0.440102
0.392378 -0.166160 0.219219
0.121291 0.681765 -0.282144
0.230307 -0.135324 0.128166
0.012466 -0.150916 0.101234
-0.394927 -0.166431 0.333999
0.267481 -0.058440 0.030368
-0.157690 -0.174073 -0.175647
-0.624115 -0.179596 0.296225
-0.451702 0.189767 0.441426
-0.240501 -0.091928 0.199441
0.023180 -0.235747 0.096468
-0.487568 0.166535 0.525307
0.314126 0.380809 -0.313708
0.042813 -0.006739 -0.130424
0.334390 0.069207 -0.314931
0.232643 0.545442 -0.388967
-0.559126 -0.403028 0.133137
-0.083539 -0.094389 0.688357
-0.163819 -0.058980 0.614499
-0.188874 -0.085192 -0.388279
0.502135 0.139239 -0.539371
-0.073168 0.441060 -0.039205
0.092107 0.521332 -0.328042
0.405531 0.083511 -0.403248
0.085177 -0.238124 0.669244
-0.023584 -0.064019 -0.281385
-0.594048 -0.366632 0.222434
0.014672 -0.085713 -0.427446
-0.238819 0.242856 0.190605
0.375868 0.223419 -0.576809
0.408413 0.835019 -0.030040
-0.222899 -0.140289 0.572077
0.506517 -0.400719 0.003493
-0.422813 -0.012481 0.416671
0.358855 -0.130844 0.200042
0.066079 0.009673 -0.102274
0.408619 -0.442154 -0.002255
0.299230 -0.347869 0.187287
-0.417673 -0.098319 0.413261
0.013075 -0.448514 -0.310400
-0.059698 -0.260373 -0.010009
0.501985 -0.225395 -0.141322
-0.044611 0.474342 -0.071180
0.080375 -0.085501 0.011812
0.182306 0.265612 -0.344646
0.172183 0.694919 -0.278969
0.368137 0.000770 -0.552454
-0.223252 -0.101735 0.538445
-0.127106 0.008198 0.559315
0.100771 0.296210 -0.246627
-0.127180 -0.297226 0.242516
-0.018961 -0.182934 0.713008
0.011386 0.024223 0.580575
0.344896 -0.186596 -0.183647
-0.060302 0.478027 -0.485115
0.533887 -0.110594 0.072321
0.224825 0.396611 -0.402817
-0.154753 0.382735 0.269096
0.113241 -0.031280 -0.035518
-0.111655 -0.094993 0.251151
-0.278992 -0.205399 -0.321475
-0.018845 0.502551 -0.062376
-0.138371 -0.343295 0.496161
-0.428551 0.066133 0.420437
0.316821 0.471666 -0.188094
-0.229507 -0.075263 0.301684
0.482321 -0.102689 -0.091830
-0.049324 -0.166571 -0.029788
-0.175313 0.306655 0.094154
0.220591 -0.173764 -0.120015
0.430404 -0.061592 -0.421293
-0.404541 -0.205646 -0.054371
-0.125430 0.463587 0.062726
0.050597 0.547431 -0.398026
-0.088285 -0.019300 0.636388
0.007753 -0.312780 -0.084585
0.497557 -0.403769 0.069259
0.259134 0.024893 -0.226137
0.085735 0.317025 -0.061767
0.418841 -0.019235 -0.410650
0.191360 0.677392 -0.226569
-0.308657 -0.230286 0.492201
-0.133351 -0.276707 -0.556815
-0.091016 0.344320 0.192490
-0.218290 -0.136079 -0.448269
-0.158359 -0.348905 -0.174959
0.147249 0.496985 -0.113758
-0.393477 -0.199274 0.510267
0.252206 -0.080813 -0.044506
-0.319977 -0.212391 0.005731
0.046906 -0.091548 -0.384577
0.131117 -0.249556 0.622498
0.181005 0.236126 -0.341010
0.376271 0.835530 -0.092667
0.016553 0.710659 -0.362567
0.117205 -0.205229 0.656662
-0.051943 -0.339844 0.610385
-0.007318 -0.268403 0.128686
0.344375 -0.128284 -0.460859
-0.100705 0.280229 0.130195
-0.272864 -0.200051 -0.409440
0.013685 -0.438108 -0.271950
-0.264804 -0.172895 -0.394107
-0.194902 -0.041764 0.180684
0.355413 0.503524 -0.119288
-0.063931 -0.390523 -0.518882
0.284851 0.248770 -0.468202
0.118802 0.250693 -0.148919
-0.043742 -0.302601 0.658680
0.419796 0.363011 -0.481321
-0.434334 -0.238075 0.348682
0.140788 -0.261174 0.592970
-0.121645 -0.349983 -0.540697
-0.015854 -0.438702 -0.445665
0.341516 0.202664 -0.534066
-0.138394 -0.186247 0.305450
0.088365 0.517940 -0.242230
0.366103 0.199167 -0.563768
0.485130 0.806287 -0.009368
-0.195955 -0.137425 -0.474933
-0.258800 -0.082624 0.275325
-0.127614 0.617094 -0.531395
-0.164153 -0.056927 0.383784
0.420345 0.798712 -0.063120
0.318548 0.495515 -0.417748
-0.690873 -0.165203 0.157497
-0.159412 0.295819 0.280169
0.490185 -0.091235 -0.567767
-0.093322 -0.342614 -0.153763
-0.493608 -0.296413 -0.048419
0.422405 0.767614 -0.065648
0.084746 0.548266 -0.142503
0.414112 0.564968 -0.063526
-0.074277 -0.238133 0.005641
-0.008045 0.321506 -0.072448
-0.421330 -0.154103 0.340649
0.121620 0.152554 -0.179548
0.235179 0.350810 -0.213564
-0.389295 0.361982 0.369037
0.119682 -0.340716 -0.346632
0.070504 0.304074 -0.209470
0.389150 0.030122 -0.378749
0.333126 0.413214 -0.500131
-0.357540 -0.061905 0.340797
-0.664464 -0.301415 0.201454
-0.131955 0.652673 -0.491015
0.464522 -0.137910 -0.480526
-0.129490 0.016085 0.483739
-0.283094 -0.307351 -0.376617
-0.188965 -0.260801 0.395902
0.427353 0.150386 -0.609807
0.240121 0.416589 -0.422414
-0.425829 0.212737 0.408059
-0.273100 -0.242242 -0.433481
0.178898 0.480927 -0.351083
0.097474 0.758840 -0.290923
-0.164522 -0.308630 0.568014
-0.151263 0.293552 0.083547
-0.541010 -0.305093 0.321339
-0.521665 -0.341922 0.300973
-0.221541 -0.111950 0.441245
0.081393 0.654907 -0.357408
-0.149996 -0.069459 -0.308610
-0.108349 0.692387 -0.466039
0.431093 0.343005 -0.462120
0.486116 -0.342720 0.171498
0.330703 0.349199 -0.337974
0.020871 -0.009906 -0.070533
0.320739 0.760860 -0.149148
-0.289138 0.337540 0.234062
-0.111108 0.696723 -0.506961
0.099522 0.483117 -0.255083
0.148934 0.398491 -0.311439
-0.360970 -0.175779 0.346746
0.053145 -0.354341 0.470897
-0.426442 0.323849 0.419252
0.382011 0.430862 -0.429561
0.390298 0.233005 -0.396632
0.044685 -0.434299 -0.324088
0.525795 -0.225848 -0.119253
0.277632 0.021141 -0.326103
-0.059315 -0.024673 0.061261
0.422303 0.280461 -0.557178
0.275577 -0.403943 0.111119
0.222994 -0.096946 0.051877
-0.031633 -0.222207 0.161633
0.299550 -0.197597 0.212324
0.147922 -0.263452 -0.276138
-0.331246 0.396479 0.305166
0.336514 -0.093470 0.168888
0.044990 -0.164347 0.063214
-0.299073 -0.092685 0.153298
-0.100248 0.306800 0.205999
0.177817 -0.034775 -0.289357
-0.041682 -0.371215 0.511046
-0.038078 -0.087148 0.311398
0.314106 0.801397 -0.121804
-0.431611 -0.404288 0.193916
0.217659 -0.019813 -0.276206
0.009449 -0.453788 -0.346812
0.471196 0.782219 -0.024240
-0.031825 -0.196210 0.294347
0.414704 0.586807 -0.098552
-0.361594 -0.027398 0.356604
0.363988 0.369661 -0.380708
-0.117415 0.590207 -0.526741
-0.130371 -0.216941 -0.552331
0.066364 0.289775 -0.130476
-0.157022 0.454059 0.102462
0.448590 0.007993 -0.449717
-0.417794 -0.061687 0.412025
0.450493 0.751064 -0.008249
0.067669 0.501417 -0.033545
-0.509463 -0.085333 0.316486
0.216879 -0.245217 0.165539
0.487258 -0.099792 0.133962
0.213898 -0.369691 0.073836
0.408614 0.188127 -0.415441
0.492588 -0.412671 0.030912
0.144107 0.566996 -0.171817
-0.109512 -0.342234 0.425434
-0.267847 -0.187937 0.105739
0.002340 0.034285 0.462989
0.024459 -0.086547 -0.290267
0.199532 0.555747 -0.191426
0.191785 -0.177714 0.104869
0.077870 -0.084158 0.345786
0.048422 -0.335519 -0.499623
0.510821 -0.361267 0.128057
0.029173 0.395001 0.038154
0.074763 -0.055965 -0.192782
0.116934 -0.022243 -0.245420
0.429247 -0.151364 -0.474374
0.305511 -0.127743 -0.144633
-0.246064 -0.222252 -0.233496
-0.301625 0.393432 0.253070
0.090361 -0.240655 0.014494
0.355471 0.334420 -0.370493
0.355653 0.117447 -0.344512
0.070771 0.391802 -0.012351
-0.141187 -0.230329 0.305963
-0.406776 0.038233 0.395326
0.298538 -0.062549 -0.457247
0.172601 -0.192207 0.442133
-0.110359 -0.094280 0.318109
-0.052934 -0.277586 0.676416
-0.265972 -0.267760 -0.256277
-0.282435 -0.106256 0.250729
0.180116 -0.258849 0.115210
0.206106 0.695772 -0.251138
-0.671957 -0.123079 0.088270
0.087576 0.467476 -0.345151
0.174269 -0.234302 0.503494
-0.051447 0.030220 0.563636
-0.084817 -0.445189 -0.243710
0.009700 -0.434034 -0.430852
0.513074 -0.097325 0.093115
-0.115388 -0.350162 0.456602
-0.214789 0.388649 0.342559
0.294604 0.127340 -0.270113
0.244595 -0.184508 -0.294801
0.208219 -0.101923 -0.142844
-0.330481 0.395207 0.392643
0.130074 -0.153327 0.363867
-0.091892 0.783616 -0.440162
-0.134034 0.554777 -0.531531
0.175016 -0.150095 0.439243
-0.082871 -0.067840 0.209995
0.165914 -0.361571 -0.179772
-0.390464 -0.174236 0.536563
0.004094 0.524158 -0.438884
0.355701 0.709949 -0.090767
0.291330 0.308078 -0.280670
-0.562505 -0.220356 -0.056100
0.213906 0.314328 -0.184819
-0.085899 0.809728 -0.462730
0.380332 0.416531 -0.466388
0.476730 -0.077311 0.112025
0.224116 0.366572 -0.400303
-0.526911 -0.227319 -0.063639
0.146856 -0.119749 -0.276090
0.479930 -0.067896 -0.037990
0.110660 0.838487 -0.280032
0.083288 -0.357883 -0.107360
0.011808 -0.358969 -0.178875
0.443653 0.046750 -0.620668
0.080476 -0.158007 -0.443390
-0.236113 0.252691 0.335951
0.376555 0.254300 -0.381535
-0.097668 -0.335097 0.398483
0.239465 0.213851 -0.209465
0.237766 0.587173 -0.262436
-0.386498 -0.012280 0.136370
0.109426 -0.327516 -0.026077
-0.237879 -0.166603 0.414283
-0.276189 -0.304801 -0.300385
-0.294363 -0.299097 0.199859
-0.133913 -0.263657 0.650314
-0.590808 -0.074250 0.013431
-0.314731 -0.118675 0.279770
