-0.156705 0.150002 -0.027401
0.206796 0.137130 0.028861
-0.684501 0.101713 0.144776
-0.573447 -0.090514 0.181334
0.084748 -0.251631 -0.188265
0.466046 -0.040997 -0.032814
-0.110734 0.348920 0.245414
0.354270 0.406133 0.111228
-0.443630 -0.202001 0.245414
-0.282775 -0.106581 0.245414
0.591123 0.697742 0.245414
-0.176846 -0.072296 -0.449392
0.268840 0.129070 -0.016799
-0.134703 0.308041 0.038496
-0.393786 -0.192736 -0.038999
0.019249 -0.443863 -0.140271
0.605573 0.573156 0.133764
-0.129361 -0.625058 -0.225886
-0.336073 -0.323568 -0.180149
-0.094740 0.441276 0.200220
-0.475924 -0.039880 -0.455109
-0.323099 -0.565358 -0.031798
0.111342 0.062161 -0.187501
-0.057625 -0.416460 0.245414
-0.449062 -0.151561 -0.127013
-0.684501 0.035698 -0.251417
-0.550169 -0.130222 -0.292273
0.173571 -0.054261 -0.376395
-0.283163 -0.529532 -0.368769
0.324306 0.542043 0.245414
0.188545 -0.189410 -0.076486
-0.220495 0.246216 0.026774
0.358174 0.723575 0.242605
-0.599912 0.108835 -0.015686
-0.426931 -0.169923 -0.432177
0.605573 0.601154 0.245191
0.262484 -0.190553 -0.082928
0.186431 0.532392 0.245414
-0.678169 0.110140 0.245414
0.605573 0.704844 0.221998
0.523008 0.547675 0.245414
0.038353 -0.305616 -0.381676
-0.332816 -0.318454 0.109948
-0.329429 -0.490818 -0.081264
-0.080243 0.044141 -0.469923
0.426485 0.564879 0.245414
-0.035736 -0.439655 0.218237
0.382278 0.005185 -0.080160
0.358245 0.044904 -0.017117
-0.298093 -0.277864 0.245414
-0.574643 0.119810 0.161341
-0.035736 -0.492127 0.156666
0.251600 0.021735 0.245414
-0.293012 -0.603579 -0.118224
0.010029 -0.074227 -0.449052
-0.090163 0.136209 -0.042120
0.136864 -0.179529 0.245414
-0.035736 -0.444103 0.114645
-0.684501 -0.039816 -0.237714
0.379490 0.617043 0.092983
0.133941 0.627564 0.121675
-0.200616 0.113165 -0.078636
0.223859 -0.191833 0.245414
0.039929 -0.421205 0.142957
-0.133483 0.220239 0.018602
-0.363484 0.054992 -0.435973
-0.330373 -0.344041 0.095652
-0.590733 -0.124795 -0.283067
0.319972 -0.123672 0.245414
0.167323 -0.035587 -0.437367
-0.304839 0.073712 -0.312433
-0.449943 0.153584 0.164253
-0.329510 -0.389294 -0.034512
-0.155558 -0.394002 -0.392666
0.549401 -0.120639 0.000583
0.358064 0.159294 0.154569
0.060815 -0.229093 0.245414
0.211377 0.325042 0.046816
-0.329510 -0.400157 0.183075
-0.139649 -0.477747 0.245414
-0.025163 -0.435564 0.057113
-0.341372 0.206473 0.245414
-0.314692 0.219735 0.245414
0.605573 0.620322 0.225039
0.396483 -0.381819 0.205229
0.231319 0.271483 0.070251
-0.451189 0.106616 -0.092902
0.035188 0.484162 0.069549
0.282233 0.565434 0.083880
-0.397007 -0.228655 -0.367797
-0.493646 0.092828 -0.149558
0.348906 -0.161813 0.080049
-0.392760 0.055945 -0.430219
0.507630 -0.375002 0.171816
0.195002 -0.207051 0.245414
-0.094790 -0.626650 -0.248021
0.294087 0.670681 0.245414
0.575864 0.692363 0.108747
0.543320 0.521584 0.245414
0.394102 -0.381678 0.245405
-0.677927 -0.132239 -0.337157
-0.650478 -0.017275 0.245414
-0.383461 -0.197325 0.134810
0.133039 -0.236622 -0.344179
0.177251 0.121477 0.245414
-0.145224 0.085230 -0.220706
0.063474 0.352359 0.046310
-0.211938 -0.463973 0.245414
-0.271488 -0.590650 0.245097
0.605573 -0.141043 0.015511
0.175822 0.262476 0.030798
0.195545 0.099937 0.245414
0.375688 0.726448 0.113148
-0.684501 0.087045 0.083697
0.344041 0.316285 0.122822
-0.518534 0.090378 -0.173086
0.025125 -0.050321 -0.453268
-0.259365 -0.387275 -0.393852
-0.532848 0.011220 -0.464118
-0.684501 0.020863 0.022854
-0.199230 0.211263 0.015469
0.204290 0.276064 0.050247
0.327407 -0.179640 -0.021048
0.291457 0.021496 -0.149916
-0.264270 -0.604221 -0.041766
0.354448 -0.181089 -0.029284
-0.088629 0.098838 -0.116621
-0.086447 0.086848 0.245414
0.481895 0.017686 0.245414
-0.578279 -0.140069 -0.381133
-0.084504 -0.139804 0.245414
0.281581 -0.165968 -0.132550
-0.346119 -0.290118 -0.192916
0.497159 -0.228601 0.245414
0.247239 0.126729 0.245414
0.011262 -0.426700 0.117353
-0.684501 0.043422 -0.176226
-0.349408 -0.300777 -0.339287
-0.473478 -0.137179 -0.437951
0.087971 -0.019532 -0.382586
-0.364497 0.089565 -0.180268
0.098069 -0.222251 -0.262714
0.052867 -0.295949 -0.280974
-0.062138 -0.578397 0.132912
0.257586 0.429626 0.245414
0.499599 -0.347623 0.165706
0.127932 -0.241622 -0.372529
0.415077 -0.380569 0.227907
0.041704 0.059417 -0.396706
-0.018529 0.073186 0.245414
-0.329435 -0.497565 -0.023822
-0.006002 -0.103799 -0.443837
0.605573 0.176815 0.242790
-0.015588 0.377397 0.245414
0.388800 0.423654 0.245414
0.369417 -0.281943 0.111614
0.009320 -0.430567 0.040718
0.231953 -0.114783 0.245414
0.541059 -0.136566 0.245414
0.068513 0.455162 0.245414
0.288869 0.700197 0.128239
-0.261786 -0.640016 -0.322291
0.261655 0.101122 -0.019958
0.292511 -0.392112 0.095177
0.497465 0.534930 0.245414
-0.221868 0.086081 -0.213117
-0.374654 0.180716 0.245414
-0.292883 0.215812 0.017070
-0.313942 -0.303064 0.245414
0.597837 0.242122 0.245414
-0.339022 -0.296202 -0.016668
0.195725 -0.103159 0.245414
-0.146809 0.335322 0.043306
0.577814 0.563871 0.245414
-0.036277 -0.526211 -0.252923
-0.581138 0.028837 0.245414
0.605573 -0.179194 0.244885
0.180505 -0.358967 0.245414
0.037786 -0.470061 -0.352012
-0.518537 0.131819 0.245414
0.290731 -0.183283 -0.041706
-0.462331 -0.166307 -0.318791
-0.293562 -0.619265 -0.245965
-0.227033 -0.615760 -0.153214
0.251017 0.556372 0.082282
0.561732 -0.257412 0.245414
0.101128 -0.410783 0.217265
-0.090953 -0.529598 0.245414
0.277554 0.278076 0.245414
-0.050321 0.317224 0.040114
0.166232 -0.061437 -0.451306
0.357738 0.527833 0.245414
-0.329510 -0.518168 0.205829
-0.684246 -0.089421 0.176494
0.605573 -0.043818 0.050476
0.333892 0.081059 0.245414
0.092650 -0.370571 -0.149733
-0.684501 0.015591 -0.092277
0.385682 0.730115 0.176292
0.099351 0.092026 -0.156655
0.344518 0.153921 0.124124
-0.387249 0.019607 -0.465598
-0.271695 -0.455143 0.245414
0.168610 -0.402569 0.179248
-0.333131 -0.024491 0.245414
-0.163893 -0.489309 -0.375862
0.287415 -0.188187 -0.069526
0.358816 -0.325312 0.245414
0.106563 -0.161361 -0.433688
-0.336593 0.060521 -0.402114
0.181879 -0.180247 -0.315480
-0.035736 -0.518229 0.016523
0.298115 0.489021 0.245414
0.260812 -0.297045 0.048297
0.269943 -0.394962 0.076277
0.448869 -0.284546 0.245414
0.018111 -0.430872 0.012338
0.510363 0.056430 0.048244
-0.243984 0.053004 -0.447560
-0.149058 -0.603214 -0.025736
0.605573 0.238653 0.208667
-0.361597 -0.253786 -0.417388
0.146293 0.133482 0.245414
0.304547 -0.009229 0.245414
0.472630 0.293502 0.245414
0.296006 -0.009931 -0.144920
0.284941 0.538405 0.079115
-0.193629 0.086042 -0.213510
-0.284343 0.183374 -0.000092
0.101737 -0.420135 -0.016181
0.097583 0.240247 0.245414
-0.263859 0.121903 -0.063480
-0.579874 -0.087000 0.245414
0.493202 -0.014336 0.245414
-0.191913 -0.631852 -0.272081
0.271719 -0.245155 0.047234
-0.056306 0.186112 0.245414
0.605573 0.399476 0.212027
-0.310074 -0.465418 0.245414
0.046435 -0.330567 -0.304842
-0.684501 0.088657 0.177178
-0.294193 -0.139848 0.245414
-0.329510 -0.445329 -0.239376
-0.649848 -0.022747 -0.458129
0.583218 0.754860 0.118310
0.426110 -0.165611 0.245414
0.115189 -0.326752 0.245414
-0.028272 0.407737 0.245414
-0.330788 -0.334256 0.067867
-0.375672 0.142369 0.245414
-0.684501 -0.009265 0.019531
-0.243380 0.173302 0.245414
0.302122 -0.157472 -0.113071
-0.513454 -0.118100 0.245414
0.198770 0.594704 0.245414
-0.359440 -0.257417 -0.176617
0.259323 0.048411 -0.012477
0.485991 -0.293894 0.245414
-0.067918 -0.633879 -0.339638
0.198890 -0.247523 -0.015905
-0.330617 -0.334360 0.160786
0.141348 0.395477 0.245414
-0.277924 0.249300 0.180290
0.089051 0.113159 -0.078238
0.197011 -0.402926 0.068657
-0.331318 0.087560 -0.199818
-0.684501 0.006826 -0.152357
-0.187944 -0.306778 0.245414
-0.370804 0.186668 0.076520
-0.615084 -0.106705 -0.129429
0.109514 -0.417248 0.009908
0.402935 -0.382436 0.147559
0.510014 0.294148 0.172705
0.330057 0.045158 -0.015658
-0.339163 -0.313935 -0.212640
0.175055 0.081968 0.245414
-0.514623 0.079354 -0.269581
-0.100307 -0.162507 0.245414
-0.185419 0.082544 -0.243825
-0.576509 0.120725 0.240697
-0.311181 -0.571121 0.234316
0.528083 -0.237055 0.245414
-0.647357 -0.090763 0.120798
-0.025378 0.371417 0.049670
0.294812 -0.389775 0.158376
-0.226306 0.292889 0.167824
-0.397867 -0.178886 0.149001
-0.035736 -0.461945 0.169169
0.195641 -0.179101 0.245414
-0.329533 -0.389505 -0.179455
0.570433 -0.138654 0.245414
0.197770 0.424757 0.245414
0.339231 -0.199630 0.082076
0.246937 0.362827 0.245414
-0.684501 -0.037101 -0.049884
0.068388 -0.326369 -0.217891
0.189759 0.453937 0.064220
0.605573 -0.066403 0.034403
-0.620584 0.108788 0.019796
0.052683 0.020816 -0.330797
0.605573 -0.361541 0.211271
0.130443 0.158327 0.245414
-0.366933 0.133491 -0.046375
0.359548 -0.166944 0.050958
-0.420708 -0.064769 0.245414
0.059213 -0.416912 0.215558
0.543323 0.069102 0.100077
-0.197770 0.072673 -0.320022
0.231537 0.439232 0.061628
0.479263 0.282314 0.169687
-0.384000 -0.241133 -0.347239
-0.582984 0.064725 -0.374970
-0.432670 0.155824 0.032576
-0.164902 -0.036636 0.245414
0.212545 -0.403214 0.029828
-0.480384 0.143448 0.178314
-0.117324 -0.079288 -0.448158
-0.138943 -0.352104 0.245414
-0.416958 0.069290 -0.344125
0.247013 0.245856 0.084822
-0.035736 -0.496260 -0.108718
-0.684501 0.003559 -0.278446
-0.329510 -0.424329 -0.193654
0.513186 -0.120720 -0.005563
-0.008486 -0.283631 0.245414
-0.468547 -0.135053 -0.077112
0.603986 -0.370151 0.245414
-0.180743 -0.593756 0.152411
0.219128 0.083695 -0.053081
-0.329306 -0.536158 -0.014731
0.175437 0.651538 0.170464
-0.115461 0.115841 -0.073725
-0.053087 -0.304669 -0.408418
0.242058 -0.167141 0.245414
0.459254 0.713707 0.245414
-0.490030 -0.137998 -0.211063
0.227072 0.470655 0.067167
-0.108314 -0.357331 -0.399133
0.605573 0.654461 0.245310
0.355123 -0.176197 -0.001525
0.401264 -0.219524 0.245414
-0.307135 -0.589607 -0.072411
0.038951 -0.411524 -0.356854
-0.180565 0.340487 0.161370
-0.652053 -0.129886 -0.321321
0.214542 0.406146 0.055799
0.605573 0.085991 0.132480
0.034926 -0.401237 0.245414
0.108520 -0.300918 -0.130631
-0.053692 0.439730 0.245414
0.479438 -0.319121 0.155906
0.062580 -0.221418 -0.257948
-0.448518 -0.064221 0.245414
0.039778 -0.434323 -0.077079
0.189080 0.304361 0.245414
0.314361 0.709202 0.140602
0.252270 0.259800 0.245414
-0.684501 0.060700 0.044924
0.024623 -0.464875 -0.306216
-0.388513 -0.189368 0.205693
-0.318553 -0.255379 0.245414
-0.684499 0.105011 0.203675
-0.040953 -0.550677 0.224576
0.601849 0.756925 0.239201
-0.338887 -0.290275 0.124972
0.230769 0.093845 0.245414
0.605573 0.044022 -0.008968
-0.183508 0.201889 0.245414
-0.325354 0.015422 0.245414
0.382766 0.033135 -0.083821
-0.372449 -0.245446 -0.261309
0.179073 -0.044055 -0.350631
0.225392 -0.300294 0.018770
0.080810 -0.421841 0.001790
0.186278 -0.110040 -0.312516
-0.004101 0.086705 -0.207308
-0.000038 0.501980 0.072692
0.290856 0.218907 0.114862
0.349712 0.569151 0.084536
0.199893 0.663854 0.177501
-0.229479 -0.014742 -0.459540
0.130044 0.087000 0.245414
0.321294 0.227962 0.128047
0.605573 0.426762 0.216575
-0.069592 -0.167916 0.245414
-0.040192 -0.579835 -0.226014
0.286034 -0.265390 0.061257
-0.192545 0.017016 -0.465140
-0.018451 -0.440484 -0.035382
0.256239 -0.102914 -0.174729
0.089719 0.304000 0.245414
0.605573 -0.201647 0.228082
-0.497678 -0.120151 -0.440954
0.465591 -0.009843 0.245414
-0.186015 0.139511 -0.038158
-0.462911 -0.151999 -0.211946
-0.370900 -0.263326 -0.365141
0.168227 -0.215038 -0.393425
-0.446305 -0.192098 -0.428266
0.562860 0.062157 0.080706
0.575442 0.652674 0.115707
-0.321429 -0.602301 -0.320495
-0.684501 0.034686 -0.331453
0.449820 -0.072344 0.245414
-0.261353 -0.635182 -0.292910
0.421158 0.709721 0.109323
0.186473 -0.035772 -0.325279
-0.155111 -0.603407 -0.355744
0.170527 -0.201155 -0.368100
0.067458 -0.110054 -0.442735
-0.180246 -0.153874 0.245414
-0.329463 -0.577855 -0.354664
0.208789 -0.173914 -0.241891
0.074019 -0.426712 -0.049905
0.145528 0.060680 -0.133225
0.128872 0.327634 0.041950
-0.227841 -0.228394 -0.421867
0.130397 0.091777 -0.158546
0.089222 -0.089340 -0.446388
0.165109 0.160455 0.245414
0.258236 0.037019 -0.061805
-0.199200 -0.277918 0.245414
-0.475884 0.102291 -0.105286
0.011483 0.059623 -0.407662
-0.543562 0.088589 -0.190008
0.378757 0.584150 0.245414
0.018310 0.075678 -0.298121
-0.684501 -0.119389 -0.312334
-0.415742 -0.001953 0.245414
-0.088106 -0.406914 0.245414
0.514515 -0.376729 0.223560
0.446756 0.659658 0.245414
0.177547 -0.211025 -0.199067
0.532809 0.221538 0.245414
-0.479731 0.140757 0.082004
-0.625735 -0.148203 -0.435267
0.126920 -0.407150 0.236062
-0.159426 -0.516208 -0.371119
-0.141307 0.340902 0.245414
0.036691 0.086535 -0.209000
-0.321678 -0.114194 -0.442004
-0.243807 0.277630 0.214192
-0.618505 -0.008446 0.245414
-0.271983 0.055018 -0.435833
0.469588 0.566628 0.117590
0.386212 0.043209 -0.026746
0.576530 -0.190720 0.147262
0.058158 0.006983 -0.306498
-0.281439 -0.389316 0.245414
0.451108 -0.160429 0.087866
-0.304390 0.178392 0.245414
0.458225 -0.153050 0.245414
-0.098649 -0.610254 -0.110493
0.351367 0.375045 0.115507
-0.653949 -0.114871 -0.206392
-0.354741 -0.176844 0.245414
0.219968 0.014729 0.245414
0.328770 0.006432 0.245414
-0.252484 -0.608527 -0.086054
0.437902 0.685658 0.105080
-0.130223 -0.504032 0.245414
-0.684501 0.086560 0.121706
0.605573 -0.268501 0.245411
-0.684501 0.071922 -0.244653
-0.240724 -0.470377 -0.379200
0.376040 0.109578 0.047066
0.038062 -0.372561 -0.380441
-0.090435 -0.272799 -0.414037
0.250146 0.335219 0.245414
-0.680821 0.087130 -0.203968
0.570188 0.045563 -0.013390
-0.684501 -0.049904 -0.135154
0.184635 -0.228525 -0.034545
0.605573 -0.260691 0.161400
0.039202 0.082139 -0.247072
0.125357 -0.104705 0.245414
-0.101554 -0.479667 0.245414
0.381277 0.048033 0.000604
0.392007 0.467986 0.114116
0.573863 0.610407 0.123053
0.385938 -0.216467 0.107392
-0.495165 -0.156826 -0.434486
-0.132635 0.094309 -0.141174
-0.450980 0.026477 -0.466809
0.248612 0.154565 0.245414
0.171357 0.581461 0.086707
-0.680487 0.070855 -0.333513
0.061099 0.246317 0.245414
-0.333145 -0.358452 -0.318094
-0.148020 -0.591828 0.245414
0.063618 -0.403838 -0.219389
0.102231 0.328382 0.245414
-0.377448 -0.241698 -0.292243
0.116388 -0.420866 -0.052663
-0.682035 -0.029226 -0.456986
-0.623286 0.093985 -0.140412
-0.179749 -0.123219 0.245414
0.597573 0.730703 0.245414
-0.051764 0.216058 0.245414
-0.035736 -0.507935 -0.151453
-0.628214 0.061873 -0.393303
0.004004 -0.144172 -0.436718
-0.117809 -0.287585 0.245414
-0.684501 -0.121205 -0.269132
0.193495 0.343353 0.245414
0.041491 0.535754 0.245414
0.373278 0.439851 0.112589
0.605573 0.666511 0.114658
0.070524 0.528659 0.245414
0.179251 -0.070415 0.245414
0.299939 0.094521 0.008365
-0.494391 0.057644 -0.419874
-0.192664 -0.382137 -0.394758
-0.613804 -0.091449 0.100182
-0.373011 0.184130 0.046001
0.186409 0.035094 -0.078022
-0.045017 -0.452273 0.245414
0.198210 -0.200127 -0.137253
0.605573 0.509748 0.223587
-0.286972 0.087199 0.245414
-0.235677 -0.637755 -0.309402
0.091066 0.213027 0.245414
-0.619540 -0.040578 -0.454985
0.014745 0.083926 -0.231758
0.450192 -0.308024 0.146514
0.035067 0.495429 0.245414
-0.328749 -0.532257 -0.042123
-0.025447 -0.037909 -0.455456
-0.470913 0.049713 -0.466828
-0.329510 -0.494603 -0.280342
0.605573 0.017197 -0.015706
0.111067 0.128222 0.245414
0.477950 0.156488 0.138653
-0.060965 0.216019 0.017093
-0.102372 -0.592634 0.212361
0.327150 0.692653 0.245414
-0.246053 -0.619120 -0.181039
0.435721 -0.126728 -0.029281
0.165549 -0.099973 0.245414
0.275113 -0.339461 0.066414
-0.479673 0.084194 -0.229756
-0.303863 -0.011163 0.245414
0.593576 0.756036 0.148775
0.351743 -0.222160 0.092787
-0.192130 0.057787 -0.418915
-0.190005 0.235412 0.245414
-0.157905 0.202326 0.010830
-0.618303 -0.114518 -0.203484
-0.061582 -0.039181 -0.455230
0.038557 -0.432040 -0.048123
0.597646 -0.171919 0.144603
-0.537730 -0.128868 -0.267773
-0.684501 -0.079522 -0.146575
-0.384445 0.153564 -0.023352
-0.435036 -0.152834 -0.021090
-0.512000 0.087567 -0.199516
0.202685 0.555767 0.245414
0.576858 0.171418 0.200655
0.036385 0.432215 0.245414
0.361112 0.294968 0.133503
0.022155 0.064216 -0.377855
-0.329510 -0.456620 -0.070291
0.188672 0.007699 -0.228097
-0.133915 -0.450025 0.245414
-0.059331 0.056686 -0.425777
0.509100 0.067346 0.095079
0.605573 0.493095 0.145683
0.605573 0.349511 0.216419
-0.329510 -0.413608 0.057776
-0.521149 0.130787 0.136744
0.022647 -0.169807 -0.432197
-0.561539 -0.016817 -0.459175
-0.589517 0.068661 -0.348089
0.304048 -0.318014 0.082578
-0.289743 -0.167533 0.245414
0.369515 -0.159534 -0.058730
-0.096710 -0.617229 -0.174983
0.274172 0.319985 0.245414
0.010551 0.104193 0.245414
-0.451607 0.086664 -0.207856
-0.308612 0.039796 0.245414
-0.684501 -0.098609 -0.083185
0.464520 0.469478 0.245414
0.233715 0.496714 0.071764
0.414858 0.317924 0.147664
-0.307406 0.058484 -0.414829
0.030943 -0.421418 0.207129
0.428897 0.401620 0.136983
0.404425 0.521235 0.108708
-0.066536 0.095292 -0.133223
-0.336767 0.108533 -0.088751
-0.332547 -0.325707 -0.007687
-0.310598 -0.572943 0.165315
0.326538 -0.063313 0.245414
-0.262723 -0.181187 0.245414
-0.600814 0.072724 -0.320009
-0.255749 0.072462 -0.321604
0.371634 0.268888 0.142173
-0.329510 -0.416696 -0.045617
-0.157052 0.368269 0.183398
-0.163559 0.360199 0.152321
-0.390344 0.095488 -0.132754
0.003099 0.534018 0.084527
0.447709 -0.173208 0.015422
-0.254596 -0.615114 -0.147315
0.535142 0.194032 0.245414
-0.643234 0.109908 0.245413
0.013435 0.389924 0.245414
0.605573 0.211711 0.212763
0.349255 -0.222113 0.245414
0.605573 0.537334 0.138601
0.592082 -0.215235 0.152083
0.353638 0.421842 0.245414
-0.008628 0.132615 -0.047021
0.052347 0.089057 -0.185336
-0.684501 0.044346 0.179791
-0.285370 0.069540 -0.342396
-0.216319 -0.302589 0.245414
-0.042739 -0.600903 -0.356182
-0.684501 -0.045912 0.059811
-0.190439 -0.096407 0.245414
-0.215754 -0.525792 -0.369429
0.094195 -0.311804 -0.156686
0.326337 -0.386577 0.199665
-0.008699 -0.459841 -0.232862
-0.434656 0.055330 -0.433807
0.299495 0.301712 0.245414
-0.035736 -0.491768 0.078042
0.541124 0.206609 0.191891
0.035399 -0.217942 0.245414
-0.210115 -0.478577 -0.377754
0.274596 0.041019 -0.039123
0.100280 0.155396 0.245414
-0.684501 -0.043779 0.020581
0.165690 -0.229887 -0.421606
0.528935 -0.098089 -0.006366
-0.498698 -0.113720 0.029928
-0.217675 0.137577 -0.041283
-0.467264 -0.138621 -0.108671
0.154352 0.639384 0.135447
-0.260487 0.049034 -0.470723
-0.334294 -0.307472 0.205961
0.391637 -0.162345 0.077059
0.161603 -0.402527 0.245414
0.554258 0.376965 0.163046
0.137930 0.574889 0.085549
-0.132461 -0.322198 -0.405327
0.244267 0.032731 -0.086128
-0.644318 -0.089914 0.150197
0.605573 0.731453 0.212647
-0.118956 0.379428 0.245414
0.488328 0.749433 0.215428
0.436625 0.018330 0.245414
-0.325872 -0.552107 0.008203
-0.080923 -0.455783 -0.381774
-0.353624 0.080857 -0.257750
-0.432008 0.066780 0.245414
-0.684501 0.047559 0.213418
0.605573 0.058138 0.065266
-0.012614 0.521227 0.104194
-0.264891 0.259736 0.215196
-0.441032 -0.139686 0.181540
0.109696 0.613777 0.153571
0.158131 -0.408896 0.042216
-0.014789 0.415222 0.057394
0.240169 0.081446 -0.033925
-0.679512 -0.097713 -0.018943
-0.266217 -0.592220 0.198881
-0.276340 -0.616675 -0.183460
0.136957 -0.382578 0.245414
0.387070 0.555580 0.245414
-0.335258 -0.137788 -0.437843
-0.007146 -0.449719 -0.153344
0.318876 0.166107 0.245414
-0.329510 -0.414496 -0.226370
-0.355749 -0.290884 -0.364424
-0.209928 -0.136809 -0.438016
-0.329510 -0.442457 -0.312988
0.483580 0.019555 -0.037787
-0.135417 -0.492927 -0.375224
0.114588 0.477451 0.245414
0.506869 -0.133972 0.245414
0.176238 0.002636 -0.256806
0.605572 -0.100803 0.116005
-0.521236 0.058424 -0.415153
-0.089817 0.151375 0.245414
0.188322 0.029121 -0.106673
0.466520 0.742280 0.245414
0.364569 0.215540 0.148842
-0.071807 -0.218671 -0.423581
-0.083497 -0.599329 -0.023615
-0.330892 -0.355584 -0.184807
0.373189 0.310535 0.245414
-0.180238 -0.221972 -0.423000
-0.414580 0.092017 -0.157542
-0.125844 0.074817 -0.304536
-0.201484 -0.449100 -0.382951
-0.495912 -0.124705 -0.107573
-0.541300 -0.031354 0.245414
-0.197600 -0.090952 -0.446102
0.582971 0.473263 0.147622
-0.010571 0.525085 0.212971
0.121566 0.581512 0.245414
-0.028852 0.200469 0.245414
-0.060135 -0.165817 -0.432901
-0.361430 0.193772 0.137787
-0.019703 -0.233951 -0.420887
0.160345 0.601810 0.245414
-0.333714 -0.265147 -0.415385
0.179115 0.651165 0.245414
0.270980 0.076361 -0.008533
-0.473212 0.054808 -0.437061
0.568569 0.756157 0.228025
0.024948 -0.454168 -0.232536
-0.648430 -0.102606 -0.083754
0.277967 -0.178065 -0.012134
0.390399 -0.360765 0.134892
0.449036 -0.154982 0.118742
-0.402319 -0.230392 -0.421514
0.164684 0.134239 0.012468
0.605572 -0.168291 0.176352
-0.500127 -0.119522 -0.066195
0.428026 -0.380746 0.161575
0.430139 0.708743 0.245414
-0.185291 -0.611657 -0.116429
-0.434464 -0.033476 0.245414
-0.079552 -0.398521 -0.391870
-0.315409 0.071997 0.245414
-0.076987 -0.620167 -0.227297
-0.212891 0.303449 0.078755
-0.035736 -0.519275 0.046451
0.050011 0.457299 0.064813
-0.121629 -0.130231 0.245414
-0.035736 -0.505020 -0.180100
-0.473409 0.077618 -0.283244
-0.030072 0.506930 0.165143
-0.291817 0.111493 -0.082262
-0.035738 -0.470016 0.207715
0.605572 0.706738 0.110309
-0.076207 -0.200060 0.245414
-0.511251 -0.031081 0.245414
-0.363761 -0.228783 0.087874
-0.115577 -0.040148 0.245414
-0.404366 -0.102632 -0.444043
-0.588120 -0.001125 0.245414
0.180344 -0.194780 -0.045899
-0.239432 0.062534 -0.389403
0.239416 0.681800 0.179154
0.457890 -0.177575 -0.011551
0.274874 0.258936 0.099117
-0.345371 -0.278357 -0.037599
-0.306367 -0.546529 0.245414
0.104190 0.160031 -0.017535
0.136451 -0.373431 -0.071844
0.528693 -0.213262 0.146779
0.605573 -0.346489 0.187343
0.482292 0.607389 0.112977
0.475390 -0.234423 0.140137
-0.425756 -0.167037 -0.109586
0.482526 0.400953 0.149338
-0.409369 0.171088 0.241658
-0.139387 -0.062502 -0.451118
-0.490422 0.136033 0.245414
-0.088818 -0.535992 -0.367631
-0.470225 0.095066 -0.135172
0.397383 0.404337 0.127154
-0.329510 -0.504691 0.041964
-0.182771 0.076094 -0.295115
0.566990 -0.262769 0.158787
-0.422223 -0.156342 0.109954
-0.654025 -0.134793 -0.353800
-0.336330 0.205411 0.056611
-0.684501 -0.059190 -0.106204
-0.057064 -0.575069 0.077621
0.324223 0.108067 0.245414
-0.431126 0.079230 -0.270678
-0.623404 -0.124946 -0.286188
0.544374 -0.014028 -0.018649
-0.684501 0.049802 0.245053
0.605573 0.011255 0.218643
-0.344199 0.163339 -0.014946
-0.290777 0.148772 0.245414
-0.079536 -0.298157 -0.409566
-0.209094 -0.059970 -0.451565
-0.056506 0.257765 0.029466
-0.454699 0.133980 -0.045872
0.536325 0.355326 0.164970
-0.413876 -0.239873 0.245414
-0.316328 -0.583987 -0.131424
-0.475590 0.060916 -0.399594
0.106005 0.133067 -0.012624
0.094943 0.011686 -0.209585
-0.243923 0.275613 0.113151
-0.153345 0.074160 -0.309077
-0.166547 0.102127 -0.106283
0.049390 0.573379 0.238705
0.357716 0.722723 0.159017
-0.203715 0.154867 -0.022865
-0.571551 0.088705 -0.188951
-0.111816 -0.202791 0.245414
0.579178 -0.187757 0.245414
0.194602 -0.291988 -0.012723
0.521839 0.249066 0.245414
0.603897 0.319634 0.245414
-0.192695 -0.626779 -0.237929
0.238440 -0.099288 -0.200953
0.568505 0.163047 0.175865
-0.415612 -0.212030 0.245414
-0.195633 0.321860 0.094254
0.605573 0.498001 0.173844
0.013635 -0.459706 -0.259336
-0.332792 -0.355680 -0.289950
0.189468 -0.363241 -0.006071
-0.169542 0.000082 -0.462154
-0.167316 -0.046455 -0.453948
0.357603 0.633246 0.095838
0.151116 -0.405407 0.143997
0.527451 0.118033 0.245414
0.143027 0.518573 0.075618
0.128973 0.611045 0.245414
0.235329 0.620376 0.093569
0.208295 -0.321114 0.245414
-0.308458 -0.623427 -0.336060
-0.362942 -0.246407 -0.135011
-0.622693 0.066484 -0.362975
-0.063750 -0.091554 0.245414
0.404078 0.677781 0.103691
-0.684501 -0.041821 -0.368771
-0.265446 -0.447041 -0.383314
-0.614701 -0.132343 -0.337886
0.205912 0.635140 0.096172
-0.304767 -0.270724 -0.414402
0.315168 -0.075092 -0.115238
0.250957 -0.138871 0.245414
0.293869 -0.356724 0.082579
-0.329510 -0.526771 0.130236
-0.167868 0.308896 0.038647
0.580960 0.157265 0.143080
-0.594028 -0.138757 -0.437674
0.001307 -0.396761 0.245414
0.258932 0.280000 0.086017
-0.180102 0.342006 0.243158
-0.329510 -0.385225 -0.208140
0.318013 -0.365905 0.245414
-0.405627 0.142275 0.245414
-0.578397 0.075103 -0.302253
0.304926 0.152072 0.113631
0.526793 -0.353405 0.171178
0.062384 -0.353040 0.245414
-0.036995 -0.533225 -0.174328
-0.413720 0.027285 -0.466951
-0.182234 0.283049 0.245414
0.002750 -0.452064 -0.382429
0.484414 0.374110 0.245414
0.055646 -0.415220 -0.246173
0.410399 0.051562 0.020633
0.101581 0.606018 0.091038
-0.035736 -0.463867 -0.019136
-0.584822 -0.107169 -0.127301
0.389329 0.654656 0.099614
0.316310 -0.001817 -0.127191
-0.602266 0.087898 -0.196478
0.134250 -0.343468 -0.080518
-0.098036 0.086087 -0.213091
-0.487689 0.080534 0.245414
-0.361767 0.096769 -0.124416
0.605573 0.123771 0.126197
-0.558926 -0.132234 -0.438823
0.385758 0.244189 0.151417
-0.684501 -0.114521 -0.221414
0.604229 0.429524 0.245414
-0.684501 0.063168 -0.009183
0.485455 0.050696 0.245414
-0.389528 0.180253 0.222384
-0.589900 -0.094686 0.031689
-0.329510 -0.405454 0.212005
0.056021 0.349625 0.245414
-0.646992 0.082586 0.245414
0.444861 0.593557 0.107261
0.378422 -0.293255 0.245414
-0.034380 -0.432680 0.191799
0.605573 -0.190089 0.193250
-0.380096 -0.048099 0.245414
0.070678 0.406349 0.245414
-0.198477 -0.065196 0.245414
-0.457995 -0.158931 -0.243510
-0.060485 0.472480 0.245414
-0.550159 0.124102 0.142202
0.605572 -0.070251 0.108951
0.497232 0.262714 0.245414
0.180034 0.653237 0.137719
0.110450 -0.169272 0.245414
-0.341750 -0.299773 -0.165405
-0.347628 -0.266759 0.028453
-0.065193 0.020402 -0.465737
0.494866 0.091579 0.088230
0.605573 -0.101699 0.085097
-0.221037 0.013596 -0.464537
-0.329510 -0.462254 -0.379491
-0.044748 0.492311 0.132045
-0.304547 -0.607829 -0.217266
0.467786 -0.048905 0.245414
0.399377 0.354803 0.245414
-0.556660 -0.093852 -0.445591
-0.462205 -0.133964 -0.013879
0.023373 0.091766 -0.159124
-0.095819 0.438503 0.118047
-0.306478 0.085936 -0.214523
-0.428583 -0.114950 -0.441871
-0.338982 0.083601 -0.234772
0.029544 0.336227 0.043465
-0.329510 -0.425554 -0.134791
-0.049831 -0.584212 -0.121062
0.257504 0.688505 0.141992
0.402600 0.298820 0.245414
0.503447 0.504556 0.245414
0.425557 -0.231955 0.125588
0.228311 -0.070665 -0.222912
-0.326442 0.090578 -0.171238
0.232211 -0.293514 0.245414
0.072831 -0.398623 -0.192629
0.066356 -0.375740 -0.215824
0.022456 -0.422563 0.233860
0.371598 -0.248829 0.106974
0.030915 -0.446422 -0.179853
-0.121313 -0.452656 -0.382325
-0.322157 -0.594521 -0.287205
-0.329510 -0.386416 -0.006620
-0.679274 0.101376 -0.047386
0.209868 -0.079372 0.245414
-0.163654 -0.228704 0.245414
0.575366 0.056594 0.049185
0.004095 -0.059049 0.245414
-0.329510 -0.447300 -0.345178
-0.503994 -0.000558 0.245414
0.218311 0.281751 0.245414
-0.329510 -0.514790 0.244588
0.521945 0.474880 0.142486
-0.564834 -0.055806 0.245414
-0.095510 0.082573 -0.243492
0.075406 -0.416250 0.131719
0.070590 -0.224600 -0.230004
0.003987 -0.267780 -0.414922
0.602387 -0.338402 0.245414
0.475354 0.453501 0.138638
-0.559495 -0.103394 -0.058266
-0.400799 -0.198224 -0.173179
0.328925 -0.050108 -0.107787
-0.236387 0.092268 -0.154408
0.146401 0.472198 0.245414
-0.470008 -0.124301 0.079282
0.435772 0.336711 0.150240
-0.048773 0.364530 0.245414
-0.526820 -0.139865 -0.437477
-0.060654 0.477440 0.193091
-0.330310 -0.351297 -0.025317
0.551477 -0.007245 0.245414
0.028904 0.242854 0.245414
0.255270 0.074308 0.245414
0.513549 0.371383 0.245414
-0.103288 -0.511656 -0.371922
0.541437 0.376347 0.245414
0.037092 -0.151866 0.245414
0.010368 0.117573 -0.070887
-0.683931 -0.080043 0.245414
-0.329510 -0.381671 0.028672
-0.400508 -0.178917 0.071229
-0.415442 0.000140 -0.462165
0.290379 -0.389333 0.216163
0.605114 0.108217 0.096440
-0.009954 -0.329222 -0.404089
0.356591 -0.087901 -0.079981
-0.083554 -0.589288 0.182313
-0.608430 0.082514 -0.242979
-0.176661 -0.260273 0.245414
-0.528139 -0.056240 0.245414
-0.054757 -0.537123 -0.367431
-0.286042 -0.248759 -0.418276
0.506706 0.728383 0.112612
0.268030 -0.137711 -0.153575
-0.257917 0.265469 0.244554
-0.347768 -0.290907 -0.239133
-0.683747 -0.094269 -0.445518
0.361222 0.340351 0.125431
-0.159264 -0.315954 0.245414
0.155439 0.617437 0.093052
0.155117 0.006136 -0.236983
-0.337940 -0.325224 -0.260532
-0.276037 -0.620274 -0.210701
0.467352 0.677086 0.103568
-0.431079 -0.189030 -0.325772
-0.256536 0.183530 -0.000259
-0.080601 -0.029090 0.245414
-0.059386 0.475956 0.069756
0.499839 0.670574 0.104776
0.293867 0.684444 0.104864
0.556114 0.630974 0.118413
0.142803 0.026473 -0.130866
0.423193 0.099520 0.067445
-0.516362 -0.111968 -0.041457
-0.330864 -0.384639 -0.391122
0.401143 0.266671 0.152616
-0.053780 0.308107 0.245414
-0.337608 0.207925 0.151242
-0.329510 -0.419910 -0.075952
-0.307061 -0.043489 0.245414
0.343488 -0.171334 0.026031
-0.357146 0.064031 -0.379627
0.508700 0.188961 0.191136
0.338806 0.001470 -0.108906
-0.285781 -0.615620 -0.353591
0.577367 -0.054820 0.245414
-0.620595 -0.104099 -0.101336
0.399001 0.733761 0.219824
-0.654870 -0.092050 0.085366
0.496987 0.151439 0.110030
0.121438 -0.422741 -0.082003
0.196685 0.538866 0.079195
-0.035736 -0.491385 -0.003824
-0.329510 -0.527235 0.057350
-0.247397 0.256172 0.029253
0.299254 0.245451 0.114500
-0.261571 -0.017147 -0.459116
0.480198 0.080274 0.245414
-0.328819 -0.523110 -0.068792
-0.559693 0.091780 -0.159144
-0.484431 -0.157877 -0.340061
0.164365 -0.201048 -0.142469
0.573456 -0.357848 0.245414
-0.219468 -0.389890 -0.393391
-0.329510 -0.486695 0.236361
0.082682 0.089745 -0.178510
-0.054297 -0.272981 -0.414005
0.104546 0.435238 0.060923
-0.040930 0.395065 0.053840
0.229903 -0.261239 0.245414
-0.494156 0.065537 -0.369578
-0.266067 -0.151432 0.245414
-0.094084 0.063799 -0.381078
0.046616 0.061373 -0.365676
0.169329 -0.075713 -0.403246
0.433187 0.057061 0.051831
-0.035736 -0.533317 -0.015806
0.261177 -0.391999 0.217758
0.147522 0.636992 0.232974
0.289137 0.191569 0.118653
-0.323471 -0.565196 -0.060357
0.458219 0.389189 0.245414
0.478526 0.371404 0.153809
-0.044771 -0.203786 0.245414
-0.229439 0.166651 -0.011160
-0.245849 0.081045 -0.256191
-0.491361 0.121472 -0.065936
-0.030155 0.473744 0.245414
-0.617577 -0.090283 0.138672
-0.035736 -0.492057 0.049201
0.258272 -0.071840 -0.177575
0.508265 0.620737 0.114907
0.456922 -0.372326 0.245414
-0.393341 -0.225768 -0.325747
-0.446099 0.155144 0.197291
0.200261 -0.002365 -0.285197
-0.372813 -0.219629 -0.019852
0.605573 0.025050 0.050851
0.004379 0.473877 0.067736
-0.522491 -0.151734 -0.394280
0.351731 0.094042 0.038128
-0.530399 -0.118435 -0.159436
0.588895 0.632253 0.245414
0.325346 0.024609 -0.123999
-0.566273 0.071071 -0.331873
-0.654615 0.058362 -0.415219
0.291550 0.701836 0.158146
0.323597 0.280207 0.245414
0.426538 0.407016 0.245414
0.325710 0.393567 0.101209
0.395137 0.194574 0.245414
-0.562332 0.110496 -0.076205
-0.484318 -0.146541 -0.257950
-0.653222 0.104925 -0.000917
0.424322 0.738147 0.145573
0.431291 -0.199015 0.245414
-0.346962 0.177790 0.245414
0.161953 0.267392 0.245414
0.203085 -0.181818 -0.033447
-0.026653 -0.407125 0.245414
0.058614 -0.218939 -0.423534
-0.524266 -0.100035 0.172663
0.002669 -0.418970 -0.388266
0.064465 -0.431779 -0.091464
0.178299 0.576696 0.245414
-0.684501 -0.067654 -0.079541
0.011921 -0.435250 -0.034129
-0.520912 -0.099338 -0.444624
0.264350 0.367621 0.073708
0.157174 -0.198572 0.245414
0.123631 -0.236339 0.245414
-0.067610 -0.328587 0.245414
-0.546147 0.087310 0.245414
-0.167020 0.356942 0.216413
0.240967 0.542175 0.245414
-0.551995 0.067014 -0.359700
-0.021649 -0.252297 0.245414
0.264480 -0.114338 0.245414
0.160932 0.301324 0.245414
-0.130621 -0.580828 -0.359725
-0.683973 -0.092640 0.072693
-0.399325 0.077856 -0.281565
0.058444 0.116833 -0.071405
-0.329510 -0.516174 -0.171770
-0.167810 -0.579015 -0.360045
-0.013552 0.083702 -0.233513
-0.168782 -0.074328 0.245414
0.138794 -0.402161 -0.063079
0.605573 -0.067267 0.149442
-0.326083 -0.549291 0.036694
-0.464837 -0.172025 -0.431806
-0.059117 -0.117462 -0.441427
0.351744 0.054445 0.036957
-0.143086 -0.233109 -0.421036
-0.379726 -0.219779 -0.136856
-0.232580 0.281390 0.033798
-0.508657 -0.126735 -0.175543
0.115783 0.372486 0.049859
-0.435578 -0.144277 0.155183
0.148631 -0.407295 0.101448
-0.397270 0.176689 0.192171
-0.498850 0.048368 -0.470669
-0.146376 -0.018128 -0.458943
0.020767 0.450093 0.063543
-0.238454 -0.590798 0.245414
0.259059 0.486124 0.245414
0.137749 -0.139872 -0.437478
0.219232 -0.104251 -0.233222
0.037181 0.303261 0.037653
0.113869 -0.228078 -0.133764
0.149594 0.573807 0.245414
-0.658778 0.011694 0.245414
-0.199593 0.283226 0.034122
-0.487735 -0.122732 -0.039395
-0.056350 0.350232 0.045935
0.475673 0.052459 0.025726
-0.280923 -0.593705 0.061136
-0.560322 -0.113078 -0.164533
0.199663 0.184545 0.245414
0.605573 0.042309 0.199465
-0.131551 0.054756 0.245414
0.276414 0.099702 0.245414
0.605573 0.448407 0.195658
-0.511848 0.096295 -0.127659
-0.684501 -0.075075 0.044065
-0.089697 0.407484 0.245414
-0.179473 -0.454464 0.245414
0.079083 -0.050616 0.245414
0.227161 -0.042150 -0.229992
0.181484 -0.331173 0.245414
-0.190400 0.093837 -0.142814
0.379388 0.449755 0.245414
0.036420 0.364880 0.048517
0.099419 0.309273 0.038712
0.075533 0.472605 0.067512
-0.684501 0.059729 0.077550
0.605573 -0.293750 0.215830
0.170671 0.212537 0.035250
-0.182512 -0.608451 -0.085167
0.388779 -0.106293 -0.056384
-0.339750 -0.344115 -0.401461
0.466167 -0.210863 0.245414
-0.077935 -0.627220 -0.274286
-0.329745 -0.356500 0.049413
-0.035736 -0.504740 0.128545
-0.051219 0.290298 0.035368
0.077884 -0.290308 -0.198294
0.000228 0.154081 -0.023449
0.165784 -0.391223 -0.028596
0.142490 0.105014 -0.098328
-0.184953 -0.528286 -0.368989
-0.684501 -0.107661 -0.147196
-0.507049 0.083989 -0.231177
-0.061502 -0.089083 -0.446431
0.120838 -0.408373 0.190935
0.554566 0.547656 0.245414
-0.684501 -0.010900 -0.118712
0.112788 0.532877 0.078140
-0.239400 -0.142562 -0.437002
0.081774 0.007159 -0.238520
-0.242628 -0.463042 0.245414
0.486596 -0.175372 0.245414
-0.177663 -0.414584 0.245414
-0.001825 0.342496 0.044570
-0.270824 -0.122947 -0.440461
-0.357966 -0.270898 -0.262882
0.582628 0.551800 0.133606
-0.052646 -0.605613 -0.256164
-0.307690 -0.586440 -0.041508
0.103182 0.187004 0.245414
-0.045801 0.092355 -0.153351
-0.143392 -0.550129 -0.365138
-0.308390 0.049167 -0.469960
0.528449 0.662234 0.110074
-0.304493 0.062777 -0.387508
-0.102732 -0.323735 -0.405056
0.099885 0.557418 0.082467
0.351393 -0.123396 0.245414
-0.431745 0.153491 0.245414
0.603313 -0.161271 0.083075
0.124461 0.055013 -0.163617
0.290550 0.560895 0.245414
0.502439 -0.300229 0.157767
-0.651468 0.087319 -0.201969
0.483322 0.117579 0.081139
-0.203852 0.089649 -0.180137
0.261901 -0.311606 0.245414
-0.214187 -0.599240 0.029987
-0.647891 -0.089229 0.184908
0.037856 -0.439062 -0.379997
0.468378 0.510577 0.245414
-0.267608 0.065830 -0.367773
-0.670526 0.075185 -0.301791
-0.554543 -0.098271 0.031629
-0.462156 0.066324 -0.364260
-0.385880 0.117072 0.245414
0.271824 0.661567 0.100830
-0.025522 0.511863 0.237049
0.425079 0.150821 0.106522
-0.557715 -0.091690 0.222304
-0.593440 0.094695 -0.137349
0.094899 0.604642 0.182705
-0.320418 -0.558839 0.139817
0.547921 0.574921 0.245414
-0.239463 0.278348 0.078279
0.563784 0.360227 0.245414
0.004684 0.537417 0.160389
-0.684501 -0.018778 -0.302165
-0.413743 0.059121 -0.410720
0.086151 0.352890 0.245414
0.262648 -0.392842 0.154940
-0.541120 0.119423 -0.011341
-0.526788 -0.090144 0.245414
0.497138 -0.377389 0.201452
0.173820 0.650987 0.217175
-0.083276 -0.299688 0.245414
0.605573 0.630400 0.120975
0.458777 -0.281238 0.144127
-0.445891 -0.149533 -0.083146
-0.012102 0.443657 0.245414
0.324866 -0.184592 -0.049147
-0.247351 0.273986 0.174641
-0.143031 -0.418049 0.245414
0.605573 0.049594 0.126775
0.337605 0.658921 0.245414
-0.550911 0.077583 -0.283586
-0.361772 -0.259896 -0.232979
0.178307 -0.119272 -0.340416
0.199428 0.024154 -0.134824
-0.684501 -0.076108 -0.389493
0.434223 -0.311706 0.245414
0.443450 -0.334371 0.149277
0.524520 -0.110952 0.245414
-0.574185 0.117777 0.084048
0.217486 0.034591 -0.075630
-0.423268 -0.172128 -0.142005
-0.036816 -0.550911 -0.195644
0.383166 0.221870 0.245414
-0.184865 0.049401 -0.468605
0.007291 0.255247 0.028860
-0.076117 0.331520 0.042635
-0.601126 0.113483 0.075835
0.260291 0.455093 0.064423
0.264866 0.206870 0.102402
0.261479 -0.167601 -0.156626
-0.070434 -0.191664 -0.428343
0.039896 -0.352352 -0.351385
0.320325 -0.388193 0.141502
0.504120 0.139185 0.245414
0.176357 0.476119 0.245414
0.596046 -0.166088 0.055773
0.055981 0.093800 -0.142757
0.101622 -0.239825 -0.362333
-0.590022 0.059694 -0.407232
0.047896 -0.426143 -0.278744
-0.369371 -0.217473 0.150786
0.168832 -0.115866 -0.406387
0.567395 -0.375973 0.202736
0.432959 -0.168367 -0.023087
0.591764 -0.030579 0.245414
-0.295348 0.235728 0.147856
0.593446 0.146076 0.089480
0.128836 0.601335 0.090212
-0.381895 -0.230150 0.245414
0.086035 0.598351 0.154585
0.235668 -0.399723 0.048230
-0.286902 -0.251984 0.245414
-0.030256 0.507230 0.199395
0.461232 0.704301 0.108367
0.351435 0.463425 0.245414
0.149783 -0.067622 0.245414
-0.369819 -0.258286 -0.323595
0.074157 0.028367 -0.261292
-0.176335 0.344594 0.132156
0.258360 0.688152 0.108908
-0.148713 0.374277 0.052683
0.341182 -0.350444 0.245414
0.285682 0.426383 0.245414
-0.554744 0.040479 0.245414
-0.126107 0.359529 0.047574
-0.080344 0.219049 0.245414
0.491405 -0.328839 0.245414
-0.037273 -0.328872 0.245414
-0.285642 -0.597216 -0.007845
0.379882 0.145985 0.079111
-0.050841 0.047483 -0.470513
-0.422475 0.158468 0.006835
-0.326556 -0.540642 0.223790
0.605573 -0.004980 0.063416
-0.329510 -0.498377 0.117057
-0.567585 0.066351 0.245414
0.069474 0.569343 0.084569
0.376077 -0.108028 0.245414
-0.230119 -0.603977 -0.034968
-0.224872 -0.597590 0.057089
0.198101 -0.394720 0.245414
0.045603 -0.185239 -0.429477
-0.684501 -0.065878 -0.178225
-0.066190 0.470819 0.132175
0.435341 -0.346830 0.245414
-0.230260 -0.600855 0.005518
0.231588 -0.011167 -0.227826
0.377963 0.191590 0.158048
0.417745 0.377210 0.245414
-0.352973 -0.248433 0.147604
0.559313 -0.154822 0.008001
-0.156103 -0.195210 -0.427718
0.133413 -0.195303 -0.109854
-0.634850 -0.121497 -0.260450
0.383595 -0.035808 -0.071866
0.166993 -0.118052 -0.439113
-0.475156 -0.137237 -0.140044
0.065430 -0.419705 0.081633
-0.684501 0.015361 0.179063
-0.338030 -0.302552 -0.056534
-0.479367 0.134825 -0.031217
0.534235 0.450978 0.148057
-0.684501 0.068226 -0.163097
-0.556563 0.011392 0.245414
0.415855 -0.309049 0.135650
0.374591 0.343263 0.245414
0.551600 0.098181 0.245414
-0.684501 -0.057650 -0.446596
0.094803 0.507525 0.245414
0.302644 0.597515 0.089537
-0.453485 0.082868 -0.240968
-0.329510 -0.471385 -0.302985
-0.654948 0.112338 0.211616
-0.072155 0.071490 -0.328795
-0.055207 -0.578765 0.040877
0.038566 -0.422607 0.109486
0.104898 0.034869 -0.194301
-0.104583 0.426810 0.073869
-0.579356 -0.078689 -0.448265
-0.036677 -0.546218 -0.275626
-0.082958 -0.589850 0.151753
0.169770 -0.027977 -0.408267
0.462783 0.152180 0.114224
-0.329510 -0.477046 0.077104
-0.474347 0.140494 0.037072
-0.684501 -0.036965 -0.395811
-0.007937 0.065959 -0.366231
0.197003 -0.027684 -0.295332
0.086239 -0.397279 -0.158951
-0.327800 -0.086709 -0.446851
0.519468 0.104758 0.090254
-0.192609 -0.355206 -0.399507
-0.329510 -0.377121 0.167608
-0.331053 -0.365722 -0.260286
0.096437 -0.005284 -0.301742
-0.019997 0.148399 0.245414
-0.338104 -0.290006 0.237675
0.372345 -0.354379 0.245414
0.392678 -0.293339 0.124044
-0.596723 0.117158 0.185553
0.154995 0.061087 0.245414
-0.014879 -0.453356 0.245414
0.000581 0.273758 0.245414
-0.576411 -0.130054 -0.315603
0.352061 -0.018574 -0.095688
-0.617291 -0.094715 0.030441
-0.329622 -0.358132 0.194664
0.605573 -0.092375 0.216992
0.447728 0.582286 0.245414
-0.329510 -0.469012 0.107724
-0.334656 0.073615 -0.313352
-0.329510 -0.385895 -0.112617
-0.166719 0.079971 -0.264544
-0.540061 0.081519 -0.252173
0.227827 0.126643 -0.030619
0.421530 0.493501 0.118751
0.005144 0.337647 0.245414
-0.226946 -0.551121 -0.364963
-0.568480 -0.020654 0.245414
-0.145824 -0.388474 0.245414
0.248107 0.685853 0.216121
-0.249399 0.200580 0.245414
0.409751 0.232666 0.245414
0.229220 -0.261799 0.015345
0.094502 -0.427295 -0.089792
-0.036660 -0.526831 -0.107943
0.405698 0.056436 0.048276
0.097659 -0.254675 -0.159491
-0.062377 -0.585393 0.014884
-0.579343 0.092747 0.245414
0.066327 0.146430 0.245414
-0.358506 -0.172549 -0.431714
-0.160538 -0.629900 -0.259110
-0.352033 -0.270270 -0.153208
0.229745 -0.049217 0.245414
-0.481024 -0.104849 0.245414
0.113916 -0.141093 0.245414
0.605573 0.070092 0.187064
0.326068 -0.385819 0.107694
-0.395067 0.170514 -0.001537
0.505883 -0.228926 0.145363
0.096130 -0.117942 -0.441344
-0.290261 -0.320098 0.245414
-0.421151 0.087367 -0.201608
-0.447097 0.089664 -0.179994
-0.044603 0.493759 0.223434
-0.329510 -0.426481 0.170605
0.225651 -0.190965 -0.206081
-0.611228 0.025545 0.245414
0.162827 -0.245997 -0.397393
-0.340504 0.207065 0.188770
-0.684501 -0.105935 -0.340753
-0.477251 0.138074 0.007442
-0.108363 -0.134909 -0.438351
-0.507924 -0.027091 -0.457364
-0.009976 -0.445460 -0.107582
0.442803 0.469543 0.128574
-0.474986 -0.125214 0.019806
0.567988 0.755151 0.160982
-0.140162 -0.600989 0.004012
0.413944 0.676327 0.245414
0.419471 0.277292 0.245414
0.067726 -0.024474 -0.410635
0.255095 -0.266380 0.038765
-0.329510 -0.453381 -0.202804
-0.259075 -0.600865 0.005398
-0.233096 -0.384319 0.245414
-0.311819 -0.588208 -0.104720
0.519588 0.331159 0.167565
-0.587811 -0.091439 0.112821
-0.330350 -0.357005 -0.120292
-0.051919 -0.614078 -0.326632
0.138909 -0.060833 -0.451413
0.471412 0.425713 0.142889
-0.087182 0.055952 -0.430147
0.240735 -0.394632 0.172159
-0.304904 0.226018 0.060100
0.047335 -0.395037 -0.287035
0.262317 0.520764 0.076005
-0.317547 0.081292 -0.253862
0.605573 -0.082879 0.057198
0.078890 -0.230178 -0.307629
0.605573 -0.009324 0.002974
0.536823 0.725430 0.112093
-0.406169 0.168166 0.050968
0.403242 0.168189 0.245414
-0.175123 -0.602570 -0.017566
-0.648500 -0.105922 -0.120810
-0.013446 0.040766 -0.469328
-0.322170 -0.036724 -0.455665
0.012090 -0.471245 -0.333142
-0.188079 -0.192310 -0.428230
0.285455 0.186289 0.245414
-0.390259 0.081198 -0.254938
0.471656 0.636897 0.105743
-0.329510 -0.472588 -0.259109
0.356698 0.680735 0.245414
0.344275 -0.177826 0.245414
-0.329510 -0.458971 -0.102557
-0.119463 -0.292501 -0.410563
0.100190 -0.219578 0.245414
0.303597 -0.043028 -0.131701
0.143416 0.241444 0.245414
-0.165054 -0.358304 -0.398961
-0.046922 -0.556121 0.197327
0.039701 0.565298 0.150980
0.039714 0.564733 0.120826
0.516101 -0.348952 0.245414
-0.277594 -0.419826 0.245414
0.604136 0.292741 0.179881
0.200581 0.664483 0.214079
0.100073 -0.035009 -0.455968
0.356067 0.139571 0.042717
-0.003317 0.175259 -0.005477
0.140390 -0.348793 0.245414
-0.333486 -0.318047 0.030136
-0.443942 0.092560 -0.151244
0.179665 -0.303255 0.245414
0.180240 -0.016072 -0.350901
0.167262 -0.086880 -0.440977
-0.329510 -0.455367 -0.015195
-0.661969 -0.110100 -0.163007
0.422550 0.204730 0.169972
0.371277 0.588939 0.088041
-0.184063 -0.334998 0.245414
-0.039034 -0.513468 0.245414
-0.660615 0.090375 -0.173194
0.095413 -0.215329 -0.223420
-0.146221 -0.593290 0.170760
0.117016 -0.188306 -0.428936
0.442606 0.178854 0.179842
-0.076559 0.409006 0.056299
-0.378646 -0.216883 -0.423895
-0.329510 -0.427246 0.137853
-0.176490 0.062442 -0.389782
0.511988 0.383427 0.157347
0.278294 0.138782 0.038244
-0.636183 -0.112086 -0.181817
0.442714 0.621711 0.101776
0.460871 -0.318334 0.245414
0.004784 0.536619 0.122265
0.534938 0.279987 0.245414
0.071237 0.588675 0.177708
-0.309662 -0.380463 0.245414
0.571035 -0.156714 0.108922
-0.039051 -0.589569 -0.327353
-0.270517 -0.628822 -0.262889
0.240365 -0.050337 -0.207099
0.551877 0.182141 0.197218
0.336084 0.598318 0.089678
-0.031235 0.124023 -0.059967
-0.384497 -0.075647 0.245414
-0.252965 -0.488848 0.245414
0.605573 0.400323 0.163971
0.580222 0.501764 0.245414
0.353994 0.112956 0.245414
-0.439194 0.096692 -0.124719
-0.115027 -0.602597 -0.018180
-0.146584 0.309108 0.245414
0.302726 0.396699 0.245414
0.159916 -0.231925 0.245414
-0.572938 -0.123018 -0.261399
0.479117 0.727960 0.112537
-0.656312 -0.140152 -0.387458
-0.391554 -0.104659 0.245414
0.605573 0.700655 0.190706
0.601193 -0.150064 0.245414
0.188103 0.066604 -0.081947
0.140677 -0.028736 -0.434710
-0.505508 0.130639 0.030535
-0.521620 0.132013 0.206330
0.491860 0.748484 0.126689
-0.376996 -0.100762 -0.444373
-0.342418 -0.294764 -0.410163
0.552476 -0.068010 0.245414
0.549906 0.070969 0.245414
-0.067016 -0.625508 -0.303315
-0.205678 -0.619397 -0.183047
-0.321618 -0.228004 0.245414
-0.393930 -0.193307 0.245414
-0.341394 0.067575 -0.355866
-0.353956 -0.257437 -0.060170
0.493910 0.697260 0.107125
-0.592134 -0.108570 -0.442996
0.471846 -0.347091 0.159203
-0.209695 -0.635783 -0.297054
0.434721 0.734556 0.113703
0.354283 -0.091063 0.245414
0.136670 0.407791 0.056084
-0.266939 -0.517929 0.245414
-0.393198 -0.189640 0.020778
-0.684501 0.029471 -0.411662
-0.052045 -0.017550 0.245414
0.379764 -0.320207 0.123066
0.262746 -0.392192 0.188390
0.166950 -0.145916 -0.436180
0.144855 0.183538 0.245414
0.082448 -0.197829 -0.427257
-0.633946 0.055513 -0.432787
-0.133219 -0.532572 0.245414
-0.121862 -0.165238 -0.433003
-0.306160 -0.565264 -0.362469
0.478128 0.147586 0.088219
0.578415 0.051188 0.018561
0.467912 -0.098976 -0.021847
0.140031 -0.284393 -0.082061
0.220484 -0.397486 0.140221
-0.519610 -0.130571 -0.243876
0.152293 -0.315890 0.245414
-0.684501 0.087858 -0.021643
0.584948 -0.083253 0.245414
-0.227646 -0.030185 0.245414
0.605573 -0.069149 0.006808
0.603617 0.292000 0.245414
0.091037 -0.305958 0.245414
-0.184007 -0.306856 -0.408032
-0.653607 0.065527 -0.369590
-0.675041 -0.090005 0.146649
0.253797 0.135674 0.020613
0.570231 -0.161841 0.141726
-0.030219 0.265808 0.030441
-0.684501 -0.042414 -0.162200
0.502390 0.510694 0.133481
-0.260789 -0.549256 -0.365292
-0.329510 -0.395480 -0.249947
0.226808 -0.163627 -0.208984
0.001353 0.419916 0.245414
-0.491362 0.138168 0.108865
-0.523761 -0.100450 0.142939
-0.337136 -0.344804 -0.367658
0.084287 -0.151569 0.245414
0.161241 -0.235284 -0.336611
-0.309651 -0.573522 0.192606
0.127549 -0.307413 -0.097114
0.145614 0.274859 0.032645
-0.592185 0.116583 0.122568
-0.345691 -0.273440 -0.000886
0.105047 -0.062213 -0.451171
-0.220584 -0.631406 -0.268996
0.602914 -0.324243 0.171608
0.322032 -0.164456 0.065077
-0.114683 0.330152 0.042394
-0.461748 -0.128446 0.104949
-0.089671 -0.611385 -0.137166
0.103572 0.190139 0.004446
-0.104805 0.092936 -0.150577
0.448793 0.077353 0.245414
0.102158 -0.393256 -0.126489
0.059336 -0.248777 -0.261159
-0.593360 0.111389 0.012248
-0.020582 0.061837 -0.393646
0.007854 0.151875 0.245414
-0.213718 0.196645 0.245414
0.480981 -0.174937 0.005632
-0.660982 -0.147711 -0.432417
-0.334260 0.054435 -0.439341
-0.587888 -0.090389 0.151036
0.515406 0.218303 0.186841
-0.044644 -0.386025 0.245414
0.514764 -0.022789 -0.022533
0.027354 -0.374309 0.245414
-0.428591 -0.027091 -0.457364
-0.348951 -0.256907 0.185413
-0.591092 0.102409 -0.104511
0.191140 -0.007361 -0.313540
-0.354977 -0.258595 -0.094975
-0.341136 -0.299379 -0.134445
0.210615 0.604818 0.090826
0.605573 -0.307556 0.241710
-0.408083 -0.213302 -0.347575
-0.462798 0.149520 0.221386
0.274173 0.399677 0.245414
0.493228 0.160695 0.162518
0.126889 -0.301724 0.245414
-0.093469 -0.599329 0.001999
-0.432175 0.032830 0.245414
-0.337401 0.077776 -0.282005
-0.143664 0.010070 -0.463915
0.597501 -0.046592 -0.008717
0.334463 0.716728 0.229996
-0.011992 -0.435462 0.019827
0.074291 0.563524 0.245414
-0.273333 -0.585514 -0.358899
0.288542 -0.075192 -0.141244
0.083935 0.096206 -0.129357
-0.243108 -0.283185 0.245414
-0.286255 0.243336 0.209286
-0.434893 0.156710 0.074755
0.541473 0.056328 0.047664
-0.220334 0.048777 -0.470741
-0.684501 0.004217 -0.015878
-0.509221 -0.137730 -0.269385
0.531500 0.247663 0.183477
0.605573 -0.038522 0.079084
0.045613 -0.358500 -0.304199
0.398531 0.701791 0.245414
0.542375 0.051569 0.020670
0.108546 0.612104 0.118847
-0.442743 -0.000773 -0.462004
-0.329510 -0.559245 -0.244447
0.396777 0.259764 0.245414
0.256961 0.585276 0.087379
-0.027443 0.198352 0.008859
0.605573 0.381676 0.190897
0.033005 -0.047902 0.245414
