0.293604 0.124756 -0.334594
-0.263004 0.614379 -0.316416
0.488085 0.375247 -0.311168
-0.109849 -0.265149 0.416349
0.580063 -0.530255 -0.051131
0.091804 0.776307 -0.026798
0.198549 0.777787 -0.248263
0.468966 -0.206455 0.028364
-0.040929 0.841512 -0.100333
0.334609 0.084886 -0.362805
0.080652 0.734911 0.033622
-0.289785 -0.008864 0.417080
-0.467404 -0.134721 0.221503
-0.584134 0.175685 -0.276973
-0.391686 -0.083763 0.430901
0.810729 -0.095055 -0.152790
0.461142 0.061265 -0.134513
-0.033408 0.387953 0.277212
0.329282 -0.444482 0.142538
0.528421 -0.580520 -0.188991
-0.755370 -0.306411 -0.361111
0.350983 0.520723 -0.067789
0.309885 -0.302533 0.235401
0.201486 0.011864 0.551220
0.400112 -0.068518 0.309547
-0.114583 0.151846 0.553735
-0.130725 0.797384 -0.291008
-0.005703 -0.296156 -0.351462
-0.179489 -0.460849 -0.088854
0.368338 -0.045488 -0.270478
-0.259778 -0.239296 -0.353456
-0.344396 -0.455670 -0.383563
0.447526 -0.101108 0.256157
0.311691 0.206557 -0.200526
-0.214958 0.101612 0.528145
-0.080929 0.216837 0.419071
0.351509 -0.126803 -0.317271
0.370846 -0.591137 -0.144190
0.076958 0.619310 -0.389796
-0.065424 0.749924 -0.356485
-0.345689 -0.041139 0.378397
0.238413 0.458815 -0.053844
-0.628761 -0.531128 -0.069733
0.259587 -0.418757 -0.052811
-0.472397 -0.231525 0.061956
-0.599384 0.036755 -0.357659
-0.273162 -0.229803 -0.245680
-0.275351 0.339385 -0.126174
-0.228134 0.176564 0.479818
-0.324960 -0.257937 0.401364
0.475623 -0.538700 -0.029823
-0.023452 -0.414706 -0.143476
-0.800026 -0.127244 -0.247078
-0.147904 0.474588 -0.029557
0.699759 0.041353 -0.322422
0.429354 -0.448669 0.148234
0.275058 0.068550 0.411798
-0.178944 0.325857 -0.386352
0.615441 0.215813 -0.143741
-0.619531 -0.568367 -0.202001
-0.389523 -0.575118 -0.293015
0.276966 -0.146121 0.349913
-0.538097 0.185641 -0.326889
0.810520 -0.466867 -0.145454
0.272238 -0.373406 0.262294
0.086670 0.330423 -0.274969
-0.253140 -0.218966 0.464659
0.017338 0.733247 0.053252
-0.866496 -0.247576 -0.184027
0.392032 -0.138931 -0.202633
-0.444124 -0.523546 0.016763
0.556718 0.225053 -0.343235
-0.810977 -0.375854 -0.046118
-0.364813 -0.135458 -0.358688
-0.617977 -0.141874 0.217102
0.118820 -0.125876 0.563958
-0.642355 -0.412331 0.079716
0.425046 0.049109 -0.171926
-0.348054 -0.382211 0.188991
0.709783 0.092197 -0.192864
-0.771701 -0.226386 0.035956
0.407313 0.129194 -0.393210
0.168089 -0.298761 0.372019
-0.727920 -0.144835 0.067833
0.310158 -0.463611 0.047932
-0.307437 0.042841 -0.339252
-0.392995 0.444415 -0.291701
0.134633 0.352899 0.397825
0.397779 0.217369 -0.127570
-0.196656 0.342130 0.370832
0.214642 0.725603 -0.313280
-0.736011 -0.061014 -0.052788
-0.540082 0.151092 -0.065322
-0.379717 -0.066149 -0.371123
-0.008762 0.874215 -0.269146
-0.457811 -0.164192 0.205141
0.194669 0.224590 0.455337
-0.606697 -0.489749 0.014854
-0.088726 -0.428047 -0.129828
-0.425850 0.359544 -0.320836
0.004151 -0.025161 0.611255
-0.569798 -0.531834 -0.036916
0.584607 -0.119355 0.231989
-0.178558 -0.219668 0.492457
0.687997 -0.531861 -0.284576
0.200013 0.531431 0.037026
-0.236476 0.712221 -0.201808
0.497462 -0.147193 0.321448
0.303992 -0.129088 0.338461
-0.066476 0.408468 0.377807
-0.354940 -0.011207 -0.367783
0.071699 0.420794 0.242741
0.174442 -0.573073 -0.082075
0.326915 -0.381451 -0.012910
0.429048 -0.130154 0.383226
0.675748 0.098513 -0.111962
-0.379771 -0.238110 -0.119917
-0.045675 -0.509961 -0.082123
-0.198657 0.689057 -0.324106
0.339980 -0.194190 -0.239878
0.326565 -0.171156 0.446637
-0.121302 0.136189 0.452977
-0.349921 0.380110 -0.061812
0.304349 -0.079217 0.487399
0.829866 -0.363701 -0.074197
0.275919 0.687735 -0.158975
-0.164800 -0.286657 -0.250052
0.760918 -0.297077 0.033196
-0.463622 -0.182807 -0.050173
0.497717 -0.570997 -0.116725
0.396762 0.267403 -0.390529
0.269490 -0.601406 -0.165933
-0.153990 0.797784 -0.151553
-0.224388 -0.245767 0.456064
-0.093515 0.113322 0.458383
-0.190593 0.176435 0.505747
-0.011265 -0.516868 -0.080666
0.742485 -0.452471 -0.048851
-0.191570 0.413077 -0.393977
-0.460249 -0.213399 0.341154
-0.424441 -0.111520 0.400622
0.105436 0.523868 -0.394315
0.165801 0.806116 -0.251423
-0.848956 -0.274063 -0.087106
0.311951 -0.416939 0.153189
0.521817 0.358238 -0.271701
0.088880 0.133468 0.566318
0.234238 0.707211 -0.099816
0.317196 0.392246 -0.389215
-0.072279 -0.192952 0.535466
0.439854 -0.142234 0.225607
-0.713099 -0.052546 -0.025339
0.458587 -0.259786 0.309358
-0.394713 -0.112703 0.306269
0.501957 -0.390313 0.182595
0.473856 0.291532 -0.080312
0.184915 0.048039 0.554823
-0.090129 0.187844 0.433612
0.071834 0.810909 -0.328091
0.623854 -0.530125 -0.076535
-0.032281 0.402927 0.388334
-0.355998 -0.089395 -0.356554
0.809792 -0.294684 -0.345021
0.653023 -0.095352 -0.383034
-0.129791 0.810828 -0.129984
-0.148686 -0.354552 -0.182253
-0.545050 0.268413 -0.202483
-0.022436 -0.233001 0.439596
-0.387375 -0.301339 0.333485
-0.354042 -0.167300 -0.355059
-0.226180 -0.392130 -0.393327
-0.604541 -0.568586 -0.171859
-0.258334 -0.097632 0.401017
0.329561 -0.386676 -0.395004
-0.593249 -0.020153 -0.006500
-0.077990 -0.164658 0.553170
-0.369084 -0.159172 -0.189560
-0.387183 0.218620 -0.125670
0.239349 -0.243598 0.446484
-0.841195 -0.331381 -0.312571
0.127682 0.748742 -0.015246
-0.565903 -0.569461 -0.261351
0.233060 -0.075097 0.532338
0.328763 -0.454329 0.110495
0.276776 0.195966 -0.245767
-0.738536 -0.084230 -0.027079
-0.033196 -0.160132 0.560694
-0.778764 -0.272496 0.028091
-0.444893 -0.139522 0.378601
-0.799013 -0.491817 -0.168084
-0.472953 -0.506726 0.045070
0.047734 -0.249024 0.487379
0.037923 -0.496246 -0.372912
0.152463 0.440757 0.307778
0.343294 0.228293 -0.160231
-0.305037 0.040478 0.486245
0.041578 0.869938 -0.268459
-0.166770 0.440009 0.233700
-0.150714 0.412608 0.264147
-0.503249 -0.112525 -0.047557
0.012888 -0.404589 -0.151824
-0.032763 0.042411 0.468457
-0.150213 0.454536 -0.064834
-0.305505 -0.260548 0.294215
0.347911 -0.373973 0.080545
0.328565 -0.499008 0.021230
-0.850096 -0.325504 -0.085041
0.040597 0.358146 -0.353955
0.312936 0.350027 -0.105823
0.622351 0.120796 -0.345541
0.606959 -0.048155 0.005480
-0.885796 -0.373792 -0.209624
0.527803 -0.234030 0.269168
-0.111553 -0.248610 0.482800
-0.040004 0.485101 0.123333
0.038259 0.224172 0.406484
0.375414 -0.333034 0.065282
-0.813521 -0.422424 -0.083418
0.298735 0.047824 0.400949
0.727888 -0.144955 -0.366743
-0.719591 -0.528880 -0.272546
-0.259996 -0.210360 -0.331066
0.247730 0.720513 -0.269424
-0.308309 0.068358 -0.279628
-0.330802 0.406198 -0.366754
0.090267 -0.532740 -0.067396
0.329466 -0.097615 0.336126
-0.010097 -0.091513 0.463378
0.389254 -0.133545 0.414716
-0.114457 -0.177645 0.538550
0.137719 0.256640 0.380280
-0.417616 -0.532965 -0.001535
-0.037609 -0.548547 -0.078702
0.136502 -0.291849 -0.361717
0.169807 -0.249778 0.382393
-0.385919 0.471056 -0.272829
0.696893 0.012577 -0.340101
0.544283 0.330625 -0.262962
-0.231343 -0.480400 -0.061437
-0.371471 0.066033 -0.201331
-0.056348 0.383875 0.402065
-0.247229 -0.061518 0.533536
0.042325 0.251495 0.509507
-0.828716 -0.176644 -0.122093
-0.771177 -0.312162 0.028075
-0.145689 -0.281140 -0.357690
-0.177033 0.724422 -0.317243
-0.343092 -0.047555 0.469591
0.491785 -0.503418 0.036987
0.128248 -0.319822 -0.380273
0.007616 0.366637 -0.359523
0.321023 0.073700 -0.316575
0.306004 0.641127 -0.133362
-0.081687 -0.248957 0.427436
0.775662 -0.085184 -0.317810
0.038540 0.841305 -0.312034
-0.722927 -0.537893 -0.232669
0.000287 0.457191 0.186213
-0.309947 0.176294 -0.213456
-0.148117 0.492072 -0.393178
0.505175 0.183756 -0.379809
0.164872 0.344320 0.329349
0.000541 0.882061 -0.237600
-0.268473 0.145412 -0.356723
0.661310 0.097944 -0.325650
-0.466948 -0.181997 0.174319
0.348313 0.550426 -0.087358
0.117492 0.145342 0.551088
-0.167292 0.446442 -0.393976
-0.390884 -0.267604 -0.081698
0.270904 -0.535233 -0.032978
0.081386 0.494647 0.289201
-0.242194 -0.176230 0.377998
0.413346 0.524248 -0.218460
-0.201080 0.457447 -0.391261
-0.656093 0.097484 -0.122575
0.310319 -0.201218 -0.299493
0.802325 -0.428509 -0.324550
-0.118573 0.049397 0.588530
-0.489359 -0.097652 0.236031
0.002663 0.824749 -0.328265
0.330352 0.422077 -0.062557
-0.382135 -0.338569 -0.024884
0.002879 -0.086884 0.597440
0.283101 -0.602425 -0.209128
0.627776 0.056376 -0.049715
-0.191143 0.487747 0.172599
-0.803119 -0.478674 -0.286665
-0.671943 0.080168 -0.222760
0.311688 -0.205284 0.437693
-0.064238 0.758718 0.014075
-0.637485 -0.383412 -0.380193
-0.429063 -0.097415 0.289909
0.491600 -0.585722 -0.191187
0.376859 -0.173879 -0.198397
-0.120566 0.171263 0.441449
-0.218798 0.252610 -0.251893
0.169010 0.519029 0.031797
0.548371 0.037243 -0.069227
-0.601703 -0.242353 0.214260
0.587515 -0.396660 0.122525
-0.771974 -0.503255 -0.147852
0.559191 -0.103276 0.124376
-0.521684 -0.074994 0.310967
-0.391029 -0.139537 0.421144
0.520480 -0.447536 -0.378099
0.031063 0.433040 -0.126065
0.427781 0.096802 -0.154124
-0.041796 0.864032 -0.273930
-0.615839 -0.413115 -0.377696
-0.431555 -0.411419 0.203354
0.002534 0.212563 0.416079
-0.587388 -0.217553 0.235341
0.172062 0.526907 0.070434
0.086588 -0.253477 0.478000
0.737890 -0.407863 -0.356391
0.510967 -0.484393 0.061753
-0.413947 0.322118 -0.351140
0.846979 -0.183200 -0.140279
0.360367 -0.136227 0.436442
-0.661764 0.020227 -0.320037
0.049621 0.872244 -0.187993
0.173430 -0.284295 -0.275940
-0.222527 0.068506 0.534807
0.008665 -0.373167 -0.183164
-0.077392 -0.605842 -0.231139
-0.867333 -0.271461 -0.143200
0.189495 0.532514 0.098210
-0.485131 0.114041 -0.381757
0.041326 0.410615 -0.159937
0.594693 0.260163 -0.169770
0.125112 -0.335690 -0.212044
-0.172882 0.060786 0.459818
-0.570985 -0.093227 0.130839
-0.271986 0.114869 0.481282
-0.410832 -0.594272 -0.159160
0.196967 0.294074 0.384611
0.641118 0.141814 -0.317025
0.528304 0.356210 -0.170270
0.793987 -0.458219 -0.311576
-0.308066 0.603034 -0.246751
0.551912 -0.214805 0.256514
0.343360 -0.195821 0.424290
-0.527876 -0.451787 0.108112
-0.288233 0.422406 -0.050388
-0.675789 -0.373831 0.085318
-0.375128 0.435132 -0.322589
-0.480569 -0.133453 -0.063639
0.345754 -0.349539 0.305808
-0.155388 -0.530154 -0.352901
-0.732576 -0.125996 0.040312
0.179436 0.643907 0.065880
0.291601 -0.029375 0.381879
0.160097 0.459455 -0.393896
-0.093113 -0.595210 -0.267481
-0.019426 -0.528040 -0.354808
0.705977 -0.399220 -0.367037
-0.500204 0.253872 -0.316849
-0.462961 -0.168350 0.356040
-0.337149 0.508490 -0.311841
0.311748 0.645523 -0.270122
-0.131934 -0.190286 0.426224
-0.152408 0.807107 -0.211614
0.860265 -0.186545 -0.222295
0.564549 -0.103703 0.063350
0.214507 0.634659 0.026831
0.300664 -0.099429 0.353248
-0.332642 -0.308648 0.244276
-0.526265 -0.105437 -0.021157
0.143297 0.806252 -0.131092
-0.529739 -0.574404 -0.261925
0.172634 0.243910 0.386815
0.658667 -0.286146 0.137694
0.388881 -0.156093 0.259964
0.080013 0.354897 -0.234034
0.186051 0.554074 0.152571
0.196766 0.561834 0.121922
0.595319 -0.153842 0.226730
0.083714 -0.498900 -0.073805
-0.766535 -0.060204 -0.142984
0.552365 0.220256 -0.084538
0.323669 0.640608 -0.233509
0.238759 0.432535 -0.074846
0.509961 -0.104949 0.197244
0.761460 -0.001956 -0.261925
-0.028876 -0.097140 0.592739
-0.231293 0.296607 -0.197475
-0.853862 -0.251150 -0.110950
-0.260410 -0.030069 0.527747
-0.314813 -0.225554 0.304637
-0.466300 -0.089174 0.265863
-0.309306 0.461901 -0.028626
0.164332 -0.329257 -0.206412
-0.047630 -0.058572 0.467618
-0.113014 -0.285046 -0.277376
0.193142 0.684409 -0.353572
-0.782757 -0.415759 -0.042026
-0.016971 0.389080 -0.372192
-0.450742 0.334321 -0.311201
-0.139722 -0.307681 -0.234653
0.237110 0.272956 -0.213169
0.260723 0.249741 -0.380691
-0.770562 -0.097142 -0.274982
0.773864 -0.255100 0.022706
0.571402 0.283621 -0.149354
-0.279842 0.215829 -0.218563
0.587835 0.211318 -0.102075
-0.879678 -0.404167 -0.224024
0.328630 -0.503370 -0.365721
0.047191 0.301702 0.354470
-0.072541 0.049879 0.600822
-0.264113 -0.394501 -0.393080
0.219285 0.306774 -0.196448
0.583670 0.181082 -0.083584
0.367498 0.022844 0.387150
-0.524262 0.295819 -0.211992
0.361841 -0.365829 0.281686
-0.639299 -0.333163 -0.385220
-0.180452 -0.484701 -0.376941
-0.341621 -0.114455 -0.253462
0.218504 -0.332016 -0.389305
0.085520 0.691828 0.082204
0.796505 -0.295761 -0.009418
0.577669 0.075469 -0.378828
0.233054 0.214520 -0.283150
0.229565 -0.600792 -0.150865
0.868359 -0.425619 -0.201426
0.040218 0.214358 0.534198
0.437508 0.311738 -0.080272
0.082738 0.017314 0.600524
-0.096120 0.490364 0.105344
-0.537050 -0.255318 0.261645
0.358188 -0.127505 -0.277777
-0.614412 -0.411269 0.100037
-0.454085 -0.534740 -0.337873
0.159278 0.806002 -0.162274
-0.349194 0.010640 -0.242206
0.208506 -0.354576 -0.154001
0.341548 0.043323 0.420139
0.683727 -0.106231 -0.376112
-0.438558 -0.506982 0.047663
0.232670 -0.004866 0.534958
-0.341106 -0.340596 -0.391443
-0.194109 0.560036 0.142692
0.016252 0.859613 -0.295088
0.174584 0.340671 -0.193340
0.526160 -0.492076 -0.359514
0.417964 -0.092446 0.282931
-0.749400 -0.523099 -0.255529
0.274120 0.021776 0.502794
0.658598 0.157530 -0.269756
0.157636 0.627590 0.109251
0.299097 -0.334382 0.339955
0.194244 0.750150 -0.102032
-0.128671 0.553285 0.217807
0.301739 0.171613 -0.238454
-0.381190 -0.342922 0.300474
-0.605665 -0.094928 0.215312
0.665632 0.057498 -0.343466
-0.459011 -0.325706 -0.393047
-0.564770 -0.245640 0.243937
-0.699951 -0.457355 -0.008053
0.098907 -0.424386 -0.120715
0.102096 0.371872 -0.197406
0.306507 0.490569 -0.035723
-0.064119 -0.400439 -0.393749
0.156537 -0.052179 0.573418
-0.243058 -0.330513 -0.164154
0.385057 0.369113 -0.074509
0.394232 -0.354962 0.276492
-0.144023 0.573419 0.187049
-0.429053 -0.517121 -0.353172
0.158670 -0.109548 0.557524
-0.756533 -0.250885 0.057183
-0.270604 -0.299323 0.390527
0.514795 -0.151067 0.094337
-0.730930 -0.038091 -0.279921
0.441265 -0.138920 -0.127664
0.344887 -0.363711 0.115763
-0.420289 -0.056499 0.406718
-0.336908 -0.225293 -0.180631
0.003910 -0.351331 -0.208618
0.501351 -0.363779 0.206379
0.618361 0.225738 -0.253202
-0.670181 0.055194 -0.085094
0.239426 0.693869 -0.318512
0.547636 -0.099480 0.159395
-0.826935 -0.361695 -0.323958
0.117747 -0.205143 0.515954
-0.485670 0.315837 -0.095660
-0.035911 0.803533 -0.335457
-0.306883 0.329594 -0.112323
0.506668 -0.413839 0.156183
-0.136049 0.171699 0.534894
0.091758 0.454802 0.202773
-0.377236 -0.205873 0.404435
0.266125 -0.012572 0.514261
-0.523891 -0.230300 0.283657
-0.057228 0.716957 -0.368587
0.761070 0.000738 -0.166112
-0.231629 -0.221023 -0.307311
0.282895 -0.180055 0.331233
0.633218 -0.306448 0.149980
-0.374613 -0.173935 0.421137
0.046505 -0.374810 -0.179448
0.215963 0.602448 -0.373471
-0.312679 -0.170645 0.334917
-0.075826 0.838351 -0.117238
-0.389885 0.493912 -0.200744
0.067061 0.804925 -0.054445
-0.157167 0.026139 0.462139
0.727345 -0.477253 -0.066378
0.229171 -0.109476 0.392147
0.234497 0.278881 -0.380563
0.707018 -0.174986 0.097351
-0.861805 -0.323614 -0.286984
-0.835725 -0.286984 -0.058872
-0.375216 -0.085387 0.337533
0.199959 0.692715 -0.021297
0.274084 -0.336236 -0.129878
-0.683733 0.054740 -0.116785
-0.304304 -0.095200 0.377032
0.235757 0.056487 0.421251
0.449549 -0.107504 -0.136286
-0.155686 0.018721 0.579492
-0.377488 0.468301 -0.086340
-0.110733 -0.138202 0.445942
-0.555367 -0.343442 -0.391092
0.733072 -0.078968 -0.025155
-0.180285 -0.493444 -0.072468
0.281109 0.461932 -0.386338
-0.115105 0.655879 0.112995
0.176382 0.529989 0.193129
0.682854 -0.471686 -0.344595
-0.115180 -0.603253 -0.241710
0.848801 -0.444948 -0.182405
0.737841 -0.052941 -0.057491
0.086177 0.421912 -0.133993
0.304385 -0.363948 -0.395241
-0.465551 -0.588053 -0.151645
-0.505084 -0.142582 -0.020991
0.612871 -0.565527 -0.225784
-0.701491 -0.446866 -0.352948
0.544820 0.296913 -0.119914
-0.137628 -0.155873 0.433367
-0.501033 0.333528 -0.188074
0.068936 -0.089828 0.455302
-0.817956 -0.283211 -0.027275
0.086237 0.861801 -0.235504
-0.203911 0.589437 0.090799
0.261885 0.289205 -0.179206
-0.761923 -0.103090 -0.047449
0.317150 0.647951 -0.200627
0.661060 -0.532738 -0.111186
-0.001497 0.280499 0.493048
0.468516 -0.057646 0.341642
-0.281833 -0.006674 0.512188
-0.107352 0.239429 0.408081
0.105521 0.245208 0.388764
-0.297024 -0.202999 -0.344053
-0.212039 -0.187916 0.390138
0.313371 0.250470 -0.391498
-0.650859 -0.419175 -0.371635
-0.149902 -0.215817 0.410973
-0.111281 0.081478 0.582826
-0.444060 0.035363 -0.393449
-0.362294 -0.599430 -0.168704
0.768394 -0.370661 -0.356294
0.547804 -0.129828 -0.395689
-0.156998 0.491797 0.263922
0.027821 -0.600848 -0.250836
0.631081 0.210987 -0.182998
-0.144392 -0.477377 -0.088970
-0.462093 -0.220625 -0.012625
0.042333 -0.296277 -0.353105
-0.532686 0.288371 -0.178169
0.045439 0.599442 0.192372
-0.222949 -0.294005 0.411260
-0.261414 0.644940 -0.089486
0.228910 -0.373030 -0.121040
-0.501659 -0.576701 -0.120308
-0.341957 -0.187330 -0.205983
0.308651 -0.061320 0.363150
0.882781 -0.273355 -0.182791
0.245469 0.313295 -0.388859
0.309267 -0.198640 0.300624
-0.111188 -0.273452 -0.333052
0.118748 0.431261 0.336166
-0.200349 0.647135 -0.347165
-0.083526 -0.609881 -0.196869
0.466554 -0.570846 -0.104711
0.515210 -0.548438 -0.314931
0.216815 0.111305 0.511568
-0.668310 -0.359620 -0.378999
-0.465067 -0.213864 -0.387639
-0.383799 0.008799 -0.201606
-0.156441 0.376864 -0.165264
0.080062 0.170179 0.428847
-0.738625 -0.335666 -0.365492
-0.033991 0.773009 0.003987
-0.266063 0.658020 -0.128507
0.661558 -0.224880 0.152691
-0.165401 0.793303 -0.183570
0.634457 0.154540 -0.107969
-0.691923 0.043780 -0.242296
-0.063385 0.346073 -0.255231
-0.123442 -0.337338 -0.206648
0.348545 -0.327736 0.156790
0.675483 -0.384211 -0.375313
-0.501828 -0.478597 0.083441
0.265846 0.174273 -0.288569
-0.540460 0.216437 -0.300145
0.342800 -0.284877 0.364361
0.288544 0.226950 -0.383605
0.340455 0.049771 -0.351847
-0.623391 -0.563628 -0.240997
-0.280613 -0.257777 0.316407
0.136705 -0.582292 -0.096463
0.193206 0.408510 -0.112329
0.125978 0.090303 0.445186
0.173316 0.660935 -0.368285
0.545314 -0.347403 0.190261
0.758954 -0.205259 0.037065
-0.203225 0.314077 -0.203411
-0.504187 0.019111 -0.390368
0.037928 0.365146 -0.233754
-0.270213 0.271461 -0.185016
-0.774207 -0.343338 0.013866
0.079549 0.447191 0.335519
0.150713 0.687799 -0.366117
0.351795 -0.488135 0.059247
0.436245 -0.426903 -0.387721
0.768211 -0.227057 -0.360655
-0.154182 0.401919 -0.392512
0.603212 -0.530256 -0.318378
-0.507435 -0.497218 0.051885
0.428912 0.421407 -0.338741
0.790117 -0.075269 -0.124016
-0.021703 0.841167 -0.311798
0.510541 -0.110663 0.310810
0.158007 0.414144 0.328380
-0.814739 -0.136086 -0.200833
0.855613 -0.337732 -0.104672
0.850968 -0.294266 -0.092197
-0.467213 -0.116897 0.363429
-0.459796 0.009501 -0.125154
-0.102489 0.762261 -0.010840
0.466805 0.450715 -0.209513
-0.220183 -0.257746 -0.355685
-0.201513 -0.411192 -0.115398
-0.499304 -0.269905 0.282315
-0.348438 -0.052276 -0.356236
-0.396599 0.283962 -0.373286
0.140668 0.167336 0.528751
-0.198187 0.647968 0.032345
-0.430390 -0.219703 0.187882
0.565504 -0.027614 -0.392374
-0.143114 0.334744 0.342856
-0.196940 0.340746 -0.180999
0.354213 0.560210 -0.313382
-0.195108 0.620654 0.071552
-0.645967 -0.119718 -0.377333
-0.561836 -0.208851 0.260460
-0.543424 -0.058872 0.263077
0.098146 0.473732 0.174762
0.549806 -0.568358 -0.136172
0.208973 -0.467712 -0.046291
0.314486 0.536195 -0.357693
-0.266225 0.178278 -0.373433
0.129105 -0.162597 0.425222
-0.310080 -0.183198 -0.254564
-0.055855 0.787195 -0.020574
0.722193 0.074540 -0.219621
-0.224855 -0.086541 0.420398
-0.212600 0.741682 -0.199578
0.591826 -0.421126 0.097105
0.604039 -0.560928 -0.260072
-0.349844 -0.156077 -0.218650
0.799449 -0.144926 -0.067227
0.256104 0.484821 -0.387460
-0.360804 0.532261 -0.225580
-0.471681 -0.248871 -0.389394
0.438608 0.456053 -0.301951
-0.144590 -0.123565 0.439648
0.873418 -0.222566 -0.213411
-0.501356 -0.349656 0.225891
-0.287862 0.568076 -0.047632
0.354940 0.066670 -0.247348
0.169150 0.755453 -0.071127
-0.485519 -0.068817 -0.392580
0.458233 -0.544851 -0.326910
0.344388 0.371044 -0.081499
0.709715 -0.331233 0.072316
0.117069 0.727553 -0.359690
-0.699412 -0.477598 -0.338723
0.228862 -0.038223 0.538790
0.787934 -0.203298 -0.347714
-0.275196 0.616376 -0.078744
-0.134633 0.490244 0.108809
0.040385 0.136083 0.576432
0.452997 0.461882 -0.170235
-0.689509 0.057999 -0.151168
-0.384563 -0.376298 0.264190
-0.539405 -0.354365 0.197237
-0.519162 -0.166675 0.063120
0.078265 -0.291576 -0.346217
0.533672 -0.263334 0.250837
0.272366 0.311753 -0.155079
-0.349551 0.534076 -0.261807
0.391502 0.531882 -0.140374
-0.220948 0.663461 -0.322535
-0.606813 -0.293522 -0.390194
-0.769054 -0.503437 -0.280961
0.580002 -0.482050 0.030710
0.779249 -0.020923 -0.222212
0.008602 -0.544866 -0.076880
-0.219563 0.393998 -0.111245
-0.585627 0.068629 -0.352884
0.774654 -0.027904 -0.155122
0.858916 -0.255298 -0.116576
-0.652887 -0.456940 -0.358429
0.228011 -0.216416 0.471088
0.321105 0.572895 -0.336029
-0.335408 -0.119496 -0.341571
0.839568 -0.322256 -0.074949
-0.231201 0.516236 0.045940
0.157415 0.011267 0.574216
0.734295 -0.102662 -0.001260
-0.313190 -0.298450 -0.141354
-0.423092 -0.088303 -0.152856
-0.436332 -0.587162 -0.131889
0.094186 -0.149837 0.556782
-0.047670 0.375440 -0.371737
-0.627913 -0.231087 0.195208
-0.292822 0.406010 -0.380895
0.364663 0.417811 -0.062998
0.514641 -0.132818 -0.015101
0.366069 -0.488143 -0.371620
0.076810 -0.053559 0.457389
-0.420812 -0.284050 0.130418
-0.769442 -0.140373 -0.313432
-0.825484 -0.330530 -0.046161
0.015833 0.396431 -0.372206
0.402817 -0.002616 0.378368
0.741601 -0.349365 -0.366728
0.428770 -0.300431 -0.394762
-0.424760 -0.300461 0.025517
0.344631 -0.064108 0.341954
0.701541 0.062955 -0.114773
-0.147804 -0.571568 -0.083252
0.539940 -0.214481 -0.396101
0.511179 -0.518675 -0.344703
-0.509220 0.082995 -0.380925
0.237351 -0.540192 -0.343991
-0.061378 0.738075 0.040902
-0.495695 -0.567120 -0.087924
0.226457 0.684222 -0.051291
-0.239006 0.701458 -0.241946
0.726636 0.003932 -0.317962
-0.016473 0.686254 -0.380294
0.546640 -0.094195 0.266682
-0.137141 0.373150 -0.387467
0.252773 -0.271692 0.417594
0.067383 -0.569986 -0.314138
-0.056916 -0.533177 -0.351219
0.058984 0.860095 -0.155254
-0.446714 -0.243962 0.335462
-0.160488 0.184318 0.437001
-0.834061 -0.421870 -0.110815
-0.208808 0.363592 -0.148771
0.416647 0.452196 -0.330947
0.033753 0.458626 0.187361
-0.118951 0.772601 -0.324349
0.207878 0.157884 0.418768
-0.579153 -0.073850 0.017834
0.757533 -0.056845 -0.321169
-0.501182 -0.002504 -0.086016
0.223158 0.033856 0.534678
0.397814 0.421246 -0.358497
-0.333016 0.028442 -0.363598
-0.627146 0.144026 -0.133356
0.335124 -0.125253 0.456941
-0.252294 -0.568695 -0.070990
-0.544661 -0.307947 0.226166
0.463982 0.437406 -0.150148
0.307639 0.284426 -0.393298
-0.773211 -0.080594 -0.115346
-0.350276 -0.600873 -0.203274
0.778974 -0.032567 -0.262524
0.309572 -0.330620 0.215679
-0.027891 -0.577276 -0.093024
-0.164294 0.484356 0.140141
-0.572875 -0.294869 -0.392127
0.231453 0.133624 0.485922
0.409286 -0.109677 0.402613
-0.358750 0.505614 -0.282546
0.661413 -0.336370 0.110932
-0.343175 0.218055 -0.159020
-0.343461 0.520480 -0.086267
-0.108491 0.408886 0.258377
0.276484 0.148711 -0.314002
0.697392 -0.158096 -0.378197
-0.244428 -0.228111 -0.275739
0.122361 -0.607170 -0.166763
-0.256183 0.685829 -0.194988
-0.112090 0.835563 -0.168165
-0.616284 0.093097 -0.314111
0.115960 0.499538 0.128667
0.575361 -0.544925 -0.081702
0.555175 -0.127773 0.267358
-0.118476 -0.302894 -0.369855
0.336998 -0.390556 0.260307
0.202396 -0.375325 -0.394447
-0.105763 0.845331 -0.218800
0.847437 -0.153371 -0.207812
0.453466 -0.152227 -0.098448
0.126984 0.648189 0.110043
-0.801280 -0.146852 -0.274054
-0.458100 0.343171 -0.088011
0.476933 -0.520477 -0.346554
0.546117 -0.381561 0.163046
-0.689614 -0.063931 0.017654
0.648714 -0.557830 -0.224068
0.189593 0.511591 0.003829
-0.692953 -0.437528 0.018290
0.203802 0.257360 0.396397
-0.627666 0.147043 -0.210651
-0.276953 -0.118846 0.382497
0.864063 -0.206785 -0.252820
-0.558505 -0.089762 0.163344
-0.330640 0.194662 -0.182599
-0.102282 -0.178023 0.439125
-0.408489 -0.205193 -0.109506
0.324077 0.453681 -0.049925
-0.348313 0.296094 -0.109272
-0.332271 -0.309700 -0.112911
-0.526585 0.247836 -0.288128
0.361997 -0.034651 0.346906
0.263740 -0.232414 -0.326003
0.313256 0.476394 -0.376089
0.122319 0.434148 0.237396
-0.289380 0.617472 -0.271071
-0.421751 -0.195613 0.220058
-0.176334 -0.175963 0.523016
0.481615 -0.160702 -0.392098
-0.415174 -0.172729 0.244861
-0.431267 0.200755 -0.105382
-0.112350 0.351876 -0.377737
-0.877760 -0.394065 -0.178623
-0.487243 -0.185419 -0.006787
0.395425 -0.184287 0.393653
0.311801 0.069039 0.430658
-0.553645 0.257244 -0.161020
0.513492 -0.028047 -0.089258
0.089327 0.276447 0.369858
-0.099061 0.475062 0.148188
-0.073212 0.526932 0.262267
-0.306466 -0.036044 0.400250
0.211037 0.639244 -0.364178
-0.479037 -0.551218 -0.317955
-0.438109 -0.352486 -0.393198
-0.769863 -0.478743 -0.310101
-0.696646 -0.142930 0.117000
-0.492208 0.330390 -0.243677
0.082897 0.854736 -0.272139
-0.420752 -0.251520 0.171159
-0.845334 -0.360798 -0.087054
0.125344 -0.509391 -0.365923
-0.649598 -0.059664 0.046923
0.187484 -0.338958 -0.184546
-0.848305 -0.221645 -0.247513
-0.293997 0.024411 0.424422
-0.304866 0.616966 -0.213319
-0.047366 -0.296387 -0.282322
-0.771165 -0.138360 -0.018906
-0.340803 -0.332627 0.222038
0.576866 0.117056 -0.370418
0.196047 -0.294308 0.414269
-0.781880 -0.128126 -0.056431
-0.158538 0.434109 -0.092108
-0.823916 -0.153971 -0.164474
-0.478966 -0.420721 -0.386221
0.080600 0.836076 -0.304980
0.350700 -0.285409 -0.104055
-0.249425 -0.337845 0.334942
-0.502554 -0.059559 0.268276
-0.363110 -0.383543 0.155583
0.661481 -0.135371 0.140500
0.756231 -0.010087 -0.132690
-0.057917 -0.416778 -0.141482
0.171117 -0.154186 0.532935
-0.263035 -0.205165 -0.294969
-0.301960 -0.169112 -0.286466
0.280868 -0.369358 -0.085360
0.337297 -0.175399 -0.277377
-0.508697 -0.162795 0.009849
0.470853 -0.288519 0.282428
-0.035425 0.360899 -0.239815
0.468171 -0.158713 -0.067701
0.470941 0.203714 -0.091198
-0.414586 -0.390359 -0.392161
-0.396240 -0.511199 -0.359057
0.380331 0.524171 -0.108045
-0.396090 0.036819 -0.183928
0.575659 -0.300617 -0.394536
-0.735796 -0.038695 -0.084763
-0.060718 0.607562 0.183743
0.075836 0.607725 0.176896
0.381557 -0.119828 -0.231614
-0.432366 -0.185598 -0.092152
0.280600 -0.282835 -0.192355
-0.031319 -0.209919 0.526130
-0.663761 -0.039681 0.014094
-0.462339 0.206848 -0.087002
0.113235 0.410175 0.261980
-0.747497 -0.255028 -0.360654
-0.786778 -0.181043 -0.007855
0.288943 -0.383058 0.222893
-0.370588 0.194481 -0.149040
-0.304019 -0.602522 -0.215160
0.339274 -0.227982 0.407627
-0.181028 0.372419 0.361763
0.206266 -0.590026 -0.112604
0.147126 0.316998 0.420336
-0.615088 -0.265520 0.193767
-0.455096 -0.287172 0.302248
0.006710 0.499046 0.028821
0.115890 -0.317602 -0.240998
-0.614973 -0.252096 -0.390149
-0.044967 0.716584 0.069776
-0.352853 0.099054 -0.387092
0.101175 0.142190 0.437114
0.472314 -0.400107 -0.390929
0.159010 0.463296 0.280682
-0.231883 0.194741 -0.304110
-0.129530 0.459576 -0.393906
0.544290 -0.172091 -0.395979
0.582283 0.286509 -0.215532
-0.403017 0.410719 -0.308452
-0.764811 -0.065604 -0.240092
0.395159 0.136626 -0.167246
-0.367684 -0.414998 0.033141
0.729770 -0.191797 0.072505
0.219525 0.750273 -0.272247
-0.089682 0.327800 -0.270548
0.472385 -0.519370 0.010541
-0.165336 0.356418 0.386660
0.638417 0.086206 -0.349689
0.674868 -0.492277 -0.044820
-0.187011 -0.252872 -0.288029
-0.645672 -0.002054 -0.008317
-0.149823 0.198131 0.513919
-0.128266 0.451275 0.319292
0.404288 -0.590586 -0.154913
0.434698 -0.095882 0.381779
-0.578404 0.221742 -0.161951
-0.223535 -0.315824 0.383340
-0.015091 0.003011 0.613297
0.420759 0.006643 -0.185273
0.319361 -0.434174 0.061819
-0.539383 0.260165 -0.246334
-0.514174 -0.073796 0.240016
-0.482283 -0.301192 0.274234
-0.112119 0.336808 -0.242074
0.568278 0.302068 -0.179534
0.478961 -0.560797 -0.303362
0.586461 0.257743 -0.281880
0.384831 -0.583047 -0.274101
-0.508889 0.291452 -0.103386
-0.127960 0.286954 -0.314567
-0.513572 0.137957 -0.365336
-0.104190 -0.137348 0.563920
0.706974 -0.136215 0.075425
-0.065305 0.029174 0.469489
-0.274425 0.493851 -0.003968
-0.006280 0.496261 0.300043
-0.526204 -0.149334 0.110122
0.008384 0.401731 0.390408
0.064672 0.533045 0.255693
0.020404 0.682045 0.110200
0.260112 -0.251405 -0.357783
-0.639379 0.133692 -0.170064
0.111894 0.673296 -0.377512
-0.353305 -0.456203 0.024620
-0.068312 0.555281 0.234895
-0.388365 0.152332 -0.153992
0.036695 0.599821 -0.392327
0.393269 -0.179723 -0.167139
-0.494721 0.132071 -0.085614
0.027987 0.451741 0.341524
0.678152 -0.094238 0.069808
0.741780 -0.016698 -0.097567
-0.548295 0.017242 -0.382125
0.154749 0.498363 -0.009087
0.244179 -0.390434 -0.092955
0.329247 -0.469191 0.078062
0.384658 -0.333758 0.301245
-0.193983 -0.240042 0.471090
0.112763 -0.284792 -0.338671
-0.210465 0.038985 0.548845
0.411355 -0.128838 -0.376667
-0.248565 -0.252730 -0.240393
0.616494 -0.080439 -0.389123
0.433625 0.027892 -0.390664
0.351125 -0.157546 -0.347914
-0.876327 -0.276886 -0.201977
0.514013 -0.570885 -0.273987
-0.555367 -0.116454 0.108025
0.300965 -0.601177 -0.178351
0.118168 0.843360 -0.239644
0.429443 0.381979 -0.076398
0.050550 0.454176 -0.090026
0.044567 0.088885 0.456359
0.820525 -0.301749 -0.042906
-0.306944 0.498614 -0.029717
-0.081879 0.847739 -0.149673
-0.124829 0.388276 -0.166595
0.078389 -0.609019 -0.175750
-0.251057 -0.142714 0.386723
0.250396 0.524238 -0.004095
-0.327325 -0.193559 0.311282
0.432526 -0.460303 -0.379244
-0.046838 -0.608547 -0.215780
-0.871657 -0.304197 -0.261546
-0.193563 0.289155 -0.381251
-0.882776 -0.310363 -0.217021
0.004292 0.326357 0.456315
0.779443 -0.137525 -0.038414
-0.101367 0.545983 0.235620
0.280290 0.221296 -0.219142
-0.308068 0.570591 -0.083453
0.313816 0.040314 0.460832
-0.343679 -0.116188 0.461991
-0.074142 0.159108 0.444808
0.097778 -0.574659 -0.087466
0.251338 0.406355 -0.092238
0.763809 -0.037143 -0.114277
0.163781 0.489831 0.182169
0.016082 0.614821 0.180854
0.160763 0.185509 0.508068
0.453669 -0.573622 -0.284161
-0.140210 -0.258032 0.468785
-0.129060 -0.378249 -0.165277
0.309234 0.441701 -0.383928
-0.040941 -0.601670 -0.248289
-0.418204 -0.155802 0.395752
0.211447 0.563411 -0.382966
-0.732488 -0.018177 -0.113610
0.262193 -0.115418 0.371199
-0.804919 -0.452281 -0.309309
-0.108732 0.283912 0.378902
-0.666190 -0.093330 0.109318
0.338152 0.363273 -0.389202
-0.311650 0.188333 -0.390548
0.523951 -0.077867 0.230075
0.274680 -0.594030 -0.132327
0.457277 -0.318599 -0.396116
0.302442 -0.294148 0.376446
0.620157 -0.488646 -0.348653
0.648192 0.168825 -0.146649
0.507277 0.375544 -0.149015
-0.050654 -0.261402 0.434114
0.228819 -0.298716 0.400147
0.810993 -0.342083 -0.039186
0.854327 -0.218512 -0.286555
-0.035022 -0.370925 -0.391846
-0.539267 -0.136793 0.037571
-0.464486 -0.507272 -0.357265
-0.606389 -0.207439 -0.390724
-0.225894 0.722995 -0.168404
0.191972 -0.437148 -0.078035
-0.157959 0.572533 -0.383430
-0.317633 0.540733 -0.067595
-0.657609 0.106667 -0.163236
-0.328233 0.033039 -0.262733
0.390778 0.105358 -0.185240
0.294388 0.325761 -0.130273
0.381099 -0.501014 0.045812
-0.101135 -0.274661 0.451976
0.316253 -0.351316 0.188541
0.007127 0.713023 -0.374822
0.775079 -0.493241 -0.144477
0.181442 0.387550 0.322042
0.562907 -0.256370 0.230959
-0.068616 0.489292 0.300616
0.387795 -0.283714 -0.390662
-0.383282 0.244353 -0.385731
0.543418 -0.442387 0.103198
-0.172904 0.651153 0.068324
0.350835 0.605088 -0.197054
-0.383502 -0.372161 0.108008
-0.322336 -0.285329 0.266897
0.414039 0.351392 -0.075753
0.684337 -0.122028 0.095956
-0.224487 0.606968 0.026764
-0.106154 0.720874 -0.356735
0.046700 0.502205 0.043332
-0.028083 -0.405019 -0.393702
0.042631 -0.490024 -0.085352
0.736190 0.031316 -0.276117
0.077253 0.842556 -0.129282
-0.468040 0.003802 -0.393356
-0.333378 -0.532422 -0.347637
0.300928 -0.334536 -0.105351
-0.660847 0.020895 -0.037008
0.234569 0.642079 -0.012909
-0.296645 -0.358380 -0.392420
0.797602 -0.061120 -0.250917
0.301111 -0.509755 -0.001748
0.733300 -0.308064 0.058985
-0.462795 0.242249 -0.080332
0.039482 0.350779 0.312991
-0.274175 0.143346 -0.284225
-0.631190 -0.549895 -0.282239
0.128755 -0.058196 0.444752
-0.003354 0.158639 0.569491
0.105340 0.214894 0.405753
-0.230949 -0.118434 0.406633
0.543013 -0.003113 -0.393391
-0.365241 -0.353951 0.172626
0.493511 -0.176007 0.087981
0.309461 -0.232785 0.281353
0.458778 0.361923 -0.347038
-0.425566 0.260355 -0.087380
-0.378998 -0.525269 0.003669
0.018301 0.460289 -0.081046
-0.612558 -0.205529 0.216275
0.123751 0.463358 0.303759
0.277115 -0.574310 -0.084310
-0.198520 0.114113 0.453943
-0.621407 -0.514721 -0.034340
0.127905 0.613703 0.147512
-0.299465 -0.135084 0.361546
-0.844324 -0.211227 -0.124896
-0.148785 0.637264 0.110729
0.280245 -0.101065 0.499566
-0.727103 -0.133103 -0.344728
-0.493867 0.053016 -0.388763
-0.102207 0.682540 -0.370687
-0.115592 0.691631 0.071206
-0.813035 -0.331414 -0.333100
-0.044113 -0.111819 0.460856
0.175599 -0.411747 -0.108473
-0.480085 0.343528 -0.115893
0.429053 -0.217135 -0.063729
-0.067902 -0.220417 0.514196
0.081425 -0.255116 0.419317
0.458342 0.446767 -0.275505
-0.122704 -0.111139 0.572941
-0.655746 -0.252418 -0.385356
-0.021582 -0.589901 -0.280479
0.333792 -0.320259 0.188348
0.830010 -0.443541 -0.296304
-0.164338 0.351938 -0.190252
0.304470 -0.534733 -0.027476
0.360834 -0.087513 0.322268
-0.047492 0.856357 -0.136796
-0.210928 -0.327429 -0.184342
-0.038380 -0.128616 0.578108
-0.150584 -0.532492 -0.069524
-0.422166 -0.053627 -0.161033
-0.771225 -0.063122 -0.176905
-0.318631 -0.596258 -0.246862
0.860986 -0.364391 -0.124675
-0.503326 -0.500515 -0.357669
-0.291549 0.154611 -0.378853
0.391264 -0.595493 -0.185236
0.604194 0.150592 -0.080398
-0.037886 0.516762 -0.393956
0.177098 0.144069 0.427026
0.585525 0.218349 -0.322097
-0.264413 0.444908 -0.038856
0.375430 -0.294343 0.338791
-0.354005 -0.199876 -0.362273
0.264931 0.605056 -0.024507
0.346090 0.097831 -0.239099
0.282071 -0.308196 0.265338
-0.440890 -0.244131 0.144304
-0.704733 -0.363564 0.068801
0.006476 0.490710 -0.008171
-0.269948 0.600414 -0.049859
-0.199163 -0.129372 0.417707
0.391652 -0.522444 -0.351659
-0.153200 -0.604878 -0.230640
0.274670 0.570725 -0.015774
0.626745 -0.119482 -0.389923
-0.444133 -0.118473 0.260054
0.232957 0.172852 0.436062
0.654344 -0.098089 0.109173
0.713176 0.056170 -0.292202
0.553008 -0.293331 0.220047
-0.502409 -0.585665 -0.167250
0.071372 -0.117847 0.577726
-0.152611 0.052874 0.574643
0.192216 -0.254605 0.454022
-0.562602 -0.326789 0.201064
0.506921 -0.061040 -0.086294
0.091822 0.421117 0.356025
-0.020768 -0.141098 0.456977
0.066880 -0.017857 0.461022
0.408658 0.484670 -0.315014
0.094589 0.703584 -0.371805
0.122995 -0.477581 -0.380098
-0.540617 -0.579107 -0.161237
-0.284683 -0.598064 -0.246029
-0.492537 0.213243 -0.348013
-0.095066 0.603010 0.179426
-0.174710 0.678121 -0.346469
-0.271763 0.404184 -0.073007
0.427060 -0.182231 -0.383302
0.199608 -0.188779 0.384271
-0.323343 0.425781 -0.043191
-0.037066 0.325662 0.455470
-0.145091 -0.230194 0.493039
-0.391489 0.435942 -0.078438
0.052110 -0.398505 -0.154313
0.131235 0.486452 -0.030616
0.023209 0.530166 0.265126
-0.606696 -0.347086 -0.387624
-0.405876 -0.353459 0.277872
-0.421687 -0.493022 0.073665
0.140902 0.357161 -0.196312
0.371411 -0.164476 0.418497
0.713741 -0.016980 -0.340516
-0.057842 -0.586491 -0.287021
-0.345142 -0.328527 0.331404
-0.333268 -0.377423 0.218417
0.694813 -0.371165 0.062317
0.386537 -0.050971 -0.238919
0.531630 0.246622 -0.084741
-0.266699 -0.057243 0.410970
-0.426143 -0.219535 -0.075034
0.588470 -0.087824 0.106078
-0.530634 -0.567107 -0.103564
-0.802054 -0.309089 -0.008107
0.838811 -0.152977 -0.154353
0.188137 0.329033 0.353835
-0.362420 0.031236 -0.379034
0.585999 0.241912 -0.123956
0.433330 0.144904 -0.132600
-0.481052 0.175128 -0.085763
0.014924 0.705911 0.084545
0.714014 -0.048638 -0.033434
-0.331582 -0.464154 -0.003388
0.569780 0.153438 -0.071110
0.843386 -0.261874 -0.081103
0.071451 0.739022 -0.364128
0.120767 0.415240 -0.132906
-0.461016 0.380925 -0.133001
0.423980 -0.408864 0.204669
0.627144 -0.054667 0.031764
0.685651 -0.417432 0.034218
0.027893 0.427002 0.365143
-0.230803 0.621819 -0.002731
-0.037687 -0.342415 -0.216728
-0.379181 -0.394374 0.083039
0.151191 0.332762 -0.219010
-0.285786 0.576675 -0.319562
-0.828013 -0.471157 -0.175071
-0.267763 -0.218828 0.343225
-0.405558 -0.512024 0.034472
0.418047 -0.570304 -0.091313
-0.849328 -0.430037 -0.284989
-0.437032 -0.433605 0.172567
0.275131 -0.062253 0.507726
0.078299 0.404264 -0.161632
0.249897 0.665096 -0.331879
0.343578 0.613201 -0.246005
-0.662302 -0.538362 -0.289322
-0.019586 0.549526 -0.394433
0.351636 0.534289 -0.335570
0.322374 -0.369255 0.292512
0.782687 -0.506254 -0.244639
-0.667689 -0.520426 -0.077711
0.819003 -0.130290 -0.124189
0.855164 -0.430913 -0.277619
0.123426 0.467692 -0.061179
-0.671801 -0.330442 0.115431
-0.308157 0.439233 -0.367193
0.145549 -0.277303 -0.327531
-0.200463 0.428881 -0.081531
-0.099258 0.470132 0.311484
0.023064 0.570371 0.225024
-0.822704 -0.158254 -0.227013
-0.519794 -0.107447 -0.393181
-0.303589 0.485013 -0.353973
0.263772 0.207529 -0.367968
-0.083254 -0.456285 -0.109888
-0.738124 -0.214117 -0.359671
0.629863 0.216244 -0.217878
0.622100 -0.382752 0.109725
0.565176 -0.316676 0.197123
-0.810135 -0.493887 -0.200186
0.154147 0.293669 -0.268767
-0.593728 -0.528513 -0.323491
0.623235 -0.079418 0.098472
0.593961 0.045007 -0.046367
-0.121969 -0.526875 -0.355383
-0.284757 -0.574577 -0.077306
0.395896 -0.032863 0.335107
-0.368125 -0.488736 0.044691
0.649888 -0.503538 -0.331579
0.323803 0.105192 -0.266060
-0.817450 -0.177187 -0.082901
0.003019 0.590427 0.205816
-0.502560 -0.186620 0.040372
0.347046 -0.059353 0.456601
-0.783734 -0.441386 -0.067248
0.240715 0.547916 -0.379768
0.773115 -0.410240 -0.037299
-0.625757 -0.298767 0.169846
0.360604 -0.511352 0.017403
-0.359212 -0.263845 -0.379857
0.736260 -0.529028 -0.236944
-0.121831 -0.501668 -0.080384
-0.278591 0.217897 -0.388160
-0.260671 -0.360397 -0.392093
-0.446983 0.411950 -0.181429
-0.055575 -0.364221 -0.190593
-0.214139 -0.536495 -0.347651
0.313097 -0.412884 0.213067
0.647276 -0.490860 -0.022574
0.455532 0.172334 -0.107624
-0.142315 0.452250 0.202067
0.185123 0.526945 0.131604
0.022981 -0.225983 0.511462
0.362070 -0.242385 -0.379951
0.659537 -0.398886 0.069552
-0.570147 0.213477 -0.112135
-0.424834 -0.301070 0.087670
0.177008 -0.268646 -0.318560
-0.618770 -0.003912 -0.361452
-0.065416 0.346352 -0.363340
0.412769 -0.203310 0.372571
0.642745 -0.463399 -0.357838
0.217561 0.737064 -0.122969
-0.293752 -0.483194 -0.375733
-0.237377 0.367698 -0.126633
0.552656 -0.470881 0.061827
0.315275 0.122101 -0.363199
-0.013658 0.254668 0.511079
0.411950 -0.160991 0.235945
0.388750 -0.254721 -0.085294
-0.449558 -0.449657 0.145174
-0.611656 0.099776 -0.059979
0.702208 0.099401 -0.249399
-0.834967 -0.394137 -0.089207
-0.649183 -0.321537 0.138896
-0.320145 -0.095140 -0.316714
0.019752 0.478272 -0.043651
0.348305 -0.255249 -0.147474
-0.325622 -0.065050 -0.332238
-0.835183 -0.189169 -0.240719
0.371799 0.078695 -0.218701
0.012345 -0.249721 0.488465
0.326300 -0.310118 -0.105403
-0.480204 -0.410220 0.181697
-0.575177 -0.122435 0.261872
-0.045835 0.450782 -0.093803
-0.020814 -0.235530 0.503274
0.309677 -0.241245 0.415045
0.532794 -0.134782 0.068806
-0.488218 -0.469637 -0.372986
0.333428 -0.171868 -0.322640
-0.488960 -0.175925 0.145788
0.858886 -0.183989 -0.187803
0.025324 -0.587898 -0.284938
-0.144256 -0.263125 -0.325683
0.356704 -0.034724 -0.303326
0.730153 -0.341977 0.048035
0.002461 0.228742 0.528821
0.114348 0.336248 -0.242435
0.374885 -0.218265 0.391254
-0.171149 0.552334 0.186525
0.663318 0.134622 -0.130946
0.503194 0.389557 -0.263148
-0.617343 -0.460976 0.045819
0.132171 0.487346 0.165113
-0.595825 0.197535 -0.179285
0.393146 -0.189011 0.231418
0.370776 -0.570752 -0.085018
0.444144 -0.558971 -0.069473
0.490076 0.281619 -0.360700
0.767802 -0.482679 -0.306311
0.124251 -0.558273 -0.071876
0.677342 -0.188706 -0.384474
0.337106 -0.595318 -0.152336
-0.744092 -0.376114 -0.359857
-0.656157 -0.048495 -0.357232
0.683282 -0.347923 0.086103
-0.080542 0.708771 0.068785
0.089150 -0.353435 -0.198260
-0.128173 0.227988 0.504665
-0.203692 -0.533678 -0.059072
0.862467 -0.250661 -0.289632
0.362728 -0.452709 0.147840
0.734852 -0.268626 0.068130
0.219621 0.480058 -0.392119
0.285160 -0.391085 -0.057526
0.277015 0.464810 -0.044133
-0.205358 0.726769 -0.278854
-0.152189 -0.014089 0.458330
-0.187140 0.409949 -0.110487
-0.383551 -0.592959 -0.138382
-0.305934 -0.329262 -0.120401
0.036378 -0.100279 0.459159
0.596239 -0.495803 0.001675
-0.753812 -0.373660 0.017857
-0.597486 -0.560758 -0.272263
-0.071868 0.362418 -0.224850
-0.709314 -0.247205 -0.373261
-0.580978 -0.075885 0.230854
0.207682 0.067919 0.534935
0.052559 0.874924 -0.235656
-0.360362 0.537479 -0.191242
-0.493892 0.204410 -0.076619
0.737253 -0.111974 -0.356450
0.796438 -0.059962 -0.168285
-0.416764 -0.250970 0.351711
-0.400783 -0.432400 0.182207
-0.107158 0.331618 0.340747
0.571756 0.296135 -0.248220
0.298255 0.631368 -0.102050
0.271931 -0.080555 0.376954
0.076295 0.662520 -0.383390
-0.577670 -0.175835 0.254997
0.116534 0.034171 0.587338
-0.735057 -0.472601 -0.329726
-0.183387 0.775737 -0.206431
0.071560 0.515213 -0.393894
-0.142128 0.388188 0.371861
-0.425356 -0.576460 -0.285049
0.449802 -0.205831 0.139276
-0.013736 -0.053474 0.606890
-0.186975 -0.268154 0.447958
0.293277 0.439141 -0.058186
0.417327 0.177682 -0.131900
-0.407725 0.000015 -0.177355
-0.551583 0.244217 -0.118804
-0.045411 0.481804 -0.392156
0.123746 0.402904 0.359623
-0.657320 -0.558778 -0.217650
0.391307 -0.463920 0.128647
0.178458 0.484777 0.213668
-0.038961 -0.286418 -0.322998
-0.616526 0.129808 -0.088343
0.821174 -0.129009 -0.282144
0.022161 0.338361 -0.293108
-0.236409 0.556633 0.034076
-0.398623 -0.358816 -0.393031
0.231341 -0.145922 0.379657
0.682692 -0.546853 -0.239858
-0.013511 -0.048654 0.468269
-0.865995 -0.347672 -0.122111
-0.068944 -0.295611 -0.358816
-0.392841 0.023832 0.405365
0.064122 -0.587135 -0.285836
0.608814 -0.453729 -0.366562
-0.292720 0.119708 -0.365788
-0.006294 -0.604433 -0.237765
0.581299 0.159069 -0.355488
0.636986 -0.222147 0.177621
0.161006 0.255407 0.459555
0.656440 0.171553 -0.178994
-0.278653 0.262059 -0.393103
0.121973 0.806477 -0.102043
-0.351438 -0.425951 0.003779
-0.689401 -0.524774 -0.103813
0.329508 -0.092234 0.467740
-0.499283 -0.377247 0.203413
0.343576 -0.420173 -0.391460
-0.414039 0.178601 -0.123550
-0.081780 0.254437 0.501238
0.687252 -0.043347 -0.013178
-0.066935 -0.482256 -0.094298
-0.839043 -0.470981 -0.212808
0.349306 -0.579754 -0.286956
0.411722 0.413231 -0.074458
-0.502021 -0.107509 0.333433
-0.181239 0.401480 0.332914
0.153935 0.411452 -0.389551
-0.130525 0.823123 -0.234399
-0.153392 -0.072497 0.575716
0.651191 -0.184850 0.167077
0.441831 -0.301607 0.292815
-0.323083 -0.436962 -0.024516
0.447577 -0.067087 0.367108
0.099240 -0.175265 0.432616
0.336769 -0.017407 0.365623
0.534572 0.258754 -0.342848
-0.538159 -0.280089 -0.392954
0.195056 0.725683 -0.062461
0.032182 0.854222 -0.123819
-0.410861 0.213169 -0.383964
0.879180 -0.407270 -0.236203
0.299428 0.668445 -0.243990
0.658068 -0.450318 0.021595
-0.512561 -0.031483 -0.392566
-0.190299 0.030236 0.456311
0.270740 -0.133109 0.496035
0.446000 -0.151942 -0.386241
0.654593 -0.358176 -0.383413
-0.299979 -0.522467 -0.355623
0.208786 0.770821 -0.214960
0.650741 0.185170 -0.222266
0.150502 -0.309084 -0.242156
0.484572 0.398818 -0.135897
0.055698 0.410261 0.375916
-0.239309 -0.266539 0.433314
-0.075793 -0.569204 -0.315027
-0.518619 -0.284835 0.259443
0.631701 -0.419319 0.071688
0.343547 -0.534962 -0.344579
0.352860 0.570103 -0.117962
-0.212802 0.729275 -0.132242
0.150522 0.365374 -0.380938
-0.162905 0.584140 0.159853
-0.576358 0.080676 -0.046352
0.009704 -0.211120 0.442715
0.555861 -0.574116 -0.170815
-0.228847 0.202398 -0.358078
0.018186 0.302075 0.474643
0.399895 0.070697 -0.190374
-0.344721 0.059459 -0.377876
-0.684947 -0.550984 -0.194245
-0.476841 -0.218400 0.025467
0.432621 0.068210 -0.392773
-0.122961 -0.608535 -0.209623
-0.725202 -0.180900 -0.359134
0.283344 -0.218625 0.312468
-0.738699 -0.016137 -0.150074
0.112809 0.837899 -0.272919
0.288786 -0.189823 0.459114
0.093489 0.503455 0.101913
0.203772 0.296273 -0.375641
0.568025 -0.517963 -0.020758
-0.810575 -0.136920 -0.131102
-0.122815 0.356059 0.319662
0.354967 -0.597851 -0.181957
-0.075046 -0.119536 0.578114
-0.385283 -0.200579 -0.141879
0.192564 -0.267635 0.362702
0.233091 -0.536791 -0.040068
-0.274982 -0.552021 -0.049963
-0.774036 -0.220968 -0.341328
0.229833 -0.265030 0.335478
0.474928 -0.187852 -0.007941
-0.422931 0.442912 -0.214000
0.507112 -0.413112 -0.387026
0.355971 0.019796 -0.357047
-0.498046 -0.043393 -0.081788
0.757679 -0.467790 -0.082524
0.143380 0.049300 0.574366
-0.148187 0.798716 -0.262394
-0.587341 -0.511161 -0.007207
0.129481 -0.597827 -0.128188
-0.449615 -0.257356 0.016567
0.786538 -0.450624 -0.090961
0.184143 0.017108 0.435235
0.527543 -0.329523 0.215340
-0.349808 -0.302368 0.352810
-0.311151 -0.561550 -0.056048
0.091301 -0.603521 -0.143012
-0.093658 0.639809 0.140546
-0.401004 -0.044280 -0.185372
0.294130 0.286637 -0.158799
0.099890 0.102705 0.575574
0.591074 0.268099 -0.248073
0.384614 0.168412 -0.393326
0.893156 -0.337535 -0.224941
0.872883 -0.238973 -0.255540
-0.355777 -0.579085 -0.288923
0.367424 -0.562766 -0.314251
0.311749 0.564106 -0.053170
0.237458 0.614120 0.010075
0.320283 -0.043810 0.476513
0.400156 0.013450 -0.381472
0.061102 0.680839 0.103377
-0.045471 0.493069 0.010239
-0.305069 -0.469008 -0.025122
0.586983 -0.430154 -0.377012
-0.821395 -0.185418 -0.272072
0.572037 -0.151607 0.250535
-0.693644 -0.484823 -0.037652
-0.373333 0.207016 -0.391582
-0.419294 0.297024 -0.078702
-0.457164 -0.087110 0.374554
-0.022403 0.371747 0.417034
0.426451 -0.547477 -0.042282
-0.102587 0.800764 -0.312090
-0.243897 0.678788 -0.107005
-0.196080 0.250448 -0.365286
0.053843 0.545125 -0.394280
-0.645590 -0.249861 0.173081
0.119423 -0.510571 -0.062223
-0.028282 0.806851 -0.039818
0.420121 0.242140 -0.389718
-0.435938 0.412546 -0.124108
0.463676 -0.204615 0.108496
0.487980 0.237662 -0.081902
0.583443 -0.220629 0.227281
0.606147 -0.232500 0.203239
-0.267784 -0.271107 -0.370827
-0.112137 -0.001916 0.466202
-0.560856 -0.566659 -0.120686
-0.038602 0.453906 0.189085
0.205507 0.334821 -0.179202
0.549142 0.334419 -0.210239
-0.282038 -0.389838 -0.089261
-0.654882 0.090708 -0.253506
0.217277 -0.414429 -0.086340
0.111469 0.333785 0.425062
0.863126 -0.438321 -0.237143
-0.782535 -0.338002 -0.349608
0.759185 -0.097419 -0.044186
0.517918 -0.581343 -0.224420
-0.076037 -0.546748 -0.077101
-0.717877 -0.523886 -0.132684
-0.001196 0.427902 -0.381405
0.360751 0.196998 -0.164986
0.077457 -0.332461 -0.227256
0.089792 0.343628 0.319642
0.617432 -0.340349 0.142942
0.406170 -0.234442 0.361110
0.010615 -0.431484 -0.128554
0.228833 0.536096 0.018282
0.420114 -0.096701 -0.379543
0.226049 0.515423 -0.387864
-0.405755 -0.149116 0.271623
0.024998 0.174840 0.432624
-0.272590 0.294824 -0.393856
-0.298376 -0.433795 -0.047726
0.473951 -0.095833 -0.109748
0.715589 -0.278202 -0.377752
0.779617 -0.258354 -0.357349
-0.454841 0.074200 -0.392047
-0.241708 -0.211191 0.363549
-0.275363 0.436455 -0.380112
0.055965 0.334383 -0.292474
0.234089 0.333328 -0.161265
-0.242891 0.117884 0.502759
-0.276239 0.657706 -0.213074
0.327654 -0.429956 0.180971
0.365248 0.585031 -0.245875
0.719493 -0.019081 -0.065382
0.420946 0.171810 -0.393807
-0.392332 0.120117 -0.163160
-0.784965 -0.088321 -0.152016
0.428264 -0.182373 -0.108719
-0.351733 0.092892 -0.212212
-0.239357 0.302513 -0.392492
-0.125047 -0.417198 -0.132438
0.214185 -0.294479 -0.376223
-0.231446 0.487267 -0.003195
0.104475 -0.608691 -0.203023
-0.312409 -0.179666 0.458156
0.154732 0.374234 0.303896
0.531479 -0.129980 0.291412
0.796567 -0.374560 -0.038346
-0.221878 -0.050975 0.431965
0.115625 -0.207608 0.419300
-0.185801 0.476276 0.248689
-0.113829 -0.555358 -0.331595
0.468943 0.390904 -0.106507
-0.545833 0.127945 -0.352011
-0.191206 0.232460 0.417406
0.324922 0.208381 -0.388853
0.148678 0.312213 0.346572
-0.612080 0.011576 -0.014248
0.431762 -0.028852 0.367792
0.255661 -0.599436 -0.241709
-0.492266 -0.214674 0.315746
