0.169567 0.211063 -0.185444
-0.080961 0.276060 -0.471813
-0.096809 0.314116 -0.437510
-0.036637 0.229614 0.032267
-0.105940 0.225421 0.215689
-0.151563 0.126204 0.226785
-0.064458 -0.185219 0.556585
-0.130947 -0.003669 -0.372282
0.197600 0.109898 -0.127889
-0.081215 0.589864 -0.616804
0.026721 0.265941 -0.077625
-0.164427 0.083197 0.517181
-0.163246 -0.031417 0.432306
0.188194 0.096190 -0.387927
-0.114302 -0.135490 -0.220667
-0.069457 -0.120020 0.489960
0.184463 0.211197 0.039962
0.253832 0.101423 0.280885
0.205037 0.079303 -0.100325
0.068853 0.397257 -0.472622
-0.106421 0.246257 -0.310788
0.180743 0.296799 0.273442
0.131544 -0.034665 0.387427
0.159334 -0.575158 -0.166242
-0.369564 0.374250 -0.793378
-0.121305 -0.380346 -0.258050
-0.073623 -0.499017 0.678396
-0.235833 0.381326 -0.765105
-0.432914 0.335526 -0.771856
0.223637 0.019592 -0.263020
0.148654 -0.135304 -0.159786
0.106210 0.299750 -0.383556
-0.045387 -0.139852 0.101548
-0.073572 -0.545621 0.693086
0.178632 -0.336356 -0.155156
0.173565 0.075052 0.565756
-0.132587 -0.133955 0.485317
-0.145759 -0.013175 -0.194687
-0.071159 -0.386711 -0.267480
-0.125726 -0.071015 -0.010238
0.175079 -0.282340 0.459260
-0.132057 0.179599 0.144036
0.143106 -0.088607 -0.067677
0.001184 -0.102952 -0.338532
0.123733 0.178996 0.577251
0.215255 -0.471440 0.583878
-0.137542 0.415901 -0.552914
-0.002994 0.314320 -0.162848
-0.115352 -0.638231 0.628752
-0.101934 -0.644002 0.648353
-0.134139 -0.059655 0.563805
-0.069459 -0.549094 -0.337961
0.155917 -0.085453 0.418169
-0.049171 0.226209 0.556892
0.243409 0.207292 0.247177
0.202174 -0.023716 0.510317
-0.137827 0.163027 0.249879
0.181197 -0.555207 0.512560
-0.111412 -0.097926 -0.202893
-0.089822 0.044232 0.585439
-0.068371 -0.079682 -0.128102
0.268447 0.112789 0.318997
-0.096209 -0.407541 0.659002
-0.287380 0.346070 -0.648088
0.138416 -0.345395 -0.215303
-0.162045 -0.054058 -0.231881
-0.101958 0.181727 -0.033451
0.166964 -0.105651 -0.188297
0.220576 0.124134 -0.028826
0.176801 0.067598 -0.397434
0.167914 -0.226964 -0.177371
0.147164 -0.461880 -0.139823
-0.037531 -0.135290 -0.127549
0.250216 -0.115834 0.401122
-0.213217 0.512964 -0.584123
-0.126387 0.504882 -0.712846
-0.139058 0.515033 -0.726077
-0.140339 0.231432 0.311568
-0.132503 -0.037578 0.204969
-0.020713 0.533306 -0.421451
0.225205 0.268816 0.290372
-0.148181 0.557572 -0.532589
-0.127082 -0.084596 0.105015
0.062184 0.437963 -0.414474
-0.000678 0.205333 0.577324
-0.010769 0.301717 0.433438
-0.132514 -0.164901 -0.270622
-0.060679 -0.063121 0.242029
-0.064857 -0.494164 0.726592
0.083204 -0.159543 -0.240279
-0.002477 0.225637 0.565265
-0.143684 0.204952 0.464054
-0.054419 -0.180015 0.636109
0.187066 -0.518100 -0.091248
-0.030539 -0.153972 0.008740
-0.094788 -0.184689 0.525612
0.169284 -0.087307 -0.008325
0.017825 0.031516 0.534338
-0.104463 0.025812 0.572043
0.254149 0.231833 0.410679
0.206287 0.056608 -0.344962
-0.124294 0.251237 0.309854
0.017357 -0.024255 0.353798
-0.037238 0.459876 -0.618059
-0.139279 0.132849 -0.049095
-0.090488 0.081018 -0.416881
0.205712 -0.578421 -0.172624
0.069682 0.311954 0.279171
-0.096246 0.219989 0.187921
-0.090370 -0.092911 0.169828
0.218636 -0.383269 0.539317
-0.095191 -0.432594 -0.327881
-0.311160 0.476830 -0.725430
0.035740 0.147366 -0.445718
-0.113543 -0.076634 0.433624
0.179871 -0.312765 0.535506
-0.021032 0.279276 -0.118940
0.207587 0.035187 -0.329799
0.173990 -0.504282 0.575068
0.258315 0.228868 0.337145
-0.098495 -0.354068 -0.234520
-0.071161 -0.642409 -0.340699
0.119682 -0.109199 0.163752
-0.050897 -0.237432 0.614876
-0.086472 0.197113 -0.071602
-0.103838 -0.094418 -0.023157
-0.126672 0.133559 -0.120416
0.092017 0.205567 0.569505
-0.153782 -0.051823 0.090244
-0.144288 -0.053060 0.018546
0.154194 -0.015893 -0.368717
-0.124312 0.230466 0.255889
0.179834 0.180097 -0.158173
-0.019181 0.268758 -0.100710
0.055277 0.345235 -0.209022
0.141628 0.170427 -0.414937
0.215698 0.059494 -0.312837
-0.086631 0.325499 -0.560843
0.240097 -0.138656 0.379536
0.255669 -0.033179 0.384112
-0.386162 0.350958 -0.799148
-0.135481 0.199972 -0.245467
0.002050 0.277959 -0.099990
0.147220 -0.053346 0.389357
0.212846 -0.231175 0.424045
-0.092814 -0.233371 0.682422
0.197916 -0.282732 0.451376
-0.013502 0.536218 -0.586668
0.169646 -0.633843 0.515379
-0.133766 -0.051012 -0.021734
-0.052039 -0.120285 0.582035
-0.114551 -0.374249 0.696910
-0.088831 -0.368345 0.649335
0.230343 -0.082128 0.455946
0.187557 -0.355034 -0.198233
-0.100876 0.258008 -0.264790
-0.179529 0.449515 -0.562507
-0.048142 0.310515 -0.254801
0.050990 0.191121 -0.462827
0.203426 0.107362 -0.098905
-0.142440 0.491666 -0.507460
-0.075274 0.056945 -0.417090
-0.109541 0.097732 0.562751
0.060240 -0.022227 0.329486
-0.090794 0.372356 -0.433802
-0.049496 0.590909 -0.545150
0.144822 -0.602945 -0.143449
0.170539 -0.096332 0.095747
-0.129441 0.012180 -0.166988
0.175580 -0.023168 -0.159795
-0.073584 0.158192 0.581750
-0.249871 0.453196 -0.588265
-0.004545 -0.158655 -0.032788
-0.102615 -0.014050 0.588442
0.017025 -0.157260 0.053828
0.179554 -0.145063 -0.221362
0.186621 -0.003599 -0.165460
-0.027760 0.279618 -0.528643
0.171239 0.210153 0.553844
-0.142260 -0.058262 -0.335652
0.164270 -0.144762 0.388366
-0.412572 0.348339 -0.791889
0.055934 0.329218 -0.186435
-0.012738 0.423121 -0.303977
0.198501 -0.182874 0.511240
0.153070 -0.085221 -0.164331
0.119357 -0.333950 -0.198475
-0.053674 0.280124 -0.529293
0.267210 0.042981 0.456653
0.018881 0.219211 0.566838
0.055727 -0.008743 0.482251
-0.084058 0.237400 0.195370
0.081498 0.376020 -0.376373
0.180012 -0.117489 0.352648
-0.164839 0.077359 -0.334668
0.106811 0.284057 -0.437208
-0.128934 0.138601 -0.155028
-0.067078 -0.137417 0.020974
0.266988 0.136561 0.314276
0.093279 -0.046440 0.292381
-0.168062 -0.015623 0.063794
-0.237091 0.549591 -0.708535
-0.006150 -0.137687 0.141564
0.095923 0.326516 -0.311205
0.149563 -0.059523 -0.154456
-0.061386 -0.235174 0.591349
0.236957 0.105619 0.515150
-0.135923 -0.016259 0.360117
0.113124 -0.285737 -0.176021
0.139584 0.052856 0.546756
-0.104924 -0.187708 0.629838
-0.109306 -0.150163 0.488648
0.197939 0.229894 0.170061
-0.049697 0.397816 -0.337512
0.029324 0.312959 0.297226
-0.278747 0.519963 -0.690043
0.149822 0.252454 -0.226030
0.127466 0.251544 -0.388680
-0.003148 0.255643 -0.510391
0.006262 0.000477 -0.396076
-0.030126 -0.022841 0.316092
0.136406 0.312538 0.296710
-0.066313 -0.619917 0.701869
-0.092905 -0.062749 -0.172287
-0.074765 -0.538826 0.713639
0.056770 0.444541 -0.368179
-0.111094 -0.169469 -0.222713
-0.171693 0.044079 -0.287893
-0.066257 0.589967 -0.526541
0.103396 0.057157 0.541087
-0.027357 0.205267 0.579114
0.145789 -0.502697 -0.139331
0.012901 -0.159194 -0.053091
-0.172262 0.012270 0.156447
0.225568 0.030061 0.249989
-0.138672 0.100353 -0.172792
0.063837 0.371462 -0.269387
0.178587 -0.051280 0.197379
-0.141750 -0.111482 0.482285
-0.065412 -0.073670 -0.369161
-0.100161 -0.017579 0.341175
0.084249 -0.015514 -0.396516
0.055185 -0.134192 0.141018
-0.162770 0.357537 -0.568704
0.082568 0.284265 -0.478506
0.183682 0.167250 -0.141954
0.259713 0.056065 0.092824
0.174949 -0.602100 0.546685
-0.173774 0.074518 0.498686
-0.175147 -0.014174 0.434129
-0.086486 -0.062068 -0.112486
0.192000 0.075716 -0.381867
0.133200 0.314346 0.354540
-0.230081 0.338890 -0.714218
0.172408 -0.555933 -0.168104
0.235666 0.176740 0.107876
0.093648 0.327975 -0.288239
-0.066089 -0.329928 -0.246334
0.094490 -0.033619 0.413489
0.081499 0.247897 -0.063272
0.106799 -0.136828 -0.003684
-0.131514 -0.100926 -0.332868
-0.044391 0.223902 0.007060
0.184401 0.219534 0.069195
-0.078908 -0.417932 -0.318936
-0.164098 -0.016230 0.149973
-0.107519 -0.058285 -0.071923
-0.065066 0.278211 0.241983
-0.153082 -0.096807 -0.310181
0.207301 -0.098338 0.341841
0.175096 0.303289 0.297866
0.205196 0.122318 -0.078855
-0.140779 0.087150 -0.088599
-0.138019 0.366569 -0.557985
0.108884 -0.073249 0.250300
-0.086051 0.270837 0.449315
0.104817 -0.140850 0.047181
0.217024 -0.015298 -0.223640
0.267267 0.082726 0.471784
-0.174072 0.101142 0.150383
0.246186 0.050797 0.272423
-0.101039 0.273910 0.320334
-0.325975 0.363699 -0.785830
0.116873 0.278504 -0.385637
-0.083968 0.207785 -0.102535
-0.107891 0.177769 -0.110225
0.210102 -0.296811 0.535469
0.180475 0.267431 0.208559
-0.157245 0.008141 0.337491
-0.072028 0.284295 -0.519949
0.176691 -0.498813 -0.088601
-0.114381 -0.260260 0.594100
0.007617 0.176987 -0.464002
-0.184266 0.028827 0.460557
-0.152114 0.042033 0.231369
0.190490 -0.474408 -0.167327
0.197429 -0.159286 0.497322
-0.079429 0.410720 -0.639832
-0.110566 0.229009 -0.211499
0.084938 -0.140657 -0.275152
-0.119226 -0.217586 -0.291325
-0.039458 0.474015 -0.377555
0.146625 0.267209 0.173030
-0.105988 -0.248561 -0.224525
-0.083617 0.274169 0.260641
-0.175039 0.083413 0.044094
-0.170322 0.115910 0.360224
0.201387 0.201826 0.054649
-0.088990 -0.617948 0.722281
-0.048983 0.300021 0.390397
-0.139025 0.078209 -0.171470
0.036289 0.299375 0.455152
-0.076749 0.483598 -0.655783
0.136304 0.257683 -0.179129
-0.168260 0.058228 -0.319266
-0.128360 -0.129431 -0.246917
0.047367 0.480507 -0.426196
0.173956 0.206877 -0.350202
-0.123810 -0.559705 -0.319173
0.167076 -0.128693 -0.190576
0.047669 0.079911 0.555680
-0.172406 0.002312 0.136847
-0.063892 -0.625660 -0.350972
0.180940 0.168209 -0.118163
0.191199 0.062437 0.558747
-0.049520 0.265331 -0.138578
0.254376 0.134194 0.176444
0.083406 0.318139 0.350247
0.272685 0.164635 0.440403
-0.070074 -0.499535 -0.327112
-0.106371 -0.634950 0.722365
-0.031759 0.441108 -0.343760
-0.107742 -0.046378 -0.367488
0.082956 0.360371 -0.465806
-0.136571 0.620964 -0.744615
0.057656 0.286320 -0.117240
0.139431 -0.061652 0.242262
0.223043 -0.009539 -0.264523
0.226696 0.015772 0.201961
0.113572 -0.012465 -0.388303
-0.088227 -0.343863 0.640327
-0.116927 0.459761 -0.471918
0.272327 0.067164 0.454479
-0.115008 -0.043586 0.582322
0.196220 0.129490 -0.109369
0.180243 -0.372668 0.503777
-0.143885 0.141895 -0.002933
0.021418 0.245173 0.042011
0.057969 0.057454 -0.421149
0.206033 -0.049606 -0.295973
0.207987 -0.059642 0.109853
-0.064464 0.381250 -0.356802
-0.142684 0.591980 -0.753763
0.096959 -0.187897 -0.189332
-0.064738 -0.324552 -0.317786
0.057289 -0.149835 -0.227307
0.058478 0.278298 0.506746
-0.047431 0.416532 -0.348538
-0.131535 -0.211520 0.565193
-0.080387 0.230364 0.175726
-0.078387 -0.092714 -0.083499
-0.104951 0.535084 -0.482844
0.197305 -0.043287 -0.316719
-0.091916 0.273384 0.423137
-0.263708 0.526648 -0.708507
0.108565 -0.087902 -0.361879
-0.137394 0.608190 -0.640754
-0.072223 0.282701 0.432648
-0.332327 0.325272 -0.791469
0.012804 0.254576 0.100441
0.029362 -0.022502 0.334185
0.155709 -0.083824 0.388603
0.061050 -0.139701 0.120938
-0.177001 0.553839 -0.738645
0.204284 -0.061494 0.021937
-0.063406 0.129521 -0.427205
-0.056994 -0.094923 -0.137207
-0.020494 -0.149993 -0.120918
-0.095942 -0.091685 0.447316
-0.107690 -0.643784 0.701960
0.119435 -0.030402 0.370340
0.188063 -0.300831 -0.181673
0.144796 0.217685 -0.033605
-0.181116 0.071614 0.437576
0.005096 0.412910 -0.568015
-0.000677 -0.123962 0.176757
-0.299438 0.429831 -0.625122
0.089202 0.338176 -0.464843
-0.089569 0.446365 -0.666434
0.060495 0.301907 -0.503466
-0.003990 0.521119 -0.401186
0.184204 -0.447490 0.521094
0.109728 -0.135989 0.078455
0.244770 -0.063988 0.428287
0.050523 0.453084 -0.501724
-0.120606 -0.201867 -0.277190
-0.015560 -0.052215 0.274197
-0.166428 0.066086 -0.244170
0.179545 -0.018962 0.512623
-0.064063 0.229833 0.113955
-0.257693 0.433792 -0.589388
0.147245 0.002553 -0.388635
0.040820 0.221006 -0.478817
-0.075612 -0.178903 0.536570
0.060462 0.050011 0.532456
-0.181942 0.048321 0.087275
0.192848 0.149670 -0.364071
0.104022 0.276443 -0.156770
-0.014783 0.374150 -0.565993
-0.134202 0.090513 -0.150716
0.039420 0.476187 -0.363613
0.032058 -0.072531 -0.366953
0.169152 -0.051108 0.311173
0.179895 -0.476900 0.525589
-0.068090 0.432888 -0.387907
0.205934 0.078409 -0.351375
0.215017 -0.008466 -0.037592
-0.135177 0.089667 -0.109378
0.168058 -0.193848 -0.213221
-0.138486 -0.007528 -0.065555
0.160297 -0.030768 -0.145381
0.209268 0.025642 -0.076577
-0.100146 0.264974 0.269802
0.221503 -0.373546 0.520825
-0.147524 0.160800 0.131000
-0.139176 -0.590259 0.681463
0.040855 0.025426 -0.408898
0.228192 -0.209472 0.476796
0.141268 0.227830 0.000037
0.042310 0.302334 -0.514710
-0.057002 0.271586 0.484830
-0.023669 -0.147271 -0.242101
-0.076647 0.279530 -0.295382
-0.177080 -0.001369 0.398895
-0.087474 -0.123008 0.475831
-0.145980 0.180756 -0.257836
0.159690 -0.118589 0.480738
-0.077472 -0.560364 -0.316869
0.119040 0.243314 0.040429
-0.166894 -0.062524 -0.251730
0.171524 -0.004271 -0.366072
-0.024223 0.243607 0.546243
-0.039835 -0.147766 -0.054623
-0.127676 0.035169 0.273089
-0.154252 0.640523 -0.744970
-0.350082 0.400408 -0.684370
0.173760 0.156319 0.573249
0.179989 -0.045774 -0.337061
0.042210 0.493392 -0.445885
-0.090002 -0.089763 0.483071
0.131110 0.231573 -0.400125
-0.138904 -0.042154 0.184671
-0.096252 -0.168471 0.508245
-0.174906 0.024154 -0.281876
-0.094757 -0.038156 0.387029
-0.096965 -0.113131 0.089477
0.228563 0.042547 0.507007
-0.064681 -0.608578 0.671232
0.216839 -0.566498 0.496316
0.075421 -0.156062 -0.216617
0.153641 -0.227139 -0.262334
0.081976 0.251528 0.065205
0.026572 0.314220 -0.526857
-0.121713 -0.353161 0.659633
-0.082736 -0.239356 0.580069
0.173322 -0.241643 -0.195383
0.272943 0.120131 0.340362
0.111517 0.040050 0.531840
-0.163378 -0.026542 0.125763
0.233221 0.266915 0.346722
0.258108 0.128438 0.491800
-0.079202 -0.382973 0.661495
0.243926 -0.010245 0.071787
-0.122671 0.148462 -0.134777
0.130820 -0.139891 -0.295832
0.227375 0.034132 0.218991
0.239125 0.128960 0.029494
0.234170 -0.572132 0.507735
0.199368 0.214507 0.101316
-0.083145 0.124425 -0.418402
-0.056100 0.170575 0.587545
0.213610 -0.054166 -0.244746
-0.097988 0.230964 0.509529
0.150595 0.131981 0.579383
-0.092902 -0.260438 0.592348
-0.072473 -0.050052 0.591271
-0.056911 -0.134037 -0.059784
-0.160823 0.124404 0.505818
-0.136908 -0.016995 -0.354604
0.254132 0.086300 0.189492
-0.088395 0.194375 -0.017727
0.170583 -0.353786 -0.141264
0.005552 0.311627 0.384425
-0.140916 0.061894 -0.092231
-0.147305 -0.609837 0.683433
-0.008250 -0.148714 -0.189377
0.154861 -0.058644 0.225428
0.132278 -0.117647 0.120621
-0.010257 -0.041388 -0.379189
0.153950 -0.206260 0.434218
-0.151507 -0.051775 0.527049
-0.062864 -0.122937 0.131744
0.172332 -0.390390 -0.130015
-0.137746 0.037365 -0.095388
-0.005883 0.001300 0.509708
0.078219 0.316413 0.371417
-0.151218 0.108746 -0.367929
0.166396 -0.126694 0.369787
-0.101864 0.352245 -0.470016
0.193028 0.284752 0.257060
0.245418 0.071643 0.204063
0.129533 0.237210 0.021335
0.149466 -0.495764 -0.118917
-0.230853 0.564786 -0.693033
0.107423 0.304033 -0.407157
-0.064005 -0.138016 0.058583
0.072546 -0.132503 -0.292768
-0.169695 0.114676 0.073558
0.006879 0.148506 -0.449182
0.129113 -0.257480 -0.248760
-0.117778 0.231929 -0.245171
0.037425 0.491908 -0.502367
-0.342580 0.445769 -0.731180
-0.122221 -0.302285 0.682410
-0.057113 0.375427 -0.336477
-0.153003 0.094630 0.307599
-0.168648 0.378860 -0.744293
0.008405 0.321758 -0.538116
0.144136 -0.274139 -0.150051
0.055622 -0.031314 0.409635
-0.089480 0.471115 -0.668003
-0.149660 0.155698 0.095292
0.204531 0.253991 0.479813
-0.249156 0.333762 -0.702110
-0.080823 -0.452678 -0.271237
-0.040112 0.240744 0.110333
-0.157694 -0.092714 -0.289822
0.231967 0.266585 0.313145
-0.161093 -0.011441 -0.223365
0.033604 -0.055922 0.279178
-0.409744 0.305180 -0.727228
0.187935 -0.302992 0.464259
0.111693 -0.224961 -0.176772
-0.291867 0.505702 -0.608258
0.230067 -0.126783 0.363733
0.248535 -0.113917 0.422966
-0.172802 0.156525 0.417215
-0.123780 0.335913 -0.605217
0.137831 -0.375582 -0.193800
0.206280 -0.559838 -0.154979
0.159029 -0.004746 0.515662
0.180319 0.210629 -0.264546
-0.085000 -0.636962 0.714200
0.201904 -0.322214 0.470027
0.156731 -0.326681 -0.229896
-0.182343 0.611328 -0.706541
0.094502 0.004479 -0.402553
-0.154720 -0.093955 0.526129
-0.083340 0.549044 -0.658784
-0.161142 0.137939 0.153159
-0.135906 0.387412 -0.554998
0.209114 0.106445 -0.204631
-0.022521 -0.141603 0.120135
-0.085199 0.252732 0.219502
-0.214553 0.377869 -0.755543
-0.087423 0.097929 0.581069
0.270817 0.160052 0.359940
-0.414174 0.296143 -0.777765
0.077436 0.348937 -0.267747
-0.046564 -0.148532 0.022891
0.175234 -0.333891 -0.222112
0.247549 -0.142448 0.398795
-0.190053 0.589125 -0.704226
-0.064342 -0.475304 0.694997
0.181466 -0.632575 0.538182
0.028978 0.492783 -0.374093
-0.339668 0.424568 -0.759656
0.220575 0.015609 -0.236246
0.173588 -0.045295 0.496230
0.186408 -0.122410 -0.222309
0.089359 -0.118429 -0.320823
-0.231031 0.571826 -0.583957
0.191956 0.239197 0.512304
0.103323 0.111033 0.568876
0.116819 -0.155348 -0.129671
0.137847 0.259333 0.519877
0.003614 -0.135684 -0.282585
0.195694 -0.623888 -0.206096
0.073327 0.367110 -0.295256
0.039085 0.497813 -0.466906
-0.115425 -0.270882 -0.244320
0.242254 0.106351 0.019796
-0.114811 -0.039574 -0.083324
-0.162269 0.194700 0.399050
-0.148206 -0.638872 0.679196
-0.071641 -0.397646 -0.312668
-0.079449 -0.476488 0.672847
0.016259 -0.028073 0.375068
0.060351 -0.153980 -0.166802
-0.113591 -0.445807 -0.272381
-0.146941 0.118319 0.532357
-0.099145 -0.618625 0.639108
-0.097680 0.046552 -0.410269
0.161979 -0.105388 0.044622
0.056277 0.288852 0.205397
0.245149 0.228084 0.457307
-0.366334 0.309816 -0.711561
0.130472 -0.079021 -0.349674
-0.381468 0.329679 -0.707783
0.253811 0.093650 0.051695
0.032577 0.267031 0.521108
-0.082740 -0.307392 -0.323291
0.278499 0.103368 0.368234
-0.026616 -0.155155 -0.039340
-0.112713 -0.207639 -0.312459
-0.139647 0.200324 -0.270055
0.197874 0.159937 -0.222645
0.224795 0.186492 0.087816
0.187347 -0.278843 -0.194143
0.206209 0.074759 -0.185785
-0.120806 -0.644896 0.659568
-0.092320 0.587022 -0.636336
0.031635 -0.012577 0.481274
-0.066972 -0.062029 0.518095
0.166579 0.230965 -0.270794
-0.047378 -0.106343 -0.341636
-0.085583 -0.103845 -0.189121
-0.090100 0.389973 -0.636837
-0.110222 0.477747 -0.463462
0.213268 -0.630557 -0.130291
0.228804 0.069579 0.514617
-0.052924 0.224837 0.048139
0.192820 -0.243238 0.426358
-0.301804 0.355015 -0.777852
-0.193877 0.598890 -0.685569
0.125778 0.290652 0.214392
-0.018974 -0.096036 -0.346876
-0.042590 0.573534 -0.487506
-0.092284 0.268938 -0.281333
-0.032918 0.228770 -0.040259
0.015473 0.267729 -0.510896
0.196053 -0.005779 0.521631
-0.013384 0.189127 0.587052
0.106401 0.256395 -0.122224
-0.048217 0.203961 0.575408
-0.140541 0.232892 0.338064
0.132812 -0.113791 -0.027904
0.010748 0.208398 -0.479930
0.178959 -0.635689 -0.216173
0.221371 -0.360626 0.501187
-0.011038 0.559414 -0.464586
-0.123499 -0.055751 0.192579
0.265682 0.203824 0.346188
-0.125003 0.407632 -0.716977
0.194974 -0.037435 0.189115
0.025171 0.499426 -0.539299
-0.093307 0.316511 -0.477421
0.227358 -0.034186 0.299668
-0.031617 -0.063994 -0.370654
0.205430 0.099402 -0.347394
-0.162815 0.593955 -0.590846
-0.235221 0.508261 -0.591532
0.101901 0.245616 -0.090063
-0.075315 -0.563826 0.682213
0.161126 -0.173858 0.433721
0.225958 0.172800 0.522930
-0.164757 0.091377 -0.003507
-0.229558 0.352653 -0.586680
-0.131673 -0.351821 -0.277981
-0.157624 -0.041433 0.063208
-0.166451 0.138809 0.481776
-0.137827 0.471519 -0.729609
0.122585 0.097511 0.566773
0.095802 0.319154 -0.453721
0.220281 0.253876 0.244551
-0.073121 0.206570 0.557800
-0.139978 -0.088595 -0.219242
0.204229 0.055541 -0.099378
0.206899 0.189436 0.038142
0.129603 -0.367887 -0.176150
0.144608 0.261005 0.152467
-0.045873 0.243516 0.137139
0.260902 0.078685 0.095405
0.055603 -0.013190 -0.397255
-0.105911 -0.274695 -0.225701
-0.164511 0.569868 -0.554537
-0.052915 0.335238 -0.300344
-0.152150 0.372817 -0.731728
-0.023805 0.309178 0.349192
-0.016857 0.236513 -0.027081
-0.143001 0.086983 0.263306
-0.139112 0.466259 -0.510186
0.257987 0.068988 0.067927
0.180845 -0.062384 0.172285
0.236057 -0.251107 0.460014
-0.028303 0.012133 0.545498
0.214932 0.093819 -0.255401
0.158482 -0.133177 -0.302135
-0.136999 0.547087 -0.517749
-0.107560 -0.530645 0.668483
0.263692 0.148733 0.297101
-0.167711 0.062365 -0.004234
-0.117280 0.254770 0.287727
-0.166508 0.033420 -0.318793
-0.099855 -0.051366 -0.098760
-0.115658 0.459024 -0.705416
-0.188076 0.604546 -0.655408
-0.168360 0.477751 -0.561246
0.152526 0.153762 0.578619
-0.127947 0.197108 -0.203984
0.013131 0.510404 -0.388677
0.189185 -0.282704 0.538642
0.128183 -0.306932 -0.148072
-0.060028 -0.108896 0.170758
-0.108525 0.375019 -0.690733
0.087204 0.303255 0.243637
0.213339 -0.056357 0.046521
0.227626 0.103503 -0.023566
0.221601 -0.266530 0.450256
0.051497 0.150662 0.577525
0.221483 0.105136 0.542791
-0.114562 -0.183389 -0.318432
-0.111640 -0.422588 -0.316524
0.252511 -0.036536 0.439916
0.062930 0.276651 0.169305
0.068307 0.383455 -0.490914
-0.155997 -0.093346 -0.267667
-0.010608 0.256019 0.533096
0.262673 0.123202 0.297971
-0.025722 0.081228 0.603698
0.192854 0.177069 -0.022641
0.243476 -0.633065 0.519480
-0.140779 -0.039379 0.557441
0.030694 -0.157171 -0.098077
0.057637 0.233672 0.557415
0.086074 0.022627 -0.410870
-0.139606 0.120695 -0.069393
0.169075 -0.518812 0.556610
-0.068481 0.190683 0.571420
0.230606 0.077778 0.243627
0.098691 0.316636 0.303691
0.194673 0.054643 -0.133303
-0.053580 0.239362 0.540547
0.174575 0.179705 -0.075576
0.087720 -0.176177 -0.227427
-0.068745 -0.519435 -0.334840
-0.109090 0.335767 -0.563277
0.256077 0.182557 0.275103
-0.097607 0.255772 -0.243817
0.198056 -0.043581 0.499200
-0.211154 0.578045 -0.580315
-0.066111 0.212437 0.005641
-0.107045 0.557907 -0.501634
-0.117154 -0.165448 -0.244167
-0.163365 0.095145 -0.252910
-0.078693 -0.476902 -0.277789
0.149834 0.113525 -0.420144
0.180581 -0.409645 0.541368
-0.037689 0.413895 -0.594631
-0.188886 0.405294 -0.557542
0.192744 -0.468673 0.581073
0.125315 0.004133 -0.396740
-0.068279 -0.111897 -0.341241
0.156685 -0.251781 -0.255323
-0.050976 0.217244 -0.042881
-0.223853 0.628381 -0.599371
0.179388 -0.331718 0.483199
-0.217894 0.396605 -0.566402
-0.109524 0.202977 0.167287
-0.099806 -0.202030 -0.217726
-0.081181 0.237480 0.520305
-0.321367 0.476381 -0.703572
0.229348 -0.284444 0.488944
-0.097408 -0.056056 0.587964
0.142130 0.214144 -0.064637
-0.068755 -0.170003 0.652611
-0.144417 0.198668 0.285462
0.030007 0.506502 -0.401046
0.079692 -0.110716 0.186208
-0.089704 0.186491 0.556445
-0.065987 -0.500002 -0.305991
0.142474 0.275302 0.493077
-0.197539 0.463295 -0.568906
-0.132657 0.034094 0.549325
-0.139273 0.446336 -0.536766
0.162854 -0.124526 0.397237
0.130635 0.277646 -0.300664
0.087818 -0.053811 -0.383354
0.038737 0.326636 -0.174200
0.078285 -0.140650 0.106708
0.173740 0.259241 0.187555
0.156727 -0.177451 -0.171718
-0.112899 -0.070174 0.583520
-0.286915 0.385071 -0.773515
0.274549 0.096044 0.337616
-0.068463 -0.238137 0.678626
-0.111618 -0.443645 -0.317901
-0.081417 0.220283 0.122822
0.210063 -0.021592 0.184198
-0.074910 -0.184129 0.669195
-0.087473 0.142775 0.575144
-0.274572 0.508796 -0.723075
0.026673 0.107493 0.585417
0.203349 0.145249 -0.293986
-0.178597 0.604663 -0.622834
0.253393 0.225882 0.292532
0.227639 0.195654 0.168661
-0.358276 0.288259 -0.773998
0.022573 0.303519 0.438536
0.100128 -0.134930 -0.291039
0.227639 -0.489095 0.579248
0.206292 0.109477 -0.183999
0.031932 0.515046 -0.451189
-0.140218 0.335750 -0.624342
-0.069639 -0.264764 0.601984
0.065420 0.243416 -0.005387
0.072117 -0.144734 -0.258858
0.191068 0.004702 -0.343300
0.180936 -0.010886 -0.112496
0.169572 0.089205 -0.406771
0.239163 0.165048 0.211148
-0.114796 -0.647197 -0.359797
0.206335 0.134228 -0.059850
0.022604 0.014358 -0.402756
0.133242 -0.087773 -0.099603
0.241934 -0.091377 0.436049
-0.163689 0.011281 -0.226762
0.070239 0.203062 0.570482
-0.097514 0.190138 -0.093650
0.045143 0.452491 -0.338737
-0.134237 -0.005562 -0.177393
-0.383657 0.300664 -0.720395
0.108244 0.306148 -0.301314
0.186232 -0.315784 -0.221141
-0.033312 -0.031814 0.558719
-0.144147 0.008811 0.544459
0.031613 0.468821 -0.343862
0.253050 0.012272 0.098785
0.107848 0.285603 -0.181864
0.186748 0.300914 0.331436
0.032723 0.291806 0.217693
0.242545 -0.060322 0.449098
-0.070590 0.258076 0.498276
0.163336 0.236355 -0.294941
-0.025525 0.553355 -0.588424
-0.071807 0.033730 -0.412231
0.207793 -0.633960 0.475032
-0.114369 -0.224248 -0.249872
-0.058181 -0.106949 -0.112538
-0.002224 0.279677 -0.523083
0.032642 -0.034924 0.423332
0.190913 0.156887 -0.159588
0.176802 -0.086686 0.114958
0.010648 0.258488 0.532441
-0.085162 0.276148 -0.253295
-0.127659 0.088338 0.554716
0.121610 0.269163 0.155740
-0.182601 0.014639 0.444630
0.011791 -0.052681 -0.375701
-0.113527 -0.163015 -0.324938
0.248178 0.220868 0.268699
-0.144665 0.141661 0.526207
-0.107111 -0.009652 0.274812
-0.230968 0.608101 -0.611474
0.113652 0.305429 0.430658
0.047366 -0.027666 0.313351
0.209666 -0.607779 -0.122631
-0.203436 0.381959 -0.562499
-0.023527 0.289305 -0.138059
0.188273 0.232602 0.150527
-0.051911 0.232832 0.094302
-0.091394 0.280925 0.361998
-0.097398 -0.550715 0.666432
-0.060154 0.277418 -0.183376
0.064040 -0.055188 -0.380263
-0.065060 -0.609766 -0.367343
-0.136394 -0.008856 0.553500
0.141334 -0.414541 -0.162359
-0.114591 -0.612844 -0.316947
0.070420 0.181042 0.575117
-0.251995 0.431585 -0.768475
-0.188946 0.376822 -0.749291
0.034468 0.308122 0.421350
-0.374853 0.405590 -0.720872
0.136649 -0.132274 -0.139645
0.208472 0.122286 -0.284326
-0.124072 0.163565 -0.017305
-0.324559 0.392742 -0.660409
-0.040415 0.125641 0.602881
0.026884 0.279192 -0.099465
-0.168604 0.102374 0.029643
0.034628 -0.152415 -0.170681
-0.288200 0.328467 -0.729509
0.186872 -0.376193 -0.184629
0.217919 0.103319 -0.052727
-0.099210 -0.641444 -0.416083
0.242026 -0.024902 0.311991
-0.094487 -0.294762 -0.225911
0.084563 0.046207 0.531030
-0.074528 -0.121468 -0.041771
-0.243419 0.562102 -0.675677
-0.067076 0.220058 0.064023
-0.171467 0.004191 0.046150
-0.112277 0.254581 0.431722
0.234339 -0.027921 0.062015
-0.125837 -0.629940 -0.323328
-0.022876 0.308491 0.323479
-0.122975 -0.578801 0.711747
0.248114 0.000403 0.119489
0.051934 0.423106 -0.310785
0.167759 -0.582190 0.516987
-0.247148 0.568099 -0.651892
0.249165 0.152870 0.117427
0.200237 -0.475353 0.516771
-0.087095 0.497904 -0.667751
0.272141 0.038628 0.332531
0.175385 -0.456988 0.538633
0.194294 0.164145 -0.337023
0.098129 0.297612 -0.455028
0.006561 0.110279 0.596807
0.072344 -0.096476 0.216747
0.237749 -0.153476 0.456106
0.028464 0.374810 -0.234883
-0.064329 -0.157776 0.635838
-0.105042 0.254430 0.454242
-0.044825 -0.071753 0.458949
0.050345 -0.152746 -0.185444
0.275003 0.165766 0.409987
-0.205867 0.362823 -0.739196
-0.003538 -0.156225 -0.083512
0.017125 -0.159056 -0.027415
-0.054530 -0.162383 0.615002
-0.140246 -0.003849 0.340151
0.143315 -0.365197 -0.141487
0.218678 -0.633871 0.533497
0.253678 0.061086 0.045647
0.186779 -0.430021 -0.174875
-0.243881 0.477182 -0.591205
0.176696 -0.080910 0.135117
-0.215191 0.621591 -0.635597
0.095951 -0.105228 -0.341283
0.001881 0.473158 -0.343183
0.003960 0.282619 0.202129
-0.107645 0.376092 -0.645326
-0.330667 0.462267 -0.718189
0.253929 0.020425 0.078325
-0.164514 0.059019 0.522651
-0.142908 0.166112 0.169236
0.246295 -0.627771 0.497214
-0.124046 0.188707 0.161580
-0.173504 0.034242 -0.262800
-0.334158 0.406866 -0.770895
0.239093 0.004441 0.278614
0.057993 -0.055385 0.278687
-0.131170 0.240186 0.394406
0.122613 0.278879 -0.231608
0.124071 0.118494 0.574330
-0.128823 0.141803 -0.075677
-0.163923 0.615424 -0.716695
-0.078904 0.226613 0.154539
0.122294 -0.345494 -0.176604
0.214994 -0.047545 -0.267436
0.146843 -0.592151 -0.161970
0.099042 0.320533 -0.365544
-0.123769 -0.362609 -0.298766
0.236936 -0.471304 0.546443
-0.174444 -0.019836 0.470773
0.217284 -0.061715 0.481596
0.030927 0.056808 -0.416441
0.247841 -0.093830 0.409007
-0.129244 0.180074 0.216975
-0.254180 0.480334 -0.767184
0.238018 -0.016506 0.127260
-0.070645 -0.476485 -0.304982
-0.129167 0.474910 -0.490287
-0.126471 0.210568 0.246220
0.122907 0.279416 0.185454
0.143771 0.104601 0.573258
0.082325 0.235056 -0.464969
0.220447 -0.557397 0.552850
-0.135691 -0.048117 0.419113
-0.068137 0.107354 -0.424925
-0.121116 -0.644442 0.680886
-0.141908 -0.069685 0.089276
0.039675 0.316262 0.349348
-0.056983 -0.137818 -0.169514
0.236207 -0.168810 0.397924
0.063790 -0.037337 0.300765
-0.066618 0.293719 0.310231
0.254568 0.198776 0.472787
0.212134 0.047167 -0.076439
-0.107762 -0.035522 0.238480
-0.131910 0.446680 -0.514927
-0.120135 0.016591 -0.146063
-0.191368 0.473881 -0.764369
-0.307291 0.321182 -0.749335
0.192304 -0.024896 -0.073600
-0.154441 0.166025 -0.275032
0.034022 -0.015543 -0.393475
-0.119772 0.163858 -0.038090
0.097912 -0.028830 0.377515
-0.096588 0.197339 -0.118281
0.245464 -0.595536 0.518042
-0.127071 -0.509999 0.720745
-0.065107 -0.045999 0.503789
-0.000905 0.255229 0.116767
0.120149 0.023008 -0.407329
0.177820 -0.243258 -0.231700
0.158281 -0.066893 0.202730
-0.236330 0.538872 -0.726847
0.115101 0.199571 0.571347
0.203327 -0.481521 -0.148065
-0.154615 0.135509 -0.232697
-0.055357 0.548602 -0.456783
0.081227 0.245159 0.017186
-0.015960 0.445789 -0.596357
-0.016365 0.484729 -0.364480
-0.131314 0.386401 -0.719340
-0.116239 -0.618284 -0.400396
0.029833 -0.041515 0.294859
0.169452 -0.520249 -0.167127
-0.211513 0.572724 -0.707441
-0.086439 0.155533 -0.412665
-0.077390 -0.317870 0.693572
0.175120 -0.050756 -0.071934
-0.101181 -0.111799 0.599544
-0.028590 -0.049193 0.457608
-0.153560 0.154055 -0.325004
-0.036947 0.331372 -0.255082
0.180363 -0.421769 -0.122589
0.178056 -0.541078 0.558658
0.061649 0.264974 0.526067
-0.262096 0.545285 -0.630713
0.069046 -0.109949 -0.331787
0.262189 0.170527 0.299017
0.161449 0.221704 0.020618
0.146929 -0.104219 0.136156
-0.127392 -0.105851 0.580872
0.161506 -0.104040 0.388445
-0.094977 0.225008 -0.379835
-0.101594 -0.145917 -0.329465
0.224552 0.239372 0.477194
0.124078 -0.282367 -0.236340
-0.105465 0.177340 -0.077991
-0.067336 -0.282026 0.614084
0.277629 0.090601 0.385418
-0.347299 0.391484 -0.778909
-0.077241 -0.220942 0.570938
0.236049 -0.574274 0.532592
0.234483 -0.029681 0.083978
0.058016 0.247254 -0.039601
0.123220 -0.040965 0.461760
0.008512 0.296923 0.456426
-0.076076 -0.340622 0.696096
-0.215700 0.581701 -0.687671
-0.086062 -0.123425 0.073108
0.154298 -0.560977 -0.149081
0.023493 0.349802 -0.541032
-0.163774 0.110119 0.332600
-0.112208 -0.017660 -0.383439
-0.109550 -0.598593 -0.391795
0.152846 -0.367429 -0.208009
-0.056355 0.533337 -0.442171
0.033893 -0.156906 -0.072798
0.046387 -0.155673 -0.114865
-0.252224 0.376706 -0.588496
0.247044 0.036704 0.482745
-0.162682 0.135405 0.130727
-0.321280 0.459285 -0.659918
0.047622 0.472034 -0.382500
-0.114000 -0.061528 -0.182421
-0.129761 -0.476382 0.688286
-0.137929 -0.599250 0.659994
-0.123859 0.238815 0.445442
0.064772 0.394743 -0.310848
0.074231 0.379557 -0.324680
0.227869 -0.266292 0.499480
-0.017779 -0.133972 -0.288869
-0.413964 0.330593 -0.726537
-0.163317 0.133533 0.332475
-0.002273 0.026001 0.542012
-0.041231 0.329323 -0.561053
-0.011184 -0.030714 0.377659
0.277948 0.079616 0.361696
-0.081029 -0.609794 -0.388021
0.172254 -0.625404 -0.118908
0.198333 0.128841 -0.359052
-0.125466 -0.340542 -0.295715
-0.045941 0.493962 -0.400570
-0.074888 -0.589903 -0.371351
0.020618 0.314840 0.358814
0.219567 0.206778 0.514775
-0.112644 -0.057322 0.416595
-0.106856 0.066873 -0.410227
-0.159088 0.127361 -0.251656
-0.105277 0.242479 -0.228459
0.208543 -0.599488 0.473916
0.167940 -0.208536 0.517544
-0.116326 -0.485772 -0.318925
-0.090505 0.580104 -0.515524
-0.146970 0.103966 -0.193062
0.102127 -0.034359 0.461321
0.203379 -0.495663 -0.102772
0.240624 -0.001326 0.146808
-0.113162 -0.006890 0.325742
-0.349233 0.421341 -0.693279
0.107054 -0.093685 0.203641
-0.152730 0.026210 -0.355071
0.093059 0.340187 -0.361123
-0.379404 0.357686 -0.708003
-0.048285 0.433514 -0.361980
0.155462 -0.553935 -0.128994
-0.173629 -0.032114 -0.284758
-0.077020 0.296466 -0.381869
0.233846 -0.195974 0.429836
0.202454 -0.540406 -0.118033
-0.174768 0.119846 0.458708
-0.091667 -0.453905 0.667234
-0.112736 -0.400938 -0.314962
0.078082 -0.149421 -0.005352
0.106514 0.215393 -0.439533
0.213210 -0.204378 0.490931
-0.112638 0.179148 -0.142524
-0.001309 0.307999 0.407298
0.007144 0.521762 -0.560590
-0.174158 0.050488 0.024669
0.174118 0.296998 0.410550
-0.035273 0.512234 -0.405058
0.104471 0.163037 -0.435580
-0.219204 0.532884 -0.592349
0.143973 -0.120224 -0.314841
-0.037202 0.310084 -0.211300
-0.032465 0.314434 -0.548885
0.193775 0.043056 -0.366107
0.184896 0.160251 -0.098968
-0.140468 0.091167 -0.386921
-0.030960 -0.052936 0.430849
-0.297089 0.323662 -0.704961
-0.141834 0.141323 0.249745
-0.157541 -0.083180 -0.245766
-0.302082 0.405979 -0.624492
-0.069110 -0.178594 -0.308367
0.240975 0.112824 0.232936
-0.155175 -0.046980 0.112278
-0.356766 0.372421 -0.691421
0.172688 0.131554 0.576026
-0.142030 -0.028553 -0.030719
-0.155686 0.201914 0.418860
-0.042263 -0.149624 -0.024544
-0.214483 0.465195 -0.770190
-0.161297 0.016790 0.531039
0.061855 0.256342 0.095075
-0.045045 -0.057088 0.577168
-0.090202 -0.138435 -0.195917
0.106086 0.302290 -0.347940
0.191737 -0.525663 0.581506
-0.048443 0.234122 -0.085555
-0.164098 -0.025223 -0.315605
0.102177 -0.210456 -0.190367
0.152271 0.309039 0.374835
0.150796 -0.098836 -0.024444
-0.297253 0.380291 -0.625042
0.162772 0.236892 -0.250575
0.194085 -0.049078 0.277153
0.229714 0.174072 0.069643
-0.338108 0.454428 -0.700143
0.005825 0.546573 -0.509559
-0.292320 0.522632 -0.622424
-0.059900 -0.206064 0.578488
0.106560 -0.135741 -0.096346
-0.116437 -0.231341 0.626548
0.178573 -0.340634 0.531469
-0.128288 -0.008992 -0.088273
0.171846 -0.226872 -0.210445
0.266222 0.160790 0.318616
0.155684 -0.292512 -0.145440
0.246508 0.134226 0.256353
-0.044192 -0.036799 0.538880
0.195471 -0.024258 0.210788
-0.140807 0.536892 -0.730222
-0.076480 0.268583 -0.493770
-0.213641 0.605043 -0.589423
-0.016279 -0.017617 0.488436
0.082034 0.360144 -0.322305
-0.428155 0.315596 -0.777782
-0.120578 -0.464414 0.673366
-0.138276 0.351644 -0.675361
0.230492 -0.003139 0.169617
0.228846 0.150087 0.025490
-0.090367 -0.156117 0.636086
-0.156012 0.442598 -0.558363
-0.281811 0.351747 -0.766868
-0.053617 -0.296015 -0.305678
-0.128780 -0.151067 -0.255292
0.255533 0.138066 0.134413
-0.060047 0.297872 0.364232
-0.114439 -0.251180 -0.268139
0.227301 0.127811 -0.005519
-0.090591 -0.413125 -0.255348
0.031976 -0.095423 -0.348117
0.022295 0.485896 -0.555356
-0.026645 0.306150 0.386947
-0.158878 0.634472 -0.724030
0.002141 0.244425 0.055424
-0.082855 -0.095751 0.595172
0.119814 0.256666 -0.412069
-0.116600 0.357614 -0.629189
-0.095492 -0.583234 -0.377479
0.218319 0.004260 -0.300896
-0.031235 -0.024486 0.581147
0.085085 0.359390 -0.431422
-0.050313 0.184141 -0.458145
-0.128380 -0.373582 -0.277258
-0.002907 0.475742 -0.592911
0.038220 0.415544 -0.283590
0.216080 0.073621 -0.292837
0.108706 0.306561 -0.269006
0.173639 -0.295964 -0.159661
-0.146995 0.019542 0.320452
0.191552 -0.401003 0.559474
0.089724 -0.146450 0.030338
0.050567 -0.143700 -0.255941
-0.076986 -0.427247 0.678237
-0.065154 0.253044 0.194238
-0.150393 0.015484 -0.050498
-0.109049 0.089593 -0.409575
0.254859 0.063805 0.176154
0.103442 -0.134465 0.100661
-0.170033 0.063345 -0.298606
0.275861 0.068695 0.383811
0.259938 0.116570 0.129612
-0.134455 0.596816 -0.580826
-0.078676 -0.449018 0.729373
-0.077777 -0.108383 0.517088
-0.062227 -0.037206 0.384834
-0.053604 -0.259570 0.617231
0.152945 -0.199860 -0.165428
-0.174641 -0.018675 0.493167
0.220198 -0.320951 0.481462
0.245015 0.113381 0.261395
0.204232 0.155827 -0.033180
0.242264 0.082294 0.266107
-0.170350 0.059940 0.190584
0.220912 0.083789 0.538344
-0.137581 -0.175751 0.520649
-0.089201 -0.279676 0.606548
-0.144551 0.220370 0.412349
-0.078761 -0.261401 -0.228115
-0.038016 0.375407 -0.299416
-0.244594 0.417333 -0.579803
-0.322063 0.309774 -0.732964
-0.060581 0.556469 -0.632171
-0.417451 0.295799 -0.749596
0.001849 0.302106 0.258719
-0.190215 0.330460 -0.659389
0.054312 -0.108264 0.200419
-0.107928 0.236459 0.487623
-0.029638 0.305431 0.302777
-0.065648 0.204463 -0.442194
0.052050 0.467000 -0.444741
-0.122193 -0.049827 -0.052068
0.176923 0.210725 -0.325188
0.258802 0.081013 0.290208
-0.188212 0.547907 -0.568636
-0.118697 -0.498814 -0.298461
-0.039881 0.285786 0.238544
-0.119481 -0.183655 -0.265149
0.166054 -0.154956 0.414514
-0.076605 0.382475 -0.388646
0.266449 0.207767 0.367678
-0.062260 0.268123 -0.162705
0.075249 0.396154 -0.425272
-0.167489 0.090653 -0.317072
-0.040044 0.140240 -0.444428
0.163913 -0.240124 0.516010
0.210121 0.055877 0.546259
-0.124401 -0.018663 0.574431
-0.037636 -0.132628 0.133994
-0.320805 0.317370 -0.706725
0.069131 0.089198 0.555878
-0.059918 -0.029575 0.359245
0.132803 -0.066516 0.263973
-0.120943 -0.384581 0.672980
-0.141462 0.161415 0.205451
0.197701 0.041511 -0.114240
-0.161829 -0.010570 0.015394
-0.073379 -0.452630 0.683107
-0.090606 -0.067186 0.492957
-0.125204 0.019271 -0.120947
0.130919 -0.021678 -0.374452
-0.073477 0.282353 -0.362588
-0.265052 0.332251 -0.716693
-0.160794 0.058887 0.322197
-0.150688 0.606055 -0.700415
-0.132422 -0.029519 -0.180853
-0.081824 0.253531 -0.352729
-0.022258 0.328170 -0.216320
0.076143 -0.033787 0.423713
-0.133503 0.083581 -0.130630
-0.064413 0.229409 -0.104456
0.115584 0.260327 -0.146767
-0.061383 -0.093287 -0.356157
-0.024496 0.059973 -0.415081
-0.006440 0.562559 -0.493521
-0.086116 0.354337 -0.419555
0.262265 0.099989 0.300099
-0.051950 -0.036852 0.587767
-0.065137 -0.357327 -0.260238
-0.089921 -0.576028 0.660694
-0.114327 -0.200834 -0.250720
0.157478 -0.291439 -0.244544
0.176353 -0.065913 0.487366
0.141240 -0.612511 -0.172270
-0.165894 0.341828 -0.692353
0.048314 0.367057 -0.527255
0.113427 0.284065 -0.410190
0.162463 -0.062552 -0.172029
0.155410 -0.256392 0.485768
0.122250 0.272019 0.505459
-0.172961 0.040779 0.177137
-0.008551 0.258411 -0.073737
-0.353470 0.351935 -0.687101
-0.187147 0.401378 -0.759484
-0.101913 -0.328843 -0.321272
0.230966 -0.230703 0.484019
0.153428 -0.044296 -0.129934
0.118971 -0.183325 -0.269609
0.184007 -0.639769 -0.130218
-0.090723 0.529024 -0.673280
0.121605 0.314216 0.372396
-0.064099 -0.109140 -0.091770
0.208619 -0.028285 -0.033453
0.196487 -0.319809 0.546599
-0.087050 -0.122489 0.011145
-0.269608 0.419371 -0.769937
0.150629 -0.234319 0.474370
-0.165223 0.182061 0.419512
0.176378 -0.489830 -0.172107
-0.111979 -0.241574 0.669867
0.224263 0.086239 -0.042063
-0.105828 -0.477340 -0.267425
0.050705 0.376049 -0.248507
-0.144856 0.344627 -0.574564
-0.015703 -0.106037 0.206201
-0.192308 0.331449 -0.614978
0.139993 -0.121226 0.045510
0.107962 -0.125412 -0.077192
-0.113835 0.594474 -0.559896
-0.014845 -0.157797 -0.008353
-0.271795 0.460559 -0.763240
0.022089 -0.132311 -0.291846
0.052620 0.305948 0.257674
0.214585 0.078713 -0.230823
-0.176918 0.052646 0.498617
0.203460 0.119282 -0.340678
0.125498 0.265108 -0.363692
0.036571 -0.024511 0.363659
0.168016 0.113038 -0.408146
-0.054733 -0.345758 -0.293729
0.080908 -0.134123 0.127717
0.114161 0.193503 -0.430568
0.131049 -0.084807 0.202226
0.090480 0.330447 -0.266204
-0.117427 0.421413 -0.501285
-0.015103 0.425361 -0.586545
0.212436 0.098866 -0.277701
-0.042447 0.574924 -0.581517
0.209601 -0.040143 -0.013573
0.240432 -0.176668 0.424249
-0.296152 0.485032 -0.610588
-0.078749 -0.441509 -0.318349
-0.183099 0.030084 0.375751
0.230885 0.255138 0.270312
-0.078570 -0.156267 0.512483
0.070984 0.326623 -0.201871
-0.219444 0.468434 -0.576916
0.225247 -0.553398 0.515563
-0.114518 0.393973 -0.703235
0.180087 -0.120291 0.490953
0.177645 0.191762 -0.175431
0.140775 -0.627758 -0.157051
-0.078521 -0.064119 0.228056
-0.094771 -0.581300 -0.319239
-0.164360 0.406817 -0.749292
-0.197002 0.619127 -0.616552
-0.073208 -0.090669 0.193696
0.154077 -0.062233 0.266256
0.203134 0.032705 -0.095850
-0.132502 0.004485 0.321910
-0.177979 0.041778 0.155432
0.050904 -0.102456 -0.341270
0.256411 0.025654 0.464907
0.224295 -0.599533 -0.161817
-0.171852 0.071136 0.014625
0.200754 -0.572026 0.552405
0.088351 -0.141842 0.085923
0.256359 0.154155 0.491970
-0.269357 0.520637 -0.606885
-0.072513 -0.210103 -0.225470
0.119371 0.234528 -0.095667
0.153885 -0.109799 0.092716
-0.152223 0.081087 -0.370906
-0.194083 0.568172 -0.724767
0.170365 -0.144712 0.439548
0.131001 -0.113114 -0.127409
-0.019031 0.568664 -0.535611
0.101246 0.252518 0.073749
0.137546 0.216854 -0.086940
0.172130 -0.260869 0.445542
0.205270 -0.010291 -0.192371
-0.072012 -0.451008 -0.300661
0.202283 0.292481 0.346057
0.275655 0.062993 0.434223
-0.046008 -0.196115 -0.262977
0.120131 0.271211 -0.172150
0.080763 0.370685 -0.345089
0.267088 0.153547 0.471137
0.231765 0.009295 -0.005587
-0.067393 -0.135735 -0.004358
0.023660 0.162594 -0.454291
-0.068322 -0.516449 0.726729
-0.162175 0.042906 -0.337524
-0.086399 -0.077909 -0.365027
-0.144530 0.514588 -0.512168
-0.030382 0.250174 -0.087527
0.096242 -0.086384 0.223879
-0.037136 -0.144006 -0.280078
0.277286 0.090677 0.430965
0.226070 -0.035123 0.121245
0.027837 0.511211 -0.508567
-0.099452 0.601083 -0.620604
0.020644 0.531044 -0.441451
0.210683 -0.359490 0.551366
-0.073247 -0.434446 -0.280046
0.206655 0.285819 0.296551
-0.124929 0.359862 -0.691932
0.076771 -0.147862 -0.056707
0.208741 -0.297645 0.461360
-0.076022 -0.525274 0.680112
-0.122749 -0.286708 -0.262245
0.075935 -0.096537 -0.350084
-0.028377 0.268361 0.188410
0.097446 0.276019 -0.456965
0.198298 -0.044432 0.169590
0.181606 0.278513 0.228837
-0.286865 0.431452 -0.765615
0.195393 -0.031396 0.252854
0.153299 0.248125 0.528584
-0.064105 -0.291874 -0.244919
-0.038342 -0.058471 0.258748
-0.065238 0.593226 -0.581102
0.136842 -0.386224 -0.158364
0.183256 0.116460 -0.393223
-0.015208 0.116397 -0.435106
-0.033664 0.422586 -0.333115
-0.057748 0.292555 0.417033
-0.118383 -0.556447 0.714159
-0.151242 -0.073744 0.517516
-0.055195 -0.302404 -0.261614
-0.092541 -0.320782 0.628400
0.163623 -0.075013 0.179471
-0.163387 0.156026 0.337535
0.070342 -0.155555 -0.099675
-0.020243 0.079815 -0.420807
0.274372 0.074286 0.406273
-0.109327 -0.077431 0.173366
0.199297 0.163923 -0.271740
-0.113536 -0.211700 -0.232347
0.204980 0.163492 0.556666
0.269697 0.189046 0.421306
0.058504 0.446259 -0.389231
-0.151806 -0.013134 -0.020469
-0.115293 0.239586 0.467639
0.193739 -0.421307 0.565856
-0.133437 0.155154 -0.175488
0.223453 -0.409948 0.515923
0.019363 0.299163 0.243073
0.186067 -0.223461 0.414787
0.140024 -0.636382 -0.177147
-0.095136 0.324275 -0.516299
-0.163496 0.114467 -0.271212
0.173083 -0.086681 0.483211
0.174079 -0.164292 -0.269534
-0.156192 0.049672 -0.357009
-0.100060 -0.644213 0.670108
0.154008 -0.441297 -0.123692
-0.026752 0.546716 -0.440838
0.180930 0.226937 0.094786
-0.076716 -0.569975 -0.355995
0.218096 0.213981 0.192110
0.187916 -0.410904 -0.139894
0.049831 0.129924 0.573954
0.003257 0.025304 -0.404123
0.169418 -0.317367 -0.147439
-0.054580 0.287844 0.444923
-0.085347 -0.596339 0.651869
-0.395907 0.287484 -0.736316
-0.057734 0.217781 -0.065098
0.186237 -0.150955 -0.243194
0.164168 -0.105277 0.367249
-0.120942 -0.135863 0.593726
0.078944 0.303991 -0.486490
-0.167361 -0.020408 0.515464
0.223637 -0.333055 0.500930
-0.334120 0.302783 -0.765660
-0.022538 0.303806 0.412465
-0.003815 0.303604 -0.535121
0.145622 0.174488 0.575937
0.228712 -0.451470 0.555741
0.214475 -0.424233 0.566536
-0.052948 -0.271755 0.634494
-0.159807 0.429337 -0.749037
0.050069 0.281920 0.186636
-0.082811 0.271347 -0.379493
-0.090525 -0.172143 0.656366
-0.056784 0.111286 0.601554
0.244202 -0.064831 0.382592
0.124586 0.154104 0.579758
0.267717 0.016823 0.338783
-0.024574 0.344457 -0.561258
-0.153296 0.466607 -0.743668
0.194915 -0.435225 -0.139112
0.039879 0.079859 -0.423750
-0.098140 0.230097 -0.351864
-0.081804 -0.086804 0.506536
-0.361004 0.425462 -0.738867
0.208491 0.214274 0.148028
0.246212 0.153446 0.091315
-0.270661 0.337513 -0.743163
-0.109477 -0.597888 0.643318
-0.156093 0.121971 -0.348578
-0.133240 0.365015 -0.711415
0.124753 -0.103735 -0.342488
-0.112072 -0.234429 0.648218
-0.084072 0.289096 -0.495769
0.084267 -0.079351 0.241171
0.142543 -0.103426 -0.146947
-0.030591 0.279461 0.486059
0.009619 0.073823 0.590173
0.229448 -0.278262 0.468159
-0.171646 0.093889 0.354319
0.157213 -0.194330 0.481107
0.263408 0.183020 0.323271
-0.146897 0.076342 -0.190943
0.196963 -0.087131 -0.225006
0.107457 -0.036211 0.437716
-0.173532 0.334630 -0.672855
-0.375950 0.410120 -0.741545
-0.058746 0.504131 -0.421076
-0.166155 0.171489 0.358637
0.198649 0.130341 -0.158598
0.225615 -0.311330 0.499318
-0.064083 0.182875 -0.434605
-0.048620 0.296152 -0.200368
0.223618 -0.602891 -0.140281
-0.116447 -0.584263 -0.324231
0.032519 0.347310 -0.200872
0.125647 -0.328219 -0.153708
-0.005425 0.542199 -0.561781
-0.114732 -0.187508 -0.233219
-0.127680 0.150677 -0.052852
0.024034 -0.154181 -0.140602
0.192648 -0.503149 0.588605
-0.092594 0.241439 -0.394521
-0.055393 -0.327900 -0.265535
-0.222325 0.517208 -0.767681
0.112970 -0.124339 -0.056665
-0.067140 0.362755 -0.595114
0.174170 0.218723 -0.305759
-0.116523 -0.023052 -0.100799
-0.063359 -0.079032 0.219313
0.240424 0.010594 0.485168
-0.095829 -0.561910 -0.362615
-0.160664 0.115693 0.012435
-0.121862 0.009412 0.301663
0.150650 0.235495 0.052227
-0.158256 0.113101 -0.234213
-0.147858 0.058690 -0.377075
-0.147384 0.091965 -0.065437
0.051830 0.430580 -0.508845
0.243045 0.255448 0.330945
0.154371 0.075598 -0.414990
0.154134 0.226560 -0.164974
-0.068021 -0.116109 -0.071383
0.166847 -0.476256 -0.098564
-0.061373 -0.270839 -0.246482
0.225178 -0.035564 0.494719
-0.168394 0.037533 -0.240935
-0.021025 0.181545 -0.469423
0.166711 0.206977 -0.165018
-0.101940 0.188035 0.004821
-0.176627 0.045869 0.352262
-0.119502 0.229672 -0.303313
0.009687 0.427182 -0.292144
-0.175040 0.389589 -0.558804
-0.129097 0.050030 -0.396517
0.192299 -0.544935 -0.163745
-0.039651 0.392521 -0.317487
-0.017808 0.381091 -0.269218
-0.124014 0.363026 -0.656785
-0.093903 -0.513276 0.669250
-0.149749 -0.031801 0.401946
0.111425 0.286550 -0.366222
-0.038618 -0.138902 -0.154666
-0.115142 -0.295670 0.617705
0.154399 -0.054274 0.484690
-0.131720 -0.498197 0.691545
-0.037398 -0.149454 -0.174698
0.276701 0.127956 0.363506
-0.147557 -0.118664 0.565568
0.129967 -0.051064 -0.357321
-0.180904 0.034323 0.489258
0.095232 -0.188023 -0.244877
-0.312598 0.351346 -0.655473
0.110064 -0.191393 -0.173075
0.079724 0.214517 -0.461244
-0.171092 0.140740 0.458654
0.162194 -0.259102 0.507240
-0.061321 0.251728 0.517077
-0.093661 0.251568 0.483116
-0.094811 -0.546920 0.722065
-0.413865 0.363354 -0.776334
-0.250567 0.453209 -0.768060
0.057752 0.287757 0.486794
-0.029277 0.542079 -0.606111
0.218915 0.153200 0.003587
0.065883 0.176776 -0.453103
0.025576 -0.029065 0.312432
0.077496 -0.068188 0.264889
0.019493 0.321066 -0.167413
-0.120329 -0.309929 -0.302318
0.029827 0.450496 -0.321323
0.049622 0.177272 0.577097
-0.024632 0.387852 -0.287925
0.181523 -0.089130 0.046597
0.185049 -0.143516 -0.266074
0.215999 -0.506946 0.588100
-0.228920 0.448458 -0.766948
-0.173061 -0.028145 -0.264016
-0.381783 0.282927 -0.774339
0.203698 -0.637771 -0.172110
-0.107346 -0.178679 0.606063
-0.029199 -0.008900 0.503935
0.095962 0.300448 -0.197962
-0.123313 0.350358 -0.556841
0.140335 -0.089098 0.183424
0.122910 0.315601 0.313147
0.174115 -0.220412 -0.234039
-0.098699 0.258358 0.249180
0.189444 0.134001 -0.380120
0.173244 -0.531884 0.531919
-0.090616 -0.097577 -0.049238
0.179389 -0.262119 0.533165
-0.064023 0.211222 -0.016063
0.208306 0.000379 -0.062029
-0.150150 -0.025863 0.538531
0.121848 0.005582 0.511129
-0.164213 -0.038058 0.498797
0.269264 0.196182 0.400091
0.014067 0.034556 0.558219
0.048686 0.311685 0.406396
-0.132512 -0.568295 0.688615
0.193009 0.148570 0.567077
0.127616 0.216813 0.561587
-0.130317 -0.081566 0.571433
0.276109 0.055215 0.365208
-0.096523 0.007379 0.589592
0.188776 0.025177 -0.131141
0.096625 0.273980 0.158601
0.001848 0.243720 0.549501
0.191441 0.038912 -0.148508
-0.118582 0.499020 -0.479166
0.108819 -0.060860 -0.373794
0.168226 -0.618319 -0.199571
0.157635 -0.638947 -0.130352
0.187504 -0.062554 -0.027789
0.222393 0.025970 -0.285717
-0.414756 0.324438 -0.795751
-0.086178 0.074508 0.585271
-0.238425 0.523013 -0.748699
-0.093871 -0.223002 -0.220276
0.102870 0.307553 -0.436375
-0.386761 0.396192 -0.756563
-0.362202 0.415006 -0.757178
