-0.354294 0.105401 0.715324
-0.777612 0.191223 -0.130568
-0.499026 0.509684 -0.367674
-0.721328 0.338577 0.260870
0.436244 0.370638 0.569503
-0.323107 0.520893 -0.532387
-0.806993 0.114304 0.288158
-0.229863 0.609294 -0.537228
-0.645122 0.286455 0.444807
0.701967 -0.117083 -0.557335
0.707109 0.375797 0.121123
-0.095912 0.732038 0.310538
0.655571 0.442854 0.277962
-0.211889 -0.738023 0.294875
-0.540932 0.724247 -0.111204
-0.129616 -0.359188 0.801145
0.058413 -0.384714 -0.828341
0.236567 -0.474642 0.665177
0.254606 -0.567955 -0.553827
-0.816035 -0.090626 0.396165
-0.282685 -0.706358 0.377763
-0.457322 0.264917 -0.654147
0.283669 0.663149 0.429569
0.103895 -0.819583 0.081335
0.542602 0.153250 0.643396
0.318533 0.614523 -0.443328
-0.079536 0.014592 0.820270
0.661487 0.428156 -0.286745
0.768168 0.061238 -0.546977
-0.774813 0.198553 0.058076
0.373483 -0.515400 0.487502
-0.177531 0.294370 0.782841
-0.064736 0.597001 -0.664075
0.637574 -0.507239 -0.231573
0.736005 0.184555 0.455825
-0.787589 -0.165099 0.323590
0.666654 -0.481716 0.040560
-0.652838 0.494850 -0.228698
-0.074454 -0.578966 -0.711287
-0.578182 0.143640 0.629809
0.206097 -0.727534 0.322328
-0.026004 -0.661672 -0.494761
0.705369 0.116728 0.554287
0.008324 -0.670013 -0.472921
-0.225961 0.220359 -0.764347
-0.178562 0.528677 0.669149
0.366703 0.328814 0.680866
0.346090 0.166454 -0.718459
0.334591 0.288926 -0.722851
0.283966 -0.402326 -0.690093
0.240381 -0.273578 -0.758839
0.275248 -0.004342 -0.745519
-0.427180 0.032736 -0.687486
0.815054 -0.017367 -0.539332
-0.367159 -0.471278 -0.537951
0.459714 -0.181706 -0.675060
-0.276168 -0.810661 -0.104698
-0.767333 -0.218140 0.080402
-0.246578 -0.298155 -0.756472
-0.097464 -0.821122 -0.077306
0.491749 -0.365019 0.519616
0.236269 0.522687 0.617431
-0.021813 0.586698 -0.691038
-0.269933 0.506613 0.599839
0.366383 0.258621 -0.710705
0.682531 -0.440155 -0.215063
0.829615 0.055079 -0.311862
0.160429 -0.097341 0.789372
0.759243 -0.239324 0.194162
0.233313 -0.207351 -0.761539
-0.565970 0.282988 0.527423
-0.109366 0.615551 -0.615518
0.002778 0.529527 -0.840720
-0.689275 0.422495 -0.089009
-0.470228 -0.405783 -0.500373
-0.351931 -0.802375 -0.126396
0.002171 -0.691978 0.415417
0.737987 -0.294970 -0.077175
0.827555 -0.060470 -0.078895
-0.186700 -0.809640 -0.107371
0.151398 0.531329 -0.693659
-0.157680 -0.838579 -0.031608
0.541167 -0.810250 -0.020648
0.145113 0.322281 0.795225
0.340106 0.044377 0.720744
-0.710963 -0.033901 -0.579090
0.206800 -0.706692 -0.376890
-0.774048 -0.200556 0.024341
-0.654366 0.513886 0.138413
0.756550 -0.246373 -0.088171
-0.088814 -0.592654 -0.675452
0.556554 -0.113412 0.638069
-0.372274 -0.118878 0.708454
-0.378065 0.425252 -0.573070
0.298485 0.629461 0.448439
-0.309400 0.283152 -0.732473
-0.130371 -0.325260 -0.800857
-0.821967 -0.075093 -0.254236
-0.351485 -0.082564 0.716398
-0.168757 0.835405 -0.039918
-0.283117 -0.773674 0.201536
-0.736995 0.297566 -0.163948
-0.009560 -0.144745 0.846999
-0.830693 0.052257 -0.473592
-0.307225 -0.693736 -0.375421
0.448329 0.399034 0.529021
0.245934 -0.276812 0.756718
0.143558 0.179008 0.795819
-0.515807 0.424807 0.435772
-0.005954 -0.051611 0.848376
0.706898 -0.376350 0.000035
0.281791 0.587510 -0.507082
0.175099 -0.057487 0.783770
0.560872 -0.666361 -0.149154
0.655662 0.510494 0.046801
0.325667 -0.789635 -0.159740
0.013463 0.566302 0.744433
0.733407 0.306955 0.261674
0.685852 0.217912 0.472621
0.571162 0.345817 0.459406
-0.335020 0.518636 0.522731
0.594444 0.237430 -0.544511
-0.746912 0.271600 -0.296630
-0.353767 0.833062 0.046055
-0.067507 -0.575777 0.719639
-0.261430 -0.418522 0.696434
0.793003 -0.150926 -0.105704
0.107896 -0.326913 0.809439
0.556575 0.548907 0.270901
-0.256421 0.755408 -0.249362
0.756245 -0.247172 -0.306839
-0.711356 0.332754 0.332276
0.330201 0.355971 0.690214
0.804577 0.120629 0.087739
0.789262 0.160716 0.061583
0.654676 0.513075 -0.120907
0.400780 0.475047 -0.500558
-0.180070 0.612426 0.583893
-0.462389 0.591982 0.322013
-0.231579 0.662398 0.482408
-0.231562 0.691404 0.416921
-0.417885 -0.773471 -0.185029
0.088656 -0.574608 0.713123
0.567138 0.742246 -0.057630
-0.405494 0.764112 0.206781
-0.494511 0.567571 0.314302
-0.237680 0.276097 -0.759871
-0.813753 -0.096600 -0.432221
0.132970 -0.560282 -0.683133
0.834967 0.041065 0.030355
-0.419483 0.422982 0.533920
-0.403910 -0.534836 -0.437641
0.442880 -0.063001 0.681490
-0.161660 0.750385 -0.262507
-0.212604 0.756322 -0.246969
-0.532718 -0.308864 0.534804
0.134076 0.011608 -0.799442
-0.412889 0.610341 0.353155
-0.806843 0.114696 0.438955
0.309103 0.519681 0.547602
0.183877 -0.017417 0.780417
0.008810 -0.566678 -0.743451
-0.297588 0.692063 -0.386732
0.369669 0.629000 0.377715
-0.342284 0.756515 -0.246464
0.703068 0.228310 -0.445008
-0.175942 -0.562732 -0.637717
0.221890 0.776875 0.193152
-0.350815 -0.001831 0.716653
-0.461056 0.326263 -0.589067
-0.439159 -0.783270 0.153954
-0.676528 0.361331 0.338523
0.850364 0.000749 -0.444770
-0.468376 0.510540 -0.397468
0.438156 0.477726 -0.460503
0.095176 -0.624607 0.591803
0.168651 -0.200077 0.786232
0.626157 0.440104 -0.310125
-0.563986 -0.672907 -0.139493
-0.709503 -0.369529 0.016240
0.663013 0.372590 0.340780
-0.278644 -0.745330 -0.275743
0.445896 -0.325769 -0.604718
-0.073505 0.199255 -0.822574
-0.224550 -0.415402 -0.736437
0.815581 0.091814 -0.337687
-0.462878 0.736360 -0.177148
0.132389 -0.358161 0.800087
0.534763 0.509717 -0.331906
0.842241 0.022020 -0.480235
0.429230 0.788381 0.158771
0.754700 -0.251215 0.034443
-0.443753 -0.601945 0.330686
-0.087334 -0.027620 0.817292
-0.640616 -0.549883 -0.021080
-0.354468 -0.830448 -0.052898
-0.471697 -0.631764 -0.272923
0.046564 0.178097 -0.832867
0.396345 0.308471 -0.671571
0.755786 -0.248373 0.330547
0.116318 -0.503286 -0.756781
0.659017 -0.100496 -0.598933
-0.565030 0.747765 -0.034375
0.028104 0.135386 -0.839917
-0.639161 0.553694 0.147331
-0.050350 -0.490845 0.831421
0.011262 -0.376987 0.846349
-0.715110 -0.354854 -0.185809
0.595434 -0.451473 0.329478
-0.731763 0.311260 -0.208498
0.120898 -0.834123 0.043276
-0.492893 -0.539437 -0.344057
-0.081529 0.371130 -0.819509
0.629049 0.365298 -0.382037
-0.497220 -0.593503 -0.285661
0.084573 0.723920 -0.331791
-0.743355 -0.280915 -0.242761
0.562857 0.103051 -0.635662
-0.045933 0.630316 0.576853
-0.195068 0.656411 -0.508535
0.043160 0.605462 -0.641922
0.800895 -0.130271 0.339558
-0.415078 -0.205613 -0.692108
-0.605379 0.562035 0.208973
-0.506682 -0.554994 0.314708
-0.818549 0.084041 0.169751
0.722788 0.334755 0.227472
-0.768793 0.214319 0.232185
0.226658 -0.722476 -0.335571
0.814436 0.094813 -0.168060
-0.051237 -0.050340 -0.831083
0.095337 -0.370505 0.814235
-0.411967 -0.096183 0.693296
-0.799732 -0.133319 0.051213
-0.429672 -0.407265 0.539449
0.586929 -0.690433 0.016044
0.112733 0.781094 -0.182104
-0.074449 -0.845487 0.013519
0.723421 -0.333098 -0.092363
0.259178 -0.850401 -0.000652
-0.234079 -0.414676 0.727633
-0.667085 0.125595 -0.583707
-0.245212 -0.585065 -0.546109
-0.084745 -0.317406 -0.818280
0.584187 0.650061 0.142142
0.651236 -0.522078 0.020590
-0.029918 -0.384436 0.839224
-0.050451 0.326925 -0.831383
0.683153 0.324873 0.368359
0.835644 0.039293 -0.166267
-0.298786 -0.780289 -0.184213
0.649497 0.281775 0.445112
-0.679298 -0.224692 -0.472395
-0.656507 0.508282 -0.074556
0.838238 -0.032500 -0.034281
0.145088 -0.628438 0.581770
-0.430619 0.566887 0.378881
-0.688151 -0.164043 -0.524193
-0.051171 -0.059921 0.831108
0.092413 -0.688508 -0.424505
0.175493 -0.752577 0.256772
0.330930 -0.552536 -0.492918
0.488816 0.554618 -0.332951
0.173136 -0.580994 0.622258
-0.087570 0.634591 -0.565661
0.232359 -0.604451 -0.539575
-0.761685 0.232931 0.036636
0.131641 -0.046690 -0.800372
0.041314 0.144782 0.834872
-0.345372 0.269747 -0.718733
-0.770935 0.122043 -0.483409
0.203904 -0.794175 -0.147860
-0.504716 -0.154565 0.657870
0.368028 -0.062638 0.710077
-0.067426 -0.834545 -0.042170
0.188852 0.149808 -0.778518
0.060043 -0.632909 -0.570065
-0.573700 0.061989 0.631521
-0.838353 -0.032199 -0.426398
-0.026935 0.039142 -0.840364
0.148372 0.715587 0.353607
0.761522 -0.142208 0.472653
0.135394 0.329864 -0.798939
0.206141 0.811610 0.102213
-0.512778 -0.194692 0.654790
-0.271041 -0.146340 0.747125
-0.190662 0.632703 -0.553021
-0.389388 -0.385451 -0.601547
-0.020245 0.494328 -0.842918
-0.280336 -0.721481 0.338177
-0.472312 -0.518381 -0.385691
0.722744 -0.334871 -0.273564
-0.256270 0.693337 -0.411859
0.515719 0.354308 -0.506359
-0.723011 0.334171 -0.149653
-0.623175 -0.422197 -0.331016
0.332481 0.653123 0.390781
0.278385 -0.276400 -0.744321
0.064398 -0.441235 -0.826054
0.657956 -0.306645 0.411783
0.241376 -0.674891 0.460120
-0.249738 -0.731702 0.311419
0.447030 -0.825337 -0.066276
0.821950 0.075140 -0.092999
0.390922 0.753033 -0.232434
-0.597484 -0.069851 -0.622438
0.410065 -0.832258 0.048160
-0.137895 0.707267 -0.375382
-0.003192 0.663254 -0.490618
0.332084 -0.825377 -0.066170
-0.327717 0.270728 0.725476
0.640903 -0.251348 0.484133
0.443966 -0.583512 0.348908
-0.645768 -0.310875 -0.419742
-0.339847 0.441500 -0.595037
-0.795625 0.010798 -0.546752
0.802691 -0.125568 0.221865
0.736274 -0.299453 -0.306139
-0.378972 0.782271 0.179024
0.446510 -0.288153 0.641723
0.516437 -0.300021 -0.559927
0.408622 -0.842442 -0.021494
-0.490824 0.800812 -0.084748
-0.552630 -0.617313 0.206445
-0.505886 -0.101877 0.657423
0.168769 0.560696 -0.646926
0.468352 0.006155 0.671759
-0.543529 0.685470 -0.147387
-0.801758 -0.128012 -0.094714
0.634633 0.565550 -0.091987
0.772420 -0.204820 0.356390
0.204758 0.355983 0.772444
0.814124 -0.095630 0.119477
-0.527732 -0.566142 -0.282508
-0.270473 -0.570456 0.535454
-0.660660 0.193346 0.522380
-0.240093 0.339952 0.758949
-0.507730 -0.424828 -0.443828
0.206393 -0.333145 0.771819
0.479056 -0.034827 0.667669
-0.386773 0.519097 0.470513
-0.020959 -0.556510 -0.770072
-0.680858 -0.015886 0.590588
-0.522423 0.278164 0.575797
-0.639520 0.552753 -0.005468
-0.777100 -0.192564 -0.172927
-0.157286 -0.722121 0.336502
-0.450632 0.827291 0.061160
-0.539140 0.562218 0.275026
0.347340 -0.479614 -0.549431
0.566693 0.505927 -0.303765
-0.725495 -0.327666 -0.219219
-0.325923 -0.743163 0.281418
0.022057 -0.173906 0.842226
-0.492404 0.412663 -0.471319
0.566093 -0.744980 0.042546
-0.168671 -0.103936 -0.786224
-0.539419 0.316214 0.520753
0.194420 -0.772947 -0.203440
0.213677 0.674236 0.461871
-0.281626 -0.439558 -0.655200
-0.464749 0.496090 0.415546
0.419993 -0.281442 0.674951
-0.751823 0.218637 0.405927
-0.222215 -0.140380 0.765777
0.243158 -0.627101 0.506125
0.185543 -0.065803 -0.779781
-0.481106 0.758742 0.136534
0.793708 0.149081 0.326809
0.009784 -0.758552 -0.241133
-0.464779 -0.336389 0.575217
-0.197918 0.810366 0.105470
-0.123092 0.815113 0.093039
0.165837 0.137236 0.787307
-0.474815 -0.661751 -0.239821
0.550419 -0.198348 -0.627618
0.426839 -0.796330 -0.142221
0.268725 -0.761810 -0.232603
-0.806991 -0.114308 0.116307
-0.185041 -0.380994 -0.779973
-0.759870 -0.051522 -0.560406
0.106484 -0.631377 -0.574076
0.850367 0.000740 0.476532
0.239307 -0.075340 0.759250
-0.715977 -0.223088 -0.437322
-0.526538 -0.723362 -0.126482
-0.187343 -0.795667 0.143955
-0.848637 0.005270 0.240520
-0.084519 -0.016437 -0.818367
0.566228 0.704111 -0.106044
-0.513134 -0.348658 0.514595
-0.624074 -0.135327 -0.612281
0.383838 0.843199 -0.019510
-0.460606 -0.231416 -0.674719
0.176883 -0.696914 0.402493
0.721797 0.337350 -0.049854
0.096461 -0.587625 -0.688613
0.836969 0.035823 0.315329
0.432423 0.226896 0.685484
-0.124980 0.180862 0.802916
0.487211 -0.771958 -0.117219
0.290468 -0.668269 0.417649
-0.413079 -0.598287 -0.365020
0.139936 -0.586108 -0.650346
-0.051693 -0.776376 -0.194460
0.092878 -0.550646 -0.732860
0.194594 -0.827194 0.061416
-0.601231 0.218916 0.556240
0.707881 0.373776 0.220423
-0.639290 -0.553356 0.129318
0.822251 0.074353 0.276358
0.063171 -0.721783 0.337387
-0.659384 0.314187 0.402814
0.361938 -0.797329 -0.139607
-0.730384 -0.201947 0.444056
0.156695 0.386556 0.790799
-0.627844 -0.280200 0.468340
-0.325339 -0.568102 -0.482943
0.333761 -0.106131 -0.723168
-0.375477 -0.186711 0.707231
-0.823763 -0.070395 -0.301108
0.158877 0.624665 -0.591651
0.598843 0.529352 0.248189
-0.372843 0.100435 -0.708237
-0.046206 -0.814338 -0.095068
-0.028778 -0.828773 -0.057283
-0.140001 0.102238 -0.797178
0.039718 0.772347 0.205010
-0.579080 0.691389 -0.105914
-0.197128 0.320783 -0.775357
0.473469 -0.295648 -0.607270
0.799409 -0.134162 0.139674
-0.069093 0.755591 0.248882
-0.192580 0.706607 -0.377110
-0.698627 0.398007 0.046962
-0.038014 -0.100869 -0.836132
-0.027705 -0.446860 -0.840070
-0.759259 -0.239282 -0.217237
-0.494114 0.256416 0.625855
-0.477766 0.107733 0.668162
-0.444988 -0.836896 0.036016
-0.000751 -0.300572 -0.850363
-0.112668 -0.762094 -0.231858
0.537056 -0.221739 0.617590
-0.121272 -0.810521 0.105063
-0.533847 0.530795 0.311744
-0.063044 0.730071 -0.315687
0.428188 0.378662 -0.569535
0.494428 0.747629 -0.134325
-0.817481 0.044454 -0.514451
0.101929 -0.784583 -0.172968
-0.053326 -0.706350 -0.377784
-0.605074 0.642937 0.036565
-0.068774 0.512488 -0.795121
-0.453287 -0.840033 -0.027801
-0.269029 0.489561 -0.617795
0.099994 0.323901 0.812457
-0.613173 -0.343496 -0.419715
0.706545 0.377273 0.267297
0.088499 0.451955 0.816847
0.614897 -0.230156 0.531334
0.116182 0.811414 0.102725
0.598854 -0.659223 -0.030916
-0.163612 0.158870 -0.788156
0.670420 -0.471858 0.118620
-0.378861 -0.814608 -0.094361
0.305572 -0.470467 0.600344
0.266895 0.773333 -0.202428
-0.788995 0.161417 0.291266
0.406251 0.403206 0.566927
0.529854 -0.596224 -0.250306
-0.158805 0.413375 0.789992
0.032891 -0.658333 -0.503503
0.618158 -0.063900 -0.614542
0.338217 0.603930 0.434238
-0.295177 -0.617614 -0.463595
0.125320 0.282239 0.802786
0.211161 0.025846 -0.769999
-0.170279 -0.485276 0.720829
-0.108568 0.414094 0.809183
0.199467 -0.409717 -0.767201
0.718587 0.344479 -0.313320
-0.336152 -0.385647 0.654584
0.320693 0.562849 0.492842
-0.423808 0.368783 0.583793
-0.333408 0.785201 0.171350
-0.308341 -0.074138 0.732878
-0.707007 -0.376064 0.247251
-0.183520 -0.329885 -0.780554
0.836465 0.037144 0.227562
0.408986 0.414215 -0.553183
0.591335 -0.298502 -0.486545
0.206659 -0.774108 0.200400
0.266679 0.242578 -0.748791
-0.164094 0.047991 0.787972
-0.833800 -0.044123 0.137443
-0.522712 0.227504 -0.626168
0.850361 0.000757 0.523393
0.569501 0.470654 0.336229
-0.748013 -0.268717 -0.187584
-0.778541 0.147784 -0.450058
-0.429625 -0.708896 0.237865
0.622861 -0.487863 -0.265662
-0.723347 0.333292 -0.101245
-0.098958 0.069376 -0.812853
-0.343139 0.420855 0.612390
-0.040330 0.791395 0.155133
-0.772456 -0.136529 0.467399
0.680705 0.444935 -0.034774
0.410862 -0.335122 0.630402
-0.116084 -0.285619 -0.806313
0.413439 -0.586009 0.376939
0.694483 0.408124 -0.273777
-0.741442 0.285924 -0.004110
0.504948 -0.222598 0.648840
-0.003571 0.443391 -0.849286
-0.407346 -0.406594 -0.562444
0.422857 -0.356390 0.597138
0.664438 0.487518 -0.175422
0.500045 0.301956 -0.574382
0.388156 0.673658 0.314571
0.426085 -0.243187 0.687904
0.374652 -0.850515 -0.000354
-0.185615 -0.660416 -0.498049
0.585645 -0.541313 0.249427
-0.680123 0.446460 -0.054354
-0.218803 0.450368 -0.707215
0.632136 0.572088 0.147947
-0.592173 0.534845 -0.249367
0.130295 0.759910 0.237578
-0.432337 0.097315 0.685516
0.052379 0.835912 0.038592
0.197477 -0.678660 0.450292
0.730683 -0.135044 0.510655
0.808205 -0.111130 0.077907
-0.126203 0.373311 -0.802449
-0.168890 -0.747220 0.270795
0.151089 -0.493141 0.732154
0.163317 0.299930 -0.788269
-0.280794 0.133705 -0.743401
-0.758530 0.241191 0.181407
0.707874 -0.373795 -0.069711
-0.435040 -0.725039 -0.216308
0.399987 0.361052 -0.615346
-0.139181 -0.495337 -0.741865
0.777994 0.190224 0.237681
-0.268540 0.404545 0.703301
0.001962 0.837691 0.033934
0.129629 -0.817374 -0.087119
-0.429390 -0.259265 -0.686642
-0.430488 -0.166684 0.686223
-0.184466 -0.051242 -0.780192
0.793944 0.010125 0.547394
-0.527539 -0.276098 -0.572746
-0.041426 0.744885 0.276908
0.104585 -0.016763 -0.810704
-0.554941 0.101053 0.638685
-0.685034 -0.307069 0.384280
-0.565297 0.031376 -0.634730
-0.280267 0.297749 0.743602
0.844329 0.016553 0.169629
0.662130 0.493562 -0.078452
0.147958 0.688922 -0.423419
0.220163 -0.579914 -0.576311
-0.612358 0.587722 0.176309
0.490357 0.148520 0.663354
0.439382 0.582340 0.354664
-0.707496 -0.374783 -0.149912
0.134799 0.268998 -0.799166
-0.263772 -0.772384 -0.204914
-0.772560 0.204454 -0.172882
-0.559404 -0.582388 -0.234595
0.756173 0.247359 -0.052572
-0.759180 -0.239490 -0.011506
0.653380 0.402660 -0.320346
0.783193 -0.176610 -0.365377
-0.717869 -0.283331 0.375188
-0.179094 0.665127 0.485714
-0.700275 0.393692 -0.200218
0.234990 0.648515 -0.492881
-0.310743 0.221962 -0.731960
-0.669116 0.084986 0.595075
-0.199406 -0.582517 0.594468
0.622621 -0.597004 -0.039485
0.000422 0.463859 0.850489
0.836240 -0.037733 -0.223855
0.096699 0.797193 -0.139963
0.759735 0.238037 -0.271198
0.686509 -0.340884 -0.348991
-0.700168 -0.184971 -0.491247
0.283453 -0.833744 -0.044270
-0.122748 0.374470 0.803768
0.071428 -0.685317 0.432859
0.150534 -0.394201 0.793153
0.239981 0.521452 -0.614953
-0.266557 0.744143 0.278851
-0.136860 0.706668 0.376951
0.209315 0.260021 0.770704
0.256998 0.566546 0.552842
-0.635690 0.328336 -0.412358
-0.819819 0.080717 0.116289
-0.366123 -0.774507 -0.199356
0.420459 -0.590326 -0.365601
0.127287 -0.200239 0.802035
-0.779274 0.186871 0.016120
-0.026046 0.692486 0.414088
-0.803400 0.123712 -0.100411
-0.473472 -0.824751 0.067809
-0.517084 0.356030 0.503273
0.443491 0.470870 0.462023
-0.101721 -0.205389 0.811797
-0.392799 0.110626 0.700616
-0.787124 -0.166317 0.152644
0.535961 0.201728 -0.638695
-0.813077 0.098371 -0.025598
0.097214 -0.064069 0.813519
-0.701530 0.390405 -0.256019
-0.162788 0.694793 -0.408048
-0.133522 -0.048267 -0.799654
-0.737774 0.295526 -0.245903
-0.282729 0.665294 -0.428363
0.001578 -0.706972 -0.376157
-0.756139 -0.247448 0.248807
0.765688 0.222447 0.178717
0.816774 -0.088691 -0.389382
0.723836 -0.332012 0.255238
0.160152 0.783996 -0.174506
0.630835 -0.098186 0.609698
-0.042285 -0.561637 0.756649
-0.081765 0.779890 -0.185258
-0.797906 0.138096 0.057950
-0.596472 0.656818 -0.123098
-0.713709 0.261894 -0.400784
0.065001 -0.318143 -0.825824
0.412903 -0.402078 0.561404
0.566842 -0.154371 -0.634140
-0.508565 -0.773529 -0.094291
0.801954 -0.127498 -0.141210
0.483507 0.609707 0.283171
0.836879 -0.036058 0.495988
0.661040 0.253553 -0.461792
-0.768697 -0.214568 0.271969
-0.269191 0.589279 0.517912
-0.082876 0.664689 -0.486860
0.323558 -0.780715 0.183097
-0.122635 0.743578 0.280330
-0.274380 0.255682 -0.745850
0.430611 -0.018554 0.686176
0.721740 0.337498 -0.196622
0.081026 0.147808 -0.819701
-0.423450 0.486642 -0.466292
-0.006222 -0.720471 0.340823
-0.743848 0.279624 0.347159
-0.308021 0.007476 0.733000
0.705800 -0.379225 0.060605
0.771253 -0.207877 -0.296327
-0.022373 -0.601316 0.652776
-0.782482 -0.178470 -0.081491
0.065201 0.678445 -0.450853
-0.394248 0.486529 0.495607
0.448839 0.834039 0.043496
0.495110 0.273582 -0.607692
0.190811 0.063519 -0.777769
0.817214 0.087538 0.235909
-0.556763 -0.194209 0.625414
-0.438688 0.442354 0.495343
0.565189 -0.108053 -0.634771
0.076262 -0.105446 -0.821521
-0.437144 0.671727 -0.267515
0.139665 -0.209183 -0.797307
0.040724 0.743628 -0.280199
-0.502746 0.002322 -0.658622
-0.170786 0.745849 0.274385
0.239648 0.798550 0.136412
0.020284 0.228643 -0.842904
-0.660369 -0.398586 -0.317431
0.758789 0.240512 -0.005118
-0.783518 -0.175757 0.273111
0.245008 -0.835209 0.040433
0.649865 -0.461648 0.264872
-0.469307 0.684396 0.222682
0.343345 -0.394635 -0.638404
-0.233491 -0.622011 0.520882
0.757333 0.244323 0.044713
0.039885 -0.773490 0.202019
0.046742 0.447003 0.832799
-0.575685 0.415421 -0.385279
0.171407 -0.312466 0.785180
0.783087 0.176886 -0.274510
-0.411258 0.213585 0.693567
0.657512 -0.505653 -0.078479
-0.241314 -0.705917 0.378918
0.263901 0.789858 -0.159157
0.084136 0.741558 -0.285619
-0.325235 -0.115106 0.726424
0.326598 -0.372162 0.677624
0.719536 -0.343270 0.075575
-0.077987 -0.283968 0.820862
-0.156604 -0.663195 0.490771
-0.012388 0.830342 -0.053177
0.298308 -0.634872 0.443207
-0.416145 -0.699998 -0.260243
-0.044742 -0.019493 0.833563
-0.168511 0.787352 -0.165718
0.616931 0.098557 -0.615011
-0.230350 0.798267 0.137151
0.723318 0.180098 -0.472969
0.537759 0.744711 -0.093914
0.107497 0.833195 -0.045706
-0.174742 0.804171 -0.121693
0.332802 -0.428737 0.614845
-0.189960 0.771318 -0.207706
-0.119442 -0.485155 0.771790
-0.400024 -0.794215 0.147754
-0.564896 0.748116 0.027141
0.298933 0.727895 -0.321383
0.249365 -0.115008 0.755407
-0.390051 -0.796680 -0.141303
-0.430930 0.503889 0.441566
0.189422 -0.618911 -0.568056
-0.639628 -0.552472 0.086421
0.014730 0.543286 0.804702
0.147232 -0.628900 -0.580560
-0.143338 0.736859 -0.297921
-0.850525 0.000327 -0.037897
0.802399 -0.126333 0.038401
-0.100338 -0.072036 -0.812326
0.665033 0.142224 -0.569131
0.809626 -0.107408 -0.009117
0.571184 -0.619263 0.185940
-0.358294 -0.658535 0.359553
-0.222000 -0.460601 -0.693785
-0.317128 0.623471 -0.435786
-0.025218 0.771511 -0.207201
-0.706998 -0.376087 0.066432
0.177982 0.803349 -0.123846
-0.611376 -0.600388 -0.164626
-0.024138 -0.756968 0.245278
0.130404 0.518415 -0.727563
-0.049358 0.244813 -0.831800
0.250037 -0.820747 -0.078288
-0.189999 -0.236319 -0.778080
-0.210973 -0.719031 -0.344593
-0.048956 0.675915 -0.457475
0.203741 -0.558612 -0.614035
-0.806665 -0.115162 -0.293072
-0.567901 -0.378017 -0.430469
-0.042612 -0.720582 -0.340530
-0.614325 0.491701 -0.270358
0.309704 0.596325 0.470356
-0.262260 -0.704466 -0.382718
-0.836455 -0.037170 0.413555
0.027940 -0.333042 -0.839980
-0.028817 -0.629898 -0.577947
0.722147 -0.336433 0.170543
0.542158 0.582393 0.251837
0.493031 -0.649384 -0.233972
-0.544245 0.756562 0.075577
-0.377437 0.843893 -0.017693
0.491756 0.108629 -0.662820
0.850561 -0.000233 0.270910
-0.179962 0.680108 0.446500
0.059844 0.112892 -0.827794
0.634869 -0.318143 -0.423372
-0.292095 0.463460 0.620830
-0.330770 0.045868 0.724310
0.332159 0.065891 -0.723780
0.401381 0.738590 0.236417
0.014673 -0.834172 0.043148
-0.248958 0.449527 -0.677900
0.759340 -0.209315 -0.407732
0.148748 0.673512 -0.463765
-0.487287 -0.840853 0.025653
0.002497 -0.298645 0.849696
0.076249 -0.836582 0.036836
-0.197650 -0.448309 -0.730427
0.080864 0.753069 0.255483
0.554031 0.216543 0.605813
-0.224994 -0.534235 -0.617159
-0.301140 -0.353495 -0.721751
0.572020 -0.379145 0.425221
-0.313530 -0.832692 -0.047022
-0.751967 -0.025517 0.563425
0.415497 0.601070 -0.359818
-0.167313 -0.106556 0.786743
0.305711 0.108972 0.733883
0.550461 -0.716191 0.109730
0.477383 -0.631025 -0.267976
-0.579598 0.622919 0.173872
0.534747 0.075181 -0.646396
0.007080 -0.724956 -0.329079
-0.206307 0.405262 -0.764817
0.128335 0.578992 0.669060
0.186928 0.349698 -0.779252
0.831403 -0.050398 -0.125522
-0.778307 0.189404 0.378033
-0.572435 -0.728382 0.007649
-0.419901 -0.814319 -0.095119
-0.196535 -0.140403 -0.775584
-0.235214 -0.690941 0.418134
0.017139 0.593126 -0.674216
0.488709 -0.596350 -0.291325
0.460902 0.279362 0.636121
-0.528277 -0.690287 -0.157823
0.170836 0.463143 -0.742406
-0.730936 -0.313423 -0.176737
-0.653815 0.515328 -0.125293
-0.008438 -0.202391 -0.847428
0.411767 0.685324 -0.279294
-0.143941 0.490422 0.742020
0.043988 -0.712803 -0.360893
0.171507 0.769686 0.211979
-0.802107 0.127098 0.014158
-0.535645 -0.329732 -0.511009
0.694193 0.026303 -0.585494
-0.038238 -0.293662 -0.836047
-0.385901 0.443989 0.546496
0.200616 0.759372 0.238988
-0.132418 0.449035 -0.794934
-0.641179 -0.509331 0.225875
0.544954 0.263459 -0.567972
-0.230390 -0.781326 0.181499
0.248986 0.685121 -0.433374
0.164305 0.845730 0.012884
-0.659012 -0.135747 0.581630
0.277691 0.804864 0.119878
0.117145 -0.641150 0.548485
0.086562 -0.654205 -0.514307
-0.025320 -0.532660 0.818406
-0.302850 0.504599 0.568933
-0.691982 -0.415407 0.267858
0.655619 -0.510606 0.191191
-0.100832 -0.137848 0.812137
-0.474414 -0.125092 0.669443
0.390354 -0.632190 -0.353839
0.319389 -0.162736 0.728656
-0.077959 0.843474 0.018789
0.326831 -0.804193 0.121634
0.104405 0.646736 0.533856
0.503230 0.809081 -0.064073
-0.153611 0.762939 0.229647
-0.208511 0.650982 0.516891
0.525331 -0.794580 -0.056473
0.190504 0.725685 0.327170
0.100110 -0.171817 0.812413
0.742887 -0.282139 -0.143952
0.549789 -0.184231 0.640652
-0.539131 0.366617 -0.470639
0.161886 -0.730987 0.313289
-0.722717 0.264359 0.389310
0.412294 0.469040 0.495052
-0.375367 0.326471 -0.674546
-0.352014 0.184678 0.716195
-0.717674 0.348143 -0.000813
0.490854 0.247014 -0.638519
0.137320 0.567030 -0.672036
0.671351 0.469422 -0.124124
-0.095466 0.686999 -0.428455
0.392395 0.283867 0.700121
0.799784 0.032697 -0.543906
0.311440 -0.244885 -0.731694
-0.806139 0.116539 -0.232552
-0.146565 -0.797101 0.140202
-0.305718 -0.080334 -0.733880
-0.100321 -0.626345 -0.587251
0.394392 -0.288062 -0.693930
-0.452031 -0.444313 -0.480041
0.428172 0.172087 -0.687107
-0.039148 -0.691420 0.416879
-0.706890 0.376369 -0.043727
-0.391062 0.801614 -0.128390
0.522211 0.219593 0.634581
-0.077290 0.543974 -0.755120
-0.734817 -0.084020 -0.557547
-0.626865 0.338042 0.411478
-0.625276 0.399227 -0.351883
-0.412091 0.276925 0.687368
0.187739 0.667979 -0.478246
-0.017811 -0.338017 0.843848
-0.373869 0.457924 -0.544594
-0.151179 -0.323335 0.792907
-0.100792 0.826459 -0.063339
0.318290 -0.708103 0.349990
0.839439 0.029356 0.088628
-0.552102 0.472757 -0.351524
0.845927 0.012368 -0.046029
-0.426502 -0.618190 -0.331691
-0.391731 0.176758 0.701024
-0.703496 0.296792 -0.376095
-0.737431 -0.296423 0.117911
-0.267586 -0.386576 -0.722224
-0.117777 0.139798 -0.805666
-0.605192 0.642628 -0.085359
0.594237 0.303514 0.478633
0.538257 -0.649680 -0.188450
0.237565 0.708175 0.373005
0.377462 0.711483 0.287441
-0.103740 0.237845 -0.811027
-0.820895 0.077900 -0.441370
-0.314228 -0.374970 -0.687187
0.433622 0.642390 -0.300374
0.839094 -0.030260 -0.471354
0.789463 -0.160192 0.240195
-0.062659 -0.771505 0.207217
-0.739284 -0.291576 0.158553
-0.334864 -0.788058 -0.163870
-0.040089 -0.617425 0.610611
0.669289 0.474816 -0.223582
-0.184863 -0.644326 -0.540168
0.614312 -0.138966 0.616011
0.356580 0.592613 -0.427191
-0.516287 -0.311747 -0.548351
0.824055 -0.069629 -0.023123
-0.158785 -0.199341 0.790000
0.246110 -0.816036 0.090624
0.162045 0.558264 0.656081
-0.843380 0.019035 -0.128854
0.390537 0.559060 -0.426789
-0.435325 -0.791259 -0.149800
-0.483136 -0.231685 0.661565
-0.473982 -0.438412 0.463992
0.799098 -0.134977 0.181233
0.206647 0.314529 0.771722
0.630290 0.415289 0.330807
-0.213318 0.721842 -0.337232
-0.813587 -0.097035 0.207079
0.040730 0.757206 0.244656
-0.649338 0.527044 0.024660
0.327386 0.812556 -0.099734
-0.663656 0.461177 -0.251553
-0.095162 -0.476875 0.804346
-0.297596 0.081077 -0.736983
0.305915 -0.699686 -0.370781
-0.652998 -0.044391 0.601232
-0.269755 0.729440 0.317338
-0.628313 0.232797 0.515277
0.292688 -0.446627 0.637069
0.192694 0.450955 0.732737
0.352999 0.565281 0.458105
-0.276283 -0.052530 -0.745124
-0.834856 0.041356 -0.381204
0.194016 0.704314 -0.383117
-0.227384 0.422367 0.726637
-0.007617 -0.466292 0.847741
0.173238 -0.558332 -0.644820
-0.818177 -0.085017 -0.472755
-0.527848 0.819280 0.029257
0.500879 0.516651 -0.358856
0.167387 0.493648 -0.715349
-0.518702 0.338597 -0.519086
0.616518 -0.362321 0.397545
0.790380 -0.157791 0.088929
-0.222551 -0.475646 0.678188
-0.029048 0.625287 -0.590024
-0.424780 0.583917 -0.367690
0.248052 0.827075 -0.061726
0.480381 -0.188297 0.667164
-0.040298 0.079685 -0.835260
-0.823275 0.071671 0.007253
0.032385 -0.214610 0.838282
0.579956 -0.259857 0.536576
-0.141245 -0.736523 0.298799
0.372196 0.489510 0.514679
0.442349 0.093728 -0.681693
0.079828 0.412060 -0.820158
0.654618 -0.513227 -0.179535
-0.521252 0.286800 -0.568332
0.661966 -0.378685 0.335733
-0.457306 0.200317 0.675980
-0.768145 -0.216014 -0.087676
0.774982 -0.060612 0.540788
0.233350 0.746122 -0.273669
-0.086473 -0.518389 0.771521
0.034337 0.493870 -0.837537
-0.706574 -0.377198 0.164620
0.614691 -0.480729 0.280967
0.194791 -0.614615 0.566982
-0.159066 -0.644241 0.540390
-0.723004 0.334189 -0.047881
0.385528 -0.436276 0.554582
0.514773 -0.164871 0.654027
-0.364734 -0.402844 0.608807
-0.685687 -0.364892 -0.325802
0.630901 -0.422495 0.322992
-0.092393 0.828296 0.058531
0.567998 -0.061525 0.633698
-0.778214 -0.189647 -0.126800
0.803273 0.103351 -0.469760
-0.428376 0.547550 -0.400458
0.447307 -0.407358 -0.521720
-0.579199 -0.710678 0.057948
0.491434 -0.394738 0.490212
-0.293078 -0.348521 0.734789
-0.514175 -0.416267 0.445944
0.626353 -0.587231 0.122569
-0.375429 -0.741315 0.259641
-0.556800 -0.086556 -0.637975
-0.004199 0.731323 0.312411
0.000013 -0.128716 -0.850645
0.164138 0.639562 -0.552643
0.773869 0.116003 0.486514
-0.471945 -0.618945 0.285495
-0.475619 0.051643 0.668983
0.200416 0.480217 0.695754
0.849052 0.004185 0.435112
-0.035923 0.831613 0.049849
0.319076 0.221790 0.728776
0.487618 0.201711 -0.664400
0.175713 0.201649 0.783535
0.021855 -0.172272 -0.842304
0.810709 0.104571 0.046780
-0.532622 0.160080 0.647208
0.248278 0.816892 0.088382
0.675926 -0.457446 0.211150
0.439719 0.094603 0.682697
0.548118 -0.702384 -0.125883
-0.382693 0.728096 -0.265597
0.685004 -0.433678 0.255296
-0.439938 -0.112703 -0.682614
-0.403544 0.674019 0.298821
-0.296931 -0.466456 -0.612997
-0.194734 0.090793 0.776271
-0.096496 -0.699045 -0.396913
-0.645947 0.535924 -0.175787
-0.141050 -0.156219 -0.796777
0.514937 0.146011 -0.653964
-0.530950 0.498838 0.346597
0.033424 -0.062199 -0.837885
0.209608 0.524711 -0.642068
-0.847129 -0.009220 0.158667
-0.023096 -0.164030 -0.841830
0.499308 0.082704 0.659935
-0.813965 -0.096047 0.076496
-0.156318 0.566783 0.653289
0.273157 0.528240 0.574987
-0.537912 0.761919 -0.076552
0.759241 0.239329 0.141252
-0.803682 0.122974 -0.185464
-0.267851 -0.812379 0.100199
-0.059202 0.820068 -0.080065
0.844338 -0.016528 0.083242
0.746630 -0.272339 0.156185
-0.816057 0.090568 -0.079965
-0.230550 0.678765 -0.450016
-0.757885 0.242879 0.081339
-0.652847 -0.342399 -0.381136
0.003600 -0.689477 -0.421967
0.539313 -0.766040 0.071030
-0.313501 0.676759 0.386125
0.083614 -0.529316 0.763453
0.666685 0.331102 -0.378596
-0.404834 0.820248 -0.079594
-0.180412 -0.485295 -0.710678
0.462674 0.296776 -0.616935
0.381195 -0.731341 -0.263850
0.326543 -0.850401 -0.000653
-0.062179 -0.634799 0.565117
0.198689 0.685093 -0.433445
0.186229 -0.459158 0.731000
0.773557 -0.092958 -0.509869
-0.820833 0.078063 -0.181979
0.359918 0.126173 -0.713175
0.705478 0.380068 0.023422
-0.343238 0.355310 -0.677835
0.079070 -0.803700 0.122927
0.507618 0.396521 0.472246
0.488865 0.449947 0.437572
-0.567839 -0.456986 0.351561
0.761128 0.234388 0.297515
0.091245 0.087357 -0.815798
-0.072987 -0.241866 0.822772
-0.077490 -0.810741 0.104488
-0.272873 -0.827132 -0.061576
-0.305596 0.565259 -0.505529
-0.542108 0.374457 0.459821
0.665312 0.218239 -0.492834
0.284306 0.325868 0.742059
-0.003055 0.582556 0.701887
0.008127 0.631834 0.572878
0.797971 -0.137926 0.276703
0.625273 -0.171052 -0.580064
-0.775056 -0.197917 -0.287746
0.388821 -0.785869 -0.169601
-0.598559 -0.565941 -0.211887
-0.138207 0.678236 0.451401
0.318855 -0.408653 0.648877
0.460083 -0.370029 -0.546272
0.741869 -0.058320 0.567282
-0.256312 0.811641 -0.102132
-0.829219 -0.016349 0.530817
0.361189 -0.164618 0.712690
-0.200825 0.740031 -0.289618
-0.404332 -0.645155 0.326897
0.627320 -0.021612 -0.611041
0.245326 0.148843 0.756950
0.497477 -0.071727 0.660634
0.643015 -0.543602 -0.084504
0.777377 0.169186 -0.429819
-0.140512 0.335411 0.796983
-0.212998 -0.243201 0.769297
-0.835565 -0.039501 0.231688
-0.102488 0.562453 -0.711443
0.444929 0.684428 -0.247028
-0.204671 -0.288812 -0.772477
0.670077 0.472755 0.000401
-0.410479 0.327846 -0.638062
-0.839486 -0.029234 -0.008523
0.293544 -0.727343 0.322829
-0.282273 -0.826588 0.063000
0.264758 0.850354 0.000776
0.017327 -0.834935 -0.041149
-0.339622 0.624452 0.412312
-0.625475 0.589531 -0.019403
0.508366 -0.724522 -0.143495
-0.602725 -0.541843 0.231818
0.296672 0.274726 -0.737336
0.661714 -0.143009 -0.571665
-0.419765 -0.665364 0.291255
0.225522 -0.414861 0.736005
0.627299 -0.584754 -0.081744
0.736195 -0.299658 0.185676
0.069349 -0.639925 0.551692
-0.554135 -0.731314 0.090936
-0.475936 -0.331231 -0.569217
0.646379 -0.165935 0.564077
0.785647 -0.170183 -0.224092
-0.083940 -0.518878 -0.773566
-0.221158 -0.492258 -0.662969
0.488823 0.283110 0.604452
-0.253050 -0.664883 -0.458453
0.312945 -0.015348 -0.731119
0.798562 0.136379 -0.169152
0.030558 -0.552070 0.781698
-0.281536 0.061976 0.743117
-0.828753 -0.057336 -0.046144
-0.003385 -0.742915 0.282067
0.647691 -0.367009 -0.361682
0.600897 -0.260070 -0.515419
0.519208 -0.128933 -0.652332
0.555758 -0.655865 0.164766
-0.639066 0.395407 0.341911
-0.489373 -0.257345 0.629669
0.356856 0.205950 0.714345
-0.508088 -0.379774 0.488522
-0.003642 -0.523255 -0.849259
-0.224045 0.825302 0.066367
0.196914 0.826729 0.062633
-0.550032 0.786645 0.039708
0.329044 -0.065361 0.724969
-0.564118 0.222768 0.589501
-0.788748 0.162063 -0.170876
-0.693802 -0.410641 0.142875
0.637222 0.136323 -0.602844
0.682353 0.440620 0.100002
0.451345 0.517006 0.408034
-0.553390 0.070170 -0.639277
-0.381783 -0.062821 -0.704823
0.236466 -0.673880 -0.462803
0.820440 0.031842 0.524103
-0.633356 0.364645 -0.378382
0.264887 0.697326 0.401414
-0.279562 0.117018 0.743872
-0.487321 -0.719205 0.169860
0.233069 0.613701 -0.529614
0.254614 -0.588956 0.532814
0.001289 0.747215 0.270808
-0.283055 -0.249326 -0.742537
0.624597 -0.547476 -0.204312
0.184824 0.265328 -0.780056
-0.570929 -0.715708 -0.089749
-0.149641 -0.833411 0.045142
-0.439778 -0.211742 0.682675
-0.421622 -0.745440 0.209326
-0.211125 -0.004618 -0.770012
-0.546283 0.786165 -0.043936
-0.840064 0.027720 -0.306626
0.337217 -0.109314 0.721848
-0.712946 -0.360520 -0.111129
-0.792340 -0.152663 0.113184
-0.345329 0.538318 -0.492738
-0.020735 -0.772335 0.205041
-0.758307 0.195019 -0.423060
-0.395050 -0.622099 0.359235
-0.011849 0.400296 -0.846125
-0.192252 0.186334 0.777219
0.741281 -0.093443 0.541661
0.368536 -0.495869 -0.511980
0.726382 -0.325345 0.130282
0.290193 -0.818143 -0.085104
-0.548470 -0.138985 -0.641156
0.370016 0.422734 -0.583637
0.724117 -0.252513 -0.399755
-0.713235 0.068050 -0.578222
-0.398515 -0.022651 -0.698433
-0.406854 0.078068 -0.695248
0.464152 0.781766 0.130468
-0.210455 0.388571 0.770268
0.663621 0.489657 -0.037564
-0.640841 -0.158186 -0.577365
-0.124839 0.039101 0.802970
0.800443 0.131455 -0.435301
-0.717260 0.349229 -0.284695
-0.631198 0.179787 0.565404
-0.817854 0.085862 0.048259
0.789328 -0.056373 -0.530683
-0.666304 0.482632 0.091984
-0.310415 0.821006 0.077611
0.227550 -0.516524 0.632314
0.150954 -0.293525 -0.792993
-0.117380 -0.844079 0.017207
0.147068 -0.447365 -0.781952
-0.557245 -0.768149 0.015148
0.095114 0.630468 0.576455
-0.654235 0.489095 0.233057
-0.666146 0.372906 -0.337331
-0.276240 0.640266 -0.459879
0.484620 0.499164 -0.392600
0.588552 0.564050 0.223784
-0.252945 0.572256 0.551186
0.235741 -0.633107 -0.507537
0.104243 -0.747761 0.269377
-0.007377 0.117083 -0.847833
0.179192 -0.646186 -0.535296
0.782691 -0.177924 0.030515
0.696887 -0.402563 -0.208743
-0.827450 0.060746 -0.133305
-0.353271 0.742381 0.280734
-0.833894 0.043877 0.233859
-0.760380 -0.236348 -0.128172
-0.053598 0.474099 0.830181
-0.203340 0.530164 -0.642883
0.663931 0.363010 -0.349442
0.049640 -0.849657 -0.002600
0.629268 -0.579597 0.080097
0.421391 -0.629975 -0.325018
0.366089 -0.642435 0.367859
0.488577 -0.846848 -0.009955
0.736566 0.228839 -0.410983
0.376080 -0.698323 -0.301980
0.475521 0.162301 -0.669020
-0.437987 0.147588 0.683359
-0.413072 0.834003 0.043590
0.281038 0.835742 0.039035
-0.397460 0.363986 0.614939
0.288378 -0.838758 0.031139
0.202434 0.538704 0.635250
-0.817677 0.086325 -0.286206
-0.306801 0.325485 -0.733466
0.594363 -0.670980 0.106469
-0.001031 0.598848 0.659239
-0.694888 -0.102585 -0.578910
0.797787 0.138409 0.025780
0.375348 0.586247 0.414791
0.718580 -0.345773 0.029180
-0.641995 -0.084844 -0.605434
-0.413514 -0.461100 -0.501771
-0.032451 0.808964 -0.109141
-0.128367 -0.552029 0.695989
0.052355 -0.668882 0.475882
-0.422758 -0.555099 0.398529
-0.466143 0.561357 0.348885
-0.169284 0.424608 -0.782491
0.450609 0.511529 -0.414248
-0.580875 0.400762 0.394749
0.268751 -0.774815 0.198547
-0.674512 0.147388 0.554485
0.646069 -0.535602 0.087740
0.274968 0.366098 -0.735321
0.723788 -0.332137 -0.043669
0.110093 -0.838902 -0.030763
0.287861 0.261107 0.740702
0.106758 -0.784543 0.173075
-0.122314 -0.746982 -0.271417
-0.663777 0.489248 0.043987
0.701610 -0.012325 0.582662
0.015201 -0.539009 -0.815899
0.047448 -0.204696 -0.832530
-0.253530 -0.484879 -0.637975
-0.834860 0.041345 0.182804
0.043527 0.740357 0.288765
-0.383487 0.331506 0.661392
-0.540589 -0.418130 -0.417666
-0.382808 -0.725528 -0.268051
-0.484803 0.354133 -0.537448
0.719453 0.343488 0.292468
0.525616 0.620101 0.230671
-0.087828 -0.436051 0.817103
0.601548 0.562823 -0.212016
-0.250150 -0.103951 0.755107
0.327470 -0.286980 -0.725570
0.702424 0.388063 0.172653
0.169077 0.265319 0.786070
-0.394940 0.287313 -0.694131
-0.549393 0.400165 0.426827
-0.081072 -0.694153 0.409724
0.680858 0.023811 0.590588
-0.094907 0.843425 -0.018920
0.530191 -0.481439 -0.364754
-0.196908 -0.685869 0.431415
0.152504 -0.684787 0.434246
-0.798708 -0.135998 0.231359
0.177215 0.023682 0.782961
-0.156263 -0.678353 0.451094
-0.412042 0.639511 0.324831
0.374190 -0.018149 -0.707723
0.282277 0.186318 0.742835
-0.062137 -0.656789 0.507544
0.103640 -0.719403 0.343620
0.657185 -0.217684 0.501516
-0.277597 -0.254394 0.744622
0.656925 -0.068112 0.599732
0.213030 -0.241792 -0.769285
-0.365414 -0.317490 0.693478
0.425401 -0.431194 0.519791
-0.314875 0.767247 -0.218367
-0.211473 0.784108 0.174212
0.639523 0.552746 0.017268
-0.032547 0.529157 0.814682
-0.268266 -0.843721 -0.018145
-0.060292 0.121652 -0.827623
-0.749558 -0.264671 -0.329411
-0.491272 -0.291923 -0.593189
-0.817840 0.085898 0.259593
0.054120 -0.375412 0.829982
-0.053204 -0.206155 0.830332
-0.826697 -0.062716 0.100883
-0.615481 -0.493827 -0.267077
0.060997 0.649123 0.527607
-0.699036 0.223461 -0.453889
-0.576204 -0.417592 0.382589
0.219961 0.720707 -0.340203
-0.753459 0.254462 0.126311
0.183197 0.661876 0.494227
-0.679910 0.447017 0.043989
0.304509 -0.823413 0.071311
-0.194810 0.630859 0.550716
-0.135852 0.797353 -0.139544
-0.065187 -0.162433 0.825753
0.605838 0.640937 -0.126174
0.079113 0.358229 0.820431
-0.794268 -0.147616 -0.136741
-0.281383 0.555460 -0.539542
-0.208289 -0.675762 -0.457877
-0.718536 -0.345889 0.135760
-0.774768 0.198670 -0.075882
0.268229 -0.636676 0.471481
-0.471107 0.650729 0.254548
-0.550988 0.288260 -0.537135
-0.019265 0.503187 0.843293
0.469510 -0.102044 0.671317
-0.524042 -0.822711 0.029632
0.694954 -0.407626 0.124184
0.657710 -0.333831 -0.384842
-0.467329 -0.700265 -0.208792
0.228470 -0.366853 -0.763388
-0.137617 0.512306 -0.726459
0.052775 0.401166 0.830495
0.435974 -0.784524 0.155884
0.095495 -0.224928 -0.814175
0.737330 0.013958 -0.569016
0.179819 -0.713999 0.357763
0.521355 -0.260755 -0.594273
0.551843 -0.782294 0.017672
-0.652371 0.519108 0.075215
0.513220 0.041645 0.654621
0.685776 0.431657 -0.241459
0.458264 0.270322 -0.647799
-0.501078 0.319919 -0.555387
-0.687257 -0.270238 0.418890
0.676586 -0.455721 0.077506
-0.785807 -0.169764 -0.341421
-0.407806 0.425924 -0.542654
0.455195 -0.559125 -0.362067
-0.048333 -0.531293 -0.796759
0.211700 0.043407 0.769793
0.803399 -0.123715 -0.183591
-0.031949 -0.279159 0.838449
-0.486776 0.040073 -0.664721
-0.349522 -0.234258 0.717148
0.076107 -0.729696 -0.316668
0.205919 0.450819 -0.719648
0.618631 -0.534142 0.223611
-0.403594 -0.701718 0.271076
0.082389 0.008473 0.819180
0.836179 0.037893 0.129958
0.372036 0.003267 0.708545
0.053345 0.550234 0.772803
-0.324900 -0.631764 -0.419724
0.493979 0.841327 -0.024412
0.105658 -0.309001 -0.810294
-0.731924 0.310836 0.297642
0.392786 0.190326 0.700621
-0.103455 -0.592029 0.677086
-0.466141 0.398647 0.511596
-0.694452 -0.408939 -0.178313
-0.790096 -0.158535 -0.301898
-0.609175 -0.632202 0.034286
-0.337950 -0.721035 0.317400
-0.084307 -0.733009 0.307996
-0.755649 0.248730 -0.148428
0.758148 -0.242189 -0.139943
-0.102550 -0.683775 -0.436897
-0.500706 -0.795618 0.080060
0.369065 0.423213 0.584109
-0.099642 -0.795050 0.145569
0.299404 -0.124337 0.736292
-0.218056 -0.690632 -0.418943
0.517494 0.569384 0.289504
-0.642201 -0.545732 -0.115365
0.788813 -0.161893 -0.410184
-0.701659 0.390068 -0.000133
-0.143960 -0.587786 -0.644644
-0.072440 0.584284 0.697362
-0.365552 -0.350217 0.660613
0.473130 -0.525198 -0.378057
0.536052 0.403748 -0.436584
-0.267010 -0.840506 0.026562
0.422100 -0.643913 0.310372
0.445929 -0.503192 0.427265
0.651265 0.186831 0.538291
-0.443224 0.468970 0.464191
0.169553 0.745757 0.274626
-0.688174 0.425379 -0.231985
0.693840 0.410541 -0.204147
0.768942 -0.213928 -0.340535
0.045727 0.381786 -0.833187
0.238761 0.724037 0.331485
-0.391346 -0.356509 0.628530
0.017135 -0.820295 -0.079470
0.150513 -0.818632 0.083824
0.148149 -0.475609 -0.752625
-0.267525 -0.790963 -0.156266
-0.332396 0.709167 -0.334823
0.498702 -0.178306 -0.660167
0.179714 -0.363173 -0.782007
0.079155 -0.669655 -0.473859
0.491063 -0.721881 0.163441
0.281816 -0.249063 0.743011
0.032541 -0.732125 0.310311
0.177089 0.522868 0.676430
-0.434036 -0.483767 -0.458582
0.713573 -0.358878 -0.209376
-0.220515 0.789387 -0.160389
0.046310 0.837699 -0.033913
0.324159 -0.718560 -0.333666
-0.275999 0.211576 0.745232
0.450712 0.188138 0.678499
-0.784931 0.172057 0.249141
-0.342200 -0.648778 -0.385406
0.398725 0.827869 -0.059649
0.692087 -0.415133 0.023713
0.250751 0.732880 -0.308336
0.797534 0.139071 -0.386405
0.359615 0.387138 0.629631
0.453543 -0.745744 0.177099
-0.150384 0.222091 -0.793211
0.796355 0.142154 -0.022302
-0.412625 0.386165 -0.577594
0.810177 -0.105964 -0.352665
0.748145 -0.268371 0.076071
0.135994 0.227552 -0.798709
-0.645735 -0.523009 -0.207639
-0.099863 -0.481754 -0.794767
0.065652 -0.564923 0.745808
0.406982 0.008295 -0.695199
0.686334 0.170113 -0.519941
-0.592565 -0.534949 -0.248870
-0.740543 -0.234376 0.401469
0.256381 0.576715 -0.543289
-0.744172 -0.278775 -0.139265
0.668527 -0.109010 0.595300
0.282027 -0.306782 0.742930
-0.371087 -0.365280 -0.640016
0.281330 0.758163 0.242152
-0.275214 0.702217 0.388607
0.440127 0.446064 -0.490194
0.239450 0.753547 0.254232
-0.147769 -0.823085 -0.072170
0.045144 -0.558254 -0.765507
-0.189912 0.365223 -0.778113
-0.248505 -0.732697 -0.308815
-0.850177 0.001239 0.441205
-0.717051 0.024043 -0.576765
0.541259 0.078129 0.643910
0.403456 -0.627370 0.345558
-0.351957 -0.402091 -0.622336
-0.130122 -0.601929 0.644338
-0.630669 -0.340515 0.405200
0.304006 -0.736076 -0.299970
0.059483 -0.147732 -0.827932
-0.439125 0.647291 0.289969
-0.613727 -0.385703 0.376955
-0.061045 0.016675 -0.827335
-0.738513 -0.181331 -0.456541
0.185573 0.577784 0.613030
-0.264301 0.811000 0.103811
-0.245295 0.388327 0.742766
0.211625 0.555670 -0.609093
0.693443 0.370744 0.312195
-0.675086 -0.397942 0.303359
-0.232223 -0.822838 -0.072816
0.471288 0.603357 -0.301737
-0.790944 -0.156316 0.366006
-0.135395 -0.732179 -0.310170
-0.299799 0.730296 -0.315098
-0.655830 -0.174295 0.546265
-0.598074 0.377131 -0.401181
0.341219 -0.504747 0.530421
-0.207242 -0.287458 0.771495
0.630323 -0.576834 0.038720
-0.245274 0.629371 -0.501740
0.139205 0.104984 0.797482
0.458346 -0.066142 -0.675583
0.784563 -0.173021 0.327715
0.135068 -0.155552 0.799063
0.353735 0.698135 0.324516
0.261184 0.484995 -0.630205
0.280889 -0.085444 0.743365
0.095213 0.406993 0.814283
0.198548 -0.319883 -0.774815
0.386975 0.040994 0.702840
0.021610 0.212740 0.842397
-0.460407 -0.292012 0.623966
-0.540050 -0.785209 0.051125
-0.244619 0.088546 0.757220
-0.688156 0.425426 -0.017755
0.168087 0.676324 0.456405
-0.311141 0.092450 0.731808
-0.153748 -0.756814 -0.245683
-0.083343 0.383358 0.818816
-0.009261 -0.348360 -0.847113
-0.801821 0.127846 -0.141622
-0.639634 0.552456 -0.134807
0.161909 -0.767678 0.217237
-0.071978 -0.104092 0.823158
0.269776 -0.435295 0.671314
0.838824 0.030966 0.361900
-0.128225 0.692392 0.414335
-0.772404 -0.204862 0.343134
0.614488 0.258263 -0.503634
0.182511 0.218841 -0.780939
-0.788411 0.162946 -0.408775
0.171584 -0.841814 0.023136
0.773030 -0.203223 -0.196932
0.461640 -0.224647 0.674324
-0.441347 0.638090 -0.296948
0.267563 0.772617 0.204304
0.069999 -0.037421 -0.823914
0.716269 0.324287 0.335829
-0.676758 0.021585 -0.592155
-0.681387 -0.443149 -0.160037
-0.081950 -0.110149 -0.819348
-0.217899 0.595887 0.562600
0.655126 0.074301 0.600419
0.427487 0.286194 0.662706
-0.370331 -0.783404 0.176057
-0.815541 0.091920 -0.397661
-0.727384 -0.154100 -0.494900
-0.693008 -0.323872 -0.359505
0.033633 -0.020516 -0.837806
0.761257 0.234050 -0.183659
0.174821 -0.250413 -0.783876
0.109292 0.680136 -0.446425
-0.309151 -0.676724 0.390511
0.101854 -0.142009 -0.811747
0.123818 -0.614809 -0.617458
0.037513 -0.603350 0.647451
0.516362 -0.519152 -0.340872
0.227222 0.409947 -0.739220
0.117378 -0.110299 0.805819
-0.759492 0.238673 -0.104928
-0.695542 -0.406084 0.002249
-0.721077 -0.058169 0.575227
-0.366652 -0.685243 0.324491
-0.505339 0.317469 0.553577
0.522732 -0.367655 0.486000
-0.541677 0.627801 0.206911
-0.347249 -0.354514 -0.674618
0.092262 0.043711 -0.815410
-0.553171 0.388420 -0.434795
0.062803 -0.187801 0.826664
0.093605 -0.759480 -0.238705
-0.141888 0.632759 0.570458
-0.387115 -0.766695 0.219810
-0.555412 -0.652947 0.168032
0.077814 -0.104736 0.820928
-0.303690 -0.219146 0.734655
0.612686 0.352430 0.411268
-0.501230 0.390860 0.484294
0.461322 0.544274 0.370792
-0.092673 -0.153829 -0.815253
0.351014 -0.446312 -0.579059
0.732561 -0.309169 0.012932
-0.217733 -0.774345 -0.199778
-0.528330 0.232988 0.615066
0.345697 0.701452 -0.329237
0.154678 -0.459998 0.761707
-0.045557 0.285455 -0.833252
-0.462158 -0.069244 -0.674126
0.401827 -0.744428 -0.230134
0.044184 -0.748195 -0.268242
-0.167608 -0.770634 -0.209496
0.316549 0.722334 0.335944
-0.731615 -0.311645 -0.115429
0.119840 -0.733695 0.306203
0.386837 -0.825804 -0.065054
-0.645432 -0.537270 0.037099
0.818216 -0.084914 -0.162886
0.561245 -0.682215 0.132925
0.848501 -0.005628 0.040308
-0.100496 0.806968 -0.114369
0.201100 -0.097947 0.773840
-0.060857 0.673386 0.464095
-0.230094 -0.579594 0.566698
-0.415594 -0.376447 0.584344
-0.419069 0.307011 0.650307
0.733192 0.307519 -0.294613
0.163122 0.618554 0.594713
-0.311521 0.785316 -0.171049
0.470114 -0.147757 0.671086
-0.443974 -0.674872 0.257541
0.179168 0.107985 -0.782216
-0.020661 0.676230 0.456650
0.625994 0.588171 -0.130170
0.340141 0.737312 -0.296735
-0.386009 0.596553 0.393824
-0.378908 -0.438268 -0.559211
0.354825 -0.360531 -0.661027
0.202628 -0.180401 0.773257
-0.054747 -0.387063 -0.829742
-0.168262 0.724308 -0.330774
-0.491876 -0.465631 0.418877
0.416211 0.155322 0.691675
0.043499 -0.004759 0.834038
0.304966 -0.769356 -0.212845
-0.447302 0.810422 -0.105324
0.412082 0.843294 0.019262
0.668967 -0.475661 0.167629
-0.734855 -0.300130 0.341402
0.627634 -0.386025 0.362725
0.136818 -0.442894 0.796674
0.024766 0.678669 0.450266
0.721046 0.251389 0.403951
-0.731308 0.312449 -0.298021
-0.432653 0.256369 -0.685396
-0.665895 0.071086 -0.596306
-0.125148 -0.638876 -0.554441
0.420544 -0.762701 -0.193140
-0.053131 -0.536434 0.786820
0.725098 -0.328707 0.313238
-0.782947 -0.177252 0.064163
0.107685 0.140693 0.809520
0.176893 -0.147810 0.783085
0.649663 0.526194 -0.013442
-0.129101 0.666812 -0.481301
-0.266517 0.258521 0.748853
0.048130 0.103952 0.832269
-0.444815 0.091283 -0.680751
-0.821263 0.076937 -0.360270
-0.487437 0.703205 -0.185745
0.233801 0.833128 0.045882
-0.068915 0.599228 0.658245
0.425064 -0.159326 -0.688294
-0.775751 -0.196098 0.234800
0.070048 -0.334761 0.823895
0.101067 0.093793 0.812047
-0.376483 0.402080 0.597822
-0.554338 0.775759 -0.001106
-0.091187 -0.730571 -0.314378
-0.206360 -0.101545 0.771832
0.139969 0.634721 0.565319
-0.668748 0.476233 0.000833
-0.836727 0.036458 0.275374
-0.189374 0.821257 -0.076954
0.415576 0.525208 -0.435602
-0.723300 -0.333414 0.093904
0.413953 0.058547 -0.692537
0.622604 -0.597049 0.002654
0.782391 -0.178709 0.279427
0.000807 0.781913 0.179961
0.140266 0.797293 -0.139701
-0.551986 0.194086 0.630314
-0.762055 -0.231961 -0.169241
