-0.167576 -0.795527 -0.199229
0.292228 -0.404752 0.014922
0.375644 0.524422 0.278246
-0.009831 -0.763341 -0.014355
-0.099175 0.031103 -0.234605
0.541850 0.747541 0.051948
0.067515 0.645811 -0.225458
0.012334 0.228824 0.526998
0.195149 -0.666918 0.098756
-0.351239 -0.713595 -0.210365
0.088402 0.573983 0.384930
0.235871 -0.237191 0.276853
0.359970 0.771436 -0.088797
-0.300421 0.122979 0.076090
-0.034454 -0.135696 0.077613
-0.053105 -0.362204 0.243385
-0.089112 0.097632 0.449522
0.201665 0.177222 -0.353544
-0.273004 -0.323612 0.091578
-0.412478 -0.644456 -0.068949
0.227777 -0.538526 0.143339
-0.406360 0.633828 -0.019028
-0.253555 -0.605438 -0.384785
0.135657 -0.503922 -0.134149
-0.406286 -0.592998 -0.228847
0.056800 -0.335831 -0.193399
-0.304323 -0.066269 -0.279228
-0.352603 -0.600803 -0.311417
-0.145557 -0.234780 -0.029290
0.325618 0.534486 -0.219931
-0.237257 0.469434 0.280728
0.183564 0.230189 0.509621
0.153803 0.369259 0.432517
-0.145774 -0.794594 0.139640
-0.390439 0.189739 -0.248478
-0.181534 -0.230653 -0.029978
-0.029811 0.597897 0.344649
0.337557 0.275349 0.358341
-0.248142 -0.310575 0.083353
-0.212452 0.545421 0.237704
0.056583 -0.399634 -0.278263
-0.233813 -0.657717 -0.367170
-0.038435 0.425161 -0.359214
0.308122 -0.048226 0.242806
-0.008721 -0.584391 0.246827
-0.067107 -0.795404 0.125138
-0.044515 -0.030464 -0.185798
-0.072582 -0.253180 -0.251859
-0.188672 0.163523 -0.280078
0.009729 0.356236 0.448797
0.166288 -0.509691 0.264921
-0.284002 0.540333 -0.169287
0.262050 -0.004371 -0.206920
0.026408 0.324584 0.473837
0.502874 0.254052 0.087108
0.396445 -0.006478 0.104719
0.456255 0.444616 0.203636
0.273938 -0.681829 -0.037449
0.119468 -0.506720 -0.160531
0.077589 -0.674309 -0.223727
-0.200872 -0.219341 -0.059577
-0.358307 0.502903 -0.188679
0.311078 -0.312334 0.175208
0.175303 -0.273150 -0.064259
0.108068 0.615423 -0.257988
-0.006883 -0.461589 -0.391607
-0.244692 0.608595 0.028945
0.194718 0.677961 0.245346
-0.017050 0.575290 -0.286631
-0.270433 0.007329 -0.273852
0.192263 0.099468 -0.325445
0.502189 0.373448 0.051818
-0.449755 -0.223580 -0.406230
-0.121855 -0.222239 -0.080652
0.289294 -0.450034 0.163678
0.378643 0.624384 -0.168392
0.160032 -0.396185 -0.121065
0.103489 0.533869 0.409485
0.154657 0.570258 -0.286377
0.241887 -0.648406 0.011678
-0.269428 0.515529 0.136790
-0.320350 -0.744008 -0.235206
-0.276978 0.108880 0.160050
-0.113717 -0.258732 -0.312805
0.222127 0.677795 0.227188
0.192119 0.696510 0.206845
0.282418 -0.010904 -0.179029
-0.041865 -0.789459 -0.265549
0.284383 -0.244637 0.047493
-0.214668 0.005713 0.036217
0.499727 0.404331 -0.022180
-0.415956 -0.275770 -0.145484
-0.351827 0.589941 -0.119386
-0.171441 0.430051 -0.292838
0.228552 -0.126070 -0.030602
0.083153 -0.281971 0.336388
-0.157162 0.200869 0.330932
0.287047 -0.463542 0.061929
-0.146284 -0.765693 -0.315485
-0.339832 -0.708830 0.062954
-0.006078 -0.396191 -0.371397
0.131204 0.194362 -0.377582
-0.114919 -0.287806 0.091823
0.231907 -0.512267 0.191750
0.096713 -0.746229 -0.244596
0.427867 0.750113 -0.116350
-0.010097 0.482016 0.422664
0.137619 -0.326521 0.348159
-0.156583 -0.047196 0.179042
-0.049438 -0.526395 0.244723
0.386269 0.168027 -0.224972
0.306301 0.621323 0.237113
0.462755 0.505324 -0.127609
-0.365633 0.289108 0.070395
-0.270252 0.071270 0.005905
-0.467071 0.439424 -0.131672
0.147874 -0.599391 0.192579
-0.341979 0.505612 0.023100
-0.406434 0.270578 -0.123249
0.266589 -0.281027 -0.002364
-0.031795 -0.385889 -0.385437
-0.453034 -0.114907 -0.262973
0.295369 -0.299614 0.215054
-0.315064 0.200600 -0.290340
0.287372 -0.422166 0.216552
0.427092 0.216700 0.331820
0.019860 -0.107566 -0.072549
-0.086318 -0.096573 0.088731
-0.295267 -0.558575 0.158569
-0.422574 -0.364393 0.016041
-0.076101 -0.671870 0.231148
-0.078988 -0.557979 0.209349
-0.158069 -0.225604 -0.054756
-0.052405 0.033323 0.447252
-0.107816 0.114549 -0.299765
0.181863 -0.064358 0.345150
0.115987 -0.441595 -0.159425
0.431280 0.861090 0.052332
0.005258 0.292339 -0.384872
-0.237875 -0.250607 -0.341490
0.003873 -0.749633 0.317397
0.533136 0.471061 0.015626
-0.360452 -0.317862 0.047444
0.218466 -0.086892 0.276008
0.272744 0.299856 0.386947
-0.315826 -0.627480 0.138793
-0.110269 0.276978 0.372320
-0.301738 -0.338077 0.096273
-0.438513 -0.291355 -0.396148
-0.000030 -0.642895 0.251549
0.500419 0.257337 0.127728
-0.428781 0.270415 -0.036315
-0.379641 0.225925 -0.104182
0.477771 0.132924 0.166104
0.262324 0.327676 -0.339970
0.446733 0.059989 0.145171
-0.215348 0.248437 -0.284444
0.500418 0.308862 0.039299
-0.387428 -0.548219 -0.303806
-0.459606 -0.382802 -0.080852
0.204074 0.272184 0.449315
-0.148472 -0.263743 0.039163
0.341272 0.478715 0.346242
0.027550 0.703096 -0.089533
-0.139757 0.264890 0.344048
-0.512959 0.506920 0.002985
0.224416 0.161233 0.506268
-0.096084 0.677659 0.122838
-0.091997 -0.767203 0.041637
-0.018687 -0.697777 -0.300442
0.005587 -0.295625 -0.228580
0.192929 0.443097 -0.343477
0.191932 -0.107000 0.274565
-0.378134 -0.271374 -0.038086
0.146965 -0.086367 0.316004
-0.003653 -0.123695 0.232310
0.017844 -0.378034 -0.333584
-0.011652 0.629132 0.317282
-0.466804 0.559781 -0.108269
0.565946 0.671769 0.037098
-0.080888 -0.795268 -0.234571
-0.503599 0.435107 -0.061816
0.253443 -0.797711 -0.071990
-0.028746 0.189473 -0.363774
0.344402 0.097503 -0.235586
-0.310981 0.370639 0.167333
-0.432232 -0.577506 -0.164068
0.160399 -0.487822 0.288722
-0.233391 0.195274 -0.268203
-0.189065 -0.621507 0.174635
0.296695 0.217638 0.430359
0.283027 -0.346754 -0.002948
0.243126 0.234346 -0.346949
-0.200732 -0.790808 0.001274
0.468095 0.296148 0.245832
-0.451122 -0.326172 -0.359475
-0.282346 -0.786503 -0.226127
-0.277848 -0.197819 -0.173862
0.019332 0.197539 0.525818
0.503944 0.403388 0.111856
0.221911 0.274512 0.425976
-0.222653 0.024802 0.200532
0.061395 -0.478434 -0.321325
0.318537 0.057523 0.400461
0.084766 -0.556974 -0.252113
0.258510 0.123095 0.481093
0.534054 0.720684 -0.067017
-0.158504 0.479213 -0.280480
-0.384608 -0.499963 0.106591
0.441076 0.444371 -0.141413
-0.287237 -0.280343 -0.395191
0.290268 -0.101053 0.044296
-0.087037 -0.068223 0.276379
-0.087026 -0.408228 0.215653
-0.096870 -0.074269 0.240215
-0.356366 -0.732698 -0.158718
0.013390 -0.333330 -0.289796
-0.078808 0.461616 0.407598
-0.041866 -0.419891 -0.406287
-0.460525 -0.496305 -0.052089
0.420666 0.555504 0.104195
-0.405427 -0.531987 -0.287321
0.340672 0.035103 0.352497
-0.108881 0.636131 0.239192
0.108972 0.671075 0.276631
0.037838 -0.543818 -0.348888
-0.034150 0.604073 -0.250094
-0.271302 -0.235207 -0.017576
0.451753 0.496941 0.144391
-0.088272 -0.497683 0.214280
0.187390 0.017710 -0.271198
-0.500925 0.604366 -0.023264
-0.303842 0.375872 0.194722
-0.028873 0.380813 0.436096
-0.059183 0.590831 0.339040
-0.275897 0.330443 -0.252279
-0.195660 -0.234340 -0.300699
0.210896 0.234251 0.489504
-0.515184 0.451236 -0.011247
0.126494 -0.066384 -0.170750
0.473270 0.517410 0.107186
0.080005 -0.612139 -0.221044
-0.234436 -0.776927 0.211782
0.022229 -0.615309 -0.329149
0.432663 0.346733 0.299072
0.324939 0.777520 -0.046615
-0.487799 0.448469 -0.100337
-0.446066 -0.079944 -0.272338
0.365419 0.803205 -0.048751
0.463013 0.429149 -0.109125
0.151901 0.404301 0.433012
0.208843 -0.052026 -0.166368
0.206039 -0.638131 0.093177
0.469091 0.199635 -0.102094
0.277347 -0.409717 -0.009138
0.052225 0.725014 0.070518
-0.215823 0.616658 0.042105
-0.057027 -0.714424 0.295817
-0.145284 0.381626 -0.321287
0.038334 0.005161 -0.267818
-0.066767 0.117400 0.476235
-0.210568 -0.296766 0.074544
-0.521163 0.507408 -0.025984
0.295722 -0.233431 0.134026
0.001523 -0.051877 -0.174640
-0.006143 0.676815 -0.143334
-0.397543 -0.591710 0.073926
-0.112316 0.651288 -0.087378
-0.455788 -0.128662 -0.371373
0.423021 0.505235 -0.158556
0.007409 -0.798364 0.159885
0.309330 0.676507 0.117938
0.058045 0.126337 0.516087
0.280937 0.752759 0.080668
0.271892 0.029425 0.414596
0.557188 0.591530 -0.024312
-0.301716 0.066302 -0.153474
-0.103138 -0.299284 0.121526
0.184530 0.292627 0.443625
-0.076963 0.286315 0.405718
0.323651 0.634810 0.167083
-0.340136 -0.124758 -0.364688
-0.210790 0.007866 0.004193
0.499421 0.383442 -0.000160
0.365038 0.210158 0.390873
-0.136113 0.621093 -0.136409
-0.111016 -0.657192 0.217257
-0.121670 -0.275924 0.066570
0.110462 -0.591254 -0.141227
0.043307 -0.796098 -0.124046
-0.383059 -0.698268 -0.058682
-0.079035 0.064684 0.448009
-0.057960 0.501391 -0.323530
-0.269018 -0.224845 -0.045254
0.127716 0.681390 -0.162348
-0.334096 -0.089600 -0.354705
0.232609 -0.099381 0.248990
-0.271642 0.363103 0.273769
-0.341083 -0.219237 -0.156279
0.222665 -0.497109 0.229618
0.025769 -0.758398 -0.018369
-0.290574 -0.413696 0.140593
-0.399017 0.528347 0.011876
-0.158425 0.604115 -0.145356
-0.350084 0.035440 -0.299600
0.440999 0.096588 -0.087012
0.262947 0.511184 0.378852
0.002985 -0.197033 0.019771
-0.395049 0.440485 0.012249
0.417552 0.840815 -0.023145
0.139945 -0.751697 -0.184302
0.172161 -0.053694 -0.182202
-0.033509 0.569391 0.368676
0.089515 -0.404337 -0.187829
-0.257334 -0.670881 -0.348234
-0.162730 -0.280308 0.062317
0.024425 0.266728 -0.386968
-0.080686 -0.262517 0.071856
-0.067160 0.612695 0.310701
0.022967 -0.479816 -0.368269
0.410681 0.632313 -0.159428
0.068005 -0.210127 -0.036281
0.026983 -0.062395 0.369725
0.234424 0.063114 0.461497
0.282133 0.711405 -0.108140
-0.420434 -0.062933 -0.350975
-0.035778 -0.448286 -0.407640
0.041220 0.548806 -0.318005
-0.224777 0.516877 0.253810
0.378551 0.737035 -0.124029
-0.334626 -0.623346 -0.315311
-0.149132 0.168689 0.340251
0.431462 0.104116 0.276604
0.061041 0.484192 -0.354442
-0.107593 0.404501 0.403258
-0.170674 0.039085 -0.195352
-0.404213 -0.632298 0.025272
0.113135 -0.755424 -0.222293
0.329619 -0.061735 0.153033
0.001261 -0.689667 0.297200
0.393278 0.126498 -0.197587
-0.443772 -0.100962 -0.364784
0.224045 -0.598590 0.065481
0.460134 0.275868 0.268468
-0.249342 0.021028 -0.229222
-0.304139 -0.727372 0.120949
0.050141 -0.369279 0.334582
-0.431784 -0.058428 -0.319483
-0.246319 0.584125 0.085988
0.128510 0.307128 0.491322
0.295700 0.075305 0.432548
-0.174458 -0.794072 0.049875
0.242401 0.730819 -0.020415
-0.282579 0.235479 0.244186
0.327230 0.067210 -0.227836
-0.242791 -0.194171 -0.179301
-0.275659 0.171851 -0.270195
0.064271 -0.729450 0.290576
0.263772 -0.377938 0.276761
0.184670 -0.236458 0.315323
-0.341635 -0.727288 0.036904
-0.084364 -0.506367 -0.426785
-0.281489 0.264047 0.251106
0.328334 0.504190 0.343762
-0.365765 0.628111 -0.037532
-0.047861 -0.753840 -0.284429
0.025377 0.020138 0.458304
0.089949 -0.591848 -0.201592
0.478881 0.119990 0.107606
0.096629 -0.598040 -0.170321
0.542595 0.503480 0.001613
0.327350 0.333227 -0.299809
-0.173951 -0.213727 -0.199704
-0.258128 0.575503 -0.125215
0.155855 -0.168724 -0.045838
0.264513 -0.465198 0.208889
-0.303814 -0.742147 -0.260205
-0.170206 0.442633 0.358931
0.002201 -0.724760 -0.291616
0.094062 -0.549822 -0.195942
-0.091748 -0.774992 0.010299
-0.054617 0.168388 -0.349004
-0.092362 -0.439490 -0.429152
0.278901 -0.436416 0.004453
0.471502 0.342759 0.222892
-0.139338 0.568578 -0.223027
-0.137148 -0.795156 -0.204599
-0.125326 -0.376158 -0.419721
0.148835 0.716617 0.162108
-0.303642 -0.216568 -0.267288
0.262516 -0.040424 0.324954
0.141935 -0.709771 0.152650
0.307514 -0.284659 0.163631
0.066183 0.001601 0.452019
0.232008 -0.368859 0.311361
0.252176 -0.390402 -0.042363
0.343996 0.142014 0.418057
-0.345481 -0.223251 -0.186037
-0.414640 0.568204 -0.132122
0.101179 0.728758 0.064939
-0.084827 -0.660133 0.202755
-0.282404 -0.201245 -0.145033
-0.198638 0.392536 -0.286064
-0.443771 -0.148059 -0.398973
-0.107053 0.669223 -0.026257
-0.443528 -0.576944 -0.062435
0.337286 0.641446 -0.168302
-0.339016 -0.438575 -0.401165
0.485166 0.504453 -0.107553
-0.451902 -0.435584 -0.008527
0.279733 -0.379284 -0.011146
-0.035521 -0.730449 0.311564
-0.128559 -0.067533 0.181524
-0.422439 0.547078 0.012482
-0.449324 -0.314027 -0.175910
-0.134898 0.071797 -0.253875
0.406592 0.154546 -0.194322
-0.384639 -0.455074 -0.360871
0.079084 -0.366209 -0.185282
0.285193 0.688094 0.132696
0.009699 -0.520281 0.283890
-0.350067 -0.172425 -0.385071
-0.326699 0.578195 -0.132653
0.141641 0.217414 0.529602
-0.013708 -0.224106 0.208796
0.344304 0.200420 0.409796
0.075090 -0.499990 -0.294071
-0.274867 0.206302 -0.265069
-0.145520 -0.523335 -0.433147
-0.185128 -0.369585 -0.425779
0.415873 0.459992 0.275884
0.348062 0.001979 0.287120
0.228918 -0.555571 -0.012227
-0.244514 -0.335892 0.102830
0.532910 0.491507 -0.022688
-0.271703 0.079961 0.109589
-0.222344 0.388312 0.325958
0.474391 0.413514 -0.087097
-0.175575 -0.794511 -0.164781
0.183123 -0.020690 -0.229184
-0.384837 0.202632 -0.160607
-0.044210 -0.295504 -0.311632
-0.094514 0.185439 0.413762
-0.430924 -0.488280 0.047101
-0.380713 -0.232453 -0.200313
0.147265 0.306601 -0.383692
0.330111 -0.065166 0.053819
0.478341 0.152977 0.189586
-0.363802 -0.423354 -0.392293
0.221691 -0.258678 0.300217
-0.413090 -0.631210 -0.006553
0.467138 0.194761 0.252430
-0.294056 0.309591 -0.243772
0.290594 0.009203 -0.198872
0.246390 0.649199 -0.172360
-0.323238 -0.241165 -0.386683
0.000124 -0.493737 0.290555
0.188722 0.255003 0.488617
-0.025954 0.103634 -0.325134
-0.108806 0.050310 0.407943
0.501563 0.234654 0.045217
-0.151485 -0.635057 -0.395031
-0.040968 -0.794321 -0.233773
-0.028536 -0.255877 -0.118785
-0.295772 0.254213 0.225770
0.263996 0.608667 -0.203150
-0.213828 0.262690 0.300355
0.308515 0.003180 -0.174069
0.032948 0.105484 0.514591
-0.275786 0.155465 0.219688
-0.297069 -0.681701 0.141517
0.249922 -0.526756 0.052834
-0.183639 -0.415524 -0.436707
0.351025 -0.046482 0.125428
-0.283713 -0.213120 -0.234259
0.101184 -0.385304 -0.168803
0.240918 0.284635 0.402842
0.318562 0.617197 -0.179358
0.462559 0.320967 -0.129097
0.156807 0.701475 0.209919
0.172957 -0.736293 0.106473
-0.481129 -0.169551 -0.340269
0.229057 -0.411418 -0.064357
-0.046279 -0.245001 -0.021280
0.290639 0.501939 0.368259
-0.468875 -0.117244 -0.310346
0.377796 0.688322 -0.148377
0.218595 0.718883 0.117353
0.248278 -0.528013 0.084771
0.159288 0.045512 -0.302481
-0.149460 0.133390 0.344494
-0.091430 0.161709 0.438455
-0.322850 0.045337 -0.304572
0.101298 -0.470034 0.318680
0.262165 0.513795 -0.276838
-0.416884 -0.430111 -0.336853
-0.306869 -0.750092 0.090302
0.058241 -0.093606 0.310067
0.338016 -0.033153 0.222722
-0.083814 -0.637332 -0.382720
-0.349505 0.176947 0.048455
-0.248166 0.089704 -0.271348
-0.130048 -0.794945 -0.093642
0.238196 0.718541 -0.062029
0.422247 0.781238 0.073443
0.447948 0.070754 -0.009546
0.288456 -0.460464 0.135600
-0.040763 -0.124293 0.051873
-0.004392 -0.065909 0.350087
-0.257205 0.610640 -0.009512
-0.146245 0.518089 0.342957
0.031872 -0.109489 0.277529
0.470846 0.752855 -0.101412
0.053958 0.590872 -0.285658
0.280305 0.390847 0.376684
0.470801 0.629728 -0.134719
-0.009247 -0.795243 -0.218207
-0.076112 0.191146 -0.348647
0.165145 0.103118 -0.334813
0.462114 0.284687 -0.131699
-0.404231 0.569980 0.016427
-0.092347 0.132539 -0.317970
0.342818 0.126274 -0.251823
-0.374601 0.547935 0.019546
-0.181268 -0.766915 -0.315805
-0.291058 0.100418 -0.061089
-0.074678 0.274276 -0.363124
-0.245399 -0.793046 -0.050382
0.283454 0.762306 0.025889
-0.182380 0.071195 -0.230751
-0.372754 0.160337 -0.270137
0.375030 0.318794 0.337946
-0.230403 -0.793030 0.138458
-0.451200 0.339072 -0.109426
-0.432375 -0.431804 -0.310829
-0.310602 0.212763 0.173003
0.234678 0.132150 0.496948
-0.115517 0.440704 0.394687
-0.260676 -0.200484 -0.203856
-0.114138 0.086162 0.416152
0.443937 0.762683 0.063190
-0.418786 -0.387602 0.039927
-0.480988 -0.222374 -0.272306
0.279372 -0.019886 0.342105
0.346023 -0.036301 -0.032434
-0.194093 0.276143 0.320746
0.023611 -0.298999 -0.196204
-0.169606 -0.010536 -0.072345
-0.429549 -0.533534 -0.232981
0.031833 0.488900 -0.351153
-0.314685 -0.779556 -0.018602
-0.343954 -0.240105 -0.407035
-0.025405 -0.089637 0.282399
0.062751 -0.642605 -0.240524
-0.274876 0.126388 0.198666
0.229123 0.398187 0.399217
0.362427 0.491501 0.321417
0.326283 -0.029983 -0.089034
0.042520 0.290828 -0.390315
-0.224707 0.604838 0.076168
0.377577 -0.022084 0.027253
0.363026 0.177612 -0.252965
-0.006823 -0.381732 0.300016
0.056139 -0.038439 -0.217559
-0.443631 -0.448775 0.016557
0.512371 0.609977 -0.102209
0.066364 -0.157337 -0.039054
-0.351597 0.012321 -0.325450
0.138232 0.270715 0.515418
-0.081089 -0.349308 0.198092
-0.191443 0.022762 0.279129
-0.006110 0.702295 0.173006
-0.019022 -0.540972 -0.392781
-0.242985 0.411346 -0.253551
-0.067520 0.602413 -0.233301
0.484689 0.181572 0.187706
0.367656 0.592414 -0.176809
-0.162134 -0.470581 0.151803
0.295965 0.093010 -0.271668
0.110284 -0.339056 0.349289
0.557373 0.761722 -0.007399
0.176434 -0.308632 0.338936
-0.145850 0.631313 0.193383
-0.415771 -0.307444 -0.408114
0.092547 -0.296464 -0.109453
0.420042 0.511755 0.200291
0.295124 0.651226 0.190785
-0.131856 -0.030926 -0.097479
-0.181586 -0.256396 0.026666
-0.407279 -0.037798 -0.334297
0.181077 -0.542948 0.213790
-0.137459 -0.221953 -0.190448
0.295756 0.000567 0.358434
0.002668 0.119630 -0.343079
-0.200191 0.621851 0.073614
-0.398991 0.250259 -0.098054
0.322605 0.301715 0.365858
-0.458576 -0.454851 -0.030709
-0.027335 -0.243025 0.001492
-0.173520 0.010248 -0.135491
-0.087897 -0.306033 0.150683
0.091654 -0.761454 0.245758
-0.300564 -0.790054 -0.164425
-0.011496 -0.194455 0.181729
-0.047330 0.636134 -0.197705
-0.236577 0.047235 -0.079243
0.136902 -0.230095 -0.055573
0.303318 -0.726450 -0.048519
-0.296587 0.613417 -0.030913
0.528864 0.819620 -0.010057
0.425789 0.154741 -0.166388
-0.147498 0.024534 0.347049
0.348681 0.739482 -0.114296
0.327520 0.202183 -0.289947
0.037616 -0.320638 -0.210826
-0.248074 0.049600 0.150001
0.114562 0.496133 0.424608
0.059823 0.281622 0.540903
-0.129030 0.181583 0.358101
0.051581 0.717658 0.140376
-0.122166 -0.716581 0.241372
-0.246484 0.069623 0.206371
-0.336852 -0.560980 -0.350672
0.433893 0.036841 0.073327
-0.315282 -0.077801 -0.252772
-0.343987 -0.249063 -0.038450
-0.070084 0.581953 -0.255829
0.206114 -0.386448 0.324179
0.280178 0.110380 -0.291044
0.293777 0.595341 -0.198881
0.497940 0.203133 0.038786
-0.229791 0.586975 0.114373
0.544836 0.788756 -0.014337
-0.129384 -0.794405 0.104007
0.058424 0.710612 -0.077962
0.325783 0.696163 0.103890
-0.006139 0.240239 -0.380121
0.056318 -0.358335 -0.217695
-0.237590 0.241006 0.282292
-0.046802 0.092640 0.487447
0.076613 -0.586267 0.247275
-0.311276 0.427907 0.068403
0.224693 -0.471240 0.259647
-0.211962 -0.681422 0.219442
0.172020 -0.616258 -0.111305
0.388719 0.199487 -0.232160
-0.373221 -0.678028 -0.203855
-0.319383 -0.012091 -0.195483
-0.430591 0.635239 -0.035231
-0.002033 -0.668681 -0.310554
0.166444 -0.665394 -0.135188
0.021375 -0.364482 0.319307
-0.123556 -0.053420 -0.031494
-0.122867 -0.575067 0.157919
0.160730 -0.793145 -0.135179
0.052747 -0.472539 0.316291
0.296584 -0.437097 0.051924
0.232568 -0.364488 -0.058694
-0.065929 -0.096008 0.214845
0.232537 -0.032285 -0.185235
-0.050877 -0.559198 -0.404011
-0.238692 -0.235070 -0.012896
0.159300 -0.504616 -0.115678
-0.409381 -0.351799 -0.391097
-0.113050 0.586276 0.310020
-0.000136 -0.490989 -0.387761
-0.105682 0.652617 0.207874
-0.323341 -0.008079 -0.334006
-0.315247 0.548072 -0.163507
0.090583 -0.531364 -0.232437
-0.299342 -0.255168 -0.377957
0.171407 0.169274 0.526094
-0.168268 0.399894 -0.303726
0.260571 -0.488195 0.171261
-0.157027 -0.010056 0.295338
-0.105202 -0.562993 0.179773
0.295879 0.319260 0.376403
-0.235473 0.541871 -0.172596
0.501870 0.270608 0.037891
-0.291107 0.475760 0.116152
0.001348 0.692805 0.209858
0.498612 0.467037 0.126962
-0.347366 -0.734707 -0.189628
-0.303265 0.172544 0.158612
-0.018201 0.395225 -0.371457
-0.046273 0.257811 0.461201
-0.187736 0.554495 -0.195796
-0.333852 -0.592873 -0.335940
-0.234468 -0.752939 0.228192
0.092460 -0.731777 0.248540
0.092869 0.688042 -0.152956
-0.148353 0.639341 0.165282
0.324229 0.600609 0.246597
-0.089764 0.251049 0.397436
-0.481725 -0.299018 -0.280353
-0.133870 -0.264732 -0.333595
0.398193 0.114814 0.346299
0.484180 0.187280 -0.045564
0.266274 -0.500680 0.077734
-0.130904 0.366705 0.387235
0.192828 -0.720317 0.089636
0.298355 0.341664 -0.318347
0.534587 0.571355 -0.067995
-0.056123 -0.078227 0.287446
0.520405 0.766569 -0.058876
-0.470510 -0.196680 -0.262928
-0.246955 0.049408 -0.254793
-0.079345 0.680171 -0.036084
-0.001902 -0.246533 -0.018245
0.451445 0.869841 0.028175
-0.029737 0.070749 -0.301828
-0.177967 -0.224816 -0.270223
-0.432573 0.331773 -0.139068
-0.010855 0.673478 0.248566
0.159090 0.327653 0.436604
-0.139746 -0.062847 0.153172
-0.284976 0.099719 0.091757
0.158668 0.159959 -0.361066
-0.024588 -0.224719 0.076149
-0.108357 0.674511 0.095550
-0.128782 0.071764 0.394159
0.316179 -0.365377 0.073947
0.308053 -0.293155 0.078499
0.087066 -0.505474 -0.252660
0.401077 0.656238 0.061468
0.385334 -0.009701 -0.001597
-0.228560 0.611577 -0.030475
-0.036598 -0.095978 0.255350
-0.386491 0.008045 -0.227491
0.031867 0.106725 -0.342255
-0.072036 -0.238162 -0.044833
0.416823 0.109657 0.311766
-0.029658 -0.018020 -0.212405
-0.052485 -0.106430 0.003921
-0.342566 0.178252 -0.295972
-0.461996 0.336269 -0.077724
-0.065215 -0.110359 0.139257
0.174499 -0.038638 0.399806
-0.315167 0.192225 0.138458
-0.192046 0.045567 0.300191
-0.300606 -0.028238 -0.315795
0.139089 0.710276 0.188803
0.053165 0.663785 -0.196781
0.107226 -0.723789 0.217664
0.451413 0.194847 0.288581
0.220200 0.725627 0.088898
-0.227433 -0.429966 0.148395
-0.306776 0.524154 -0.183148
0.133361 0.095133 -0.337166
-0.340316 -0.176244 -0.307476
-0.382527 0.441823 -0.201031
-0.282301 -0.743839 0.162286
-0.061520 0.365754 -0.362440
0.002235 -0.524314 -0.382817
0.411505 0.127840 -0.172973
-0.129274 0.174803 -0.318756
-0.148060 0.425533 -0.309073
0.022370 -0.442171 -0.362788
0.231512 -0.569388 0.015310
0.310824 -0.286065 0.130672
-0.398570 0.190934 -0.220508
0.460712 0.333994 0.253707
-0.160871 0.638018 0.135529
-0.034933 0.287183 0.452062
-0.153873 -0.042392 0.022815
-0.075854 -0.017175 0.377989
-0.451405 -0.461266 -0.233487
0.257346 -0.797003 -0.040526
0.022931 0.051842 0.483158
-0.255436 0.173763 0.255320
-0.417767 -0.263768 -0.422345
0.381803 0.039747 -0.128403
0.198559 -0.141562 0.265548
-0.077716 0.243283 -0.359237
0.264466 -0.501543 0.109531
-0.004018 0.033453 0.467640
0.518420 0.548656 -0.084112
-0.145271 -0.030263 -0.062603
-0.050811 -0.276669 0.176931
0.267572 -0.165796 0.043164
-0.047344 0.170525 0.494946
0.421240 0.073502 -0.101657
0.195664 -0.749591 0.081632
-0.356622 0.193008 -0.099221
-0.077169 -0.096732 0.046230
-0.011448 -0.794630 -0.109792
0.150733 -0.026194 -0.232824
-0.016474 -0.665690 0.268314
-0.184473 0.000466 0.260313
0.327115 0.486185 -0.247074
0.327166 -0.063718 0.021270
0.233751 -0.620964 -0.001117
-0.415663 -0.460867 0.068310
-0.014943 0.214818 0.513724
-0.096117 -0.065355 -0.065359
-0.246029 -0.206556 -0.230808
0.115460 -0.412521 -0.161145
0.451291 0.841601 -0.031056
0.412995 0.540275 -0.164356
0.499755 0.366619 0.085883
0.315920 0.760173 -0.067659
0.020150 -0.661452 -0.289560
-0.004911 0.715316 0.035224
-0.360877 0.116705 -0.227964
0.365737 0.578870 0.194248
0.255333 -0.090332 0.233496
0.023062 -0.130145 0.253248
-0.195749 0.021962 -0.117431
-0.084324 0.489919 0.396165
0.175729 -0.209576 0.307029
-0.090897 -0.230492 -0.104365
0.040183 0.431807 0.442152
0.210111 -0.700358 0.076594
-0.046563 -0.067863 0.319432
0.349805 -0.038856 0.173893
-0.411220 0.425787 -0.186934
-0.448400 -0.377741 -0.034138
0.298965 -0.259812 0.075664
0.159436 -0.248328 -0.059562
-0.136138 0.608559 0.255269
0.419572 0.139565 0.328794
-0.294392 0.374225 0.225400
0.149260 -0.219471 0.319917
-0.302793 0.460653 0.065071
-0.407520 -0.563123 0.072740
0.159033 -0.380560 0.342775
0.220880 0.698833 0.176683
-0.369247 0.236711 0.083788
0.003395 0.116451 0.516899
-0.431262 0.462546 0.012115
0.394042 0.842603 0.060560
-0.189842 -0.700907 -0.354707
0.261753 0.125806 -0.309118
-0.206384 0.087140 -0.237136
0.193647 -0.174868 0.281141
-0.433953 -0.297746 -0.154795
-0.315967 -0.049881 -0.220994
-0.254595 -0.398096 -0.428961
0.149377 0.136221 0.523896
0.136359 -0.001370 0.453269
-0.113981 0.657100 0.179547
-0.387898 0.228143 -0.076828
0.115018 -0.793395 0.117893
-0.338291 0.263275 -0.225711
0.473201 0.803607 0.065706
0.395952 0.399457 -0.218228
0.258563 -0.764935 0.028702
0.261461 0.047206 0.436561
0.003364 0.339372 -0.382951
0.281018 -0.063221 0.251632
-0.414580 -0.601816 0.036048
-0.326424 -0.210229 -0.331335
-0.126621 0.539354 0.342927
0.324271 0.103995 -0.255719
0.021040 0.627180 0.328621
-0.057380 0.559051 -0.284097
0.408224 0.581100 0.086363
0.221610 0.730354 0.004225
-0.178274 -0.021149 0.219665
-0.001944 -0.772118 0.014071
0.387775 0.003338 -0.036857
0.042974 -0.647588 -0.269177
0.357230 0.624581 0.104507
-0.078674 0.186953 0.449356
0.026622 0.315463 -0.388718
-0.101613 -0.794934 0.195377
-0.321105 -0.230618 -0.066326
0.089553 0.631430 -0.242704
-0.074114 0.554605 0.363245
-0.385450 0.010414 -0.277365
-0.291850 0.572671 -0.134748
-0.406024 0.242095 0.057735
-0.206725 -0.325903 -0.408816
0.552387 0.655114 0.058848
-0.506937 0.415450 -0.001958
0.200090 -0.565908 -0.074241
-0.369306 -0.706560 -0.165474
-0.225531 -0.408586 -0.433574
0.020244 0.573796 0.379759
0.153030 0.427226 -0.362150
0.062240 0.088819 -0.336085
0.355364 0.608730 0.145183
-0.362108 -0.236659 -0.119697
-0.304132 0.116118 -0.022855
-0.273704 -0.794187 -0.105793
0.124899 0.371020 -0.382073
-0.090960 -0.001833 -0.201395
-0.030479 -0.232789 0.137803
-0.127514 -0.493155 -0.436332
-0.286974 0.510920 0.075541
0.002267 0.418988 -0.371185
-0.197393 0.430729 -0.274847
0.149961 -0.598170 -0.119218
0.253099 -0.118233 -0.012304
-0.320357 0.399539 0.052741
-0.052371 0.653755 0.260630
-0.271261 0.492034 0.175555
0.353826 -0.045075 0.043706
0.347095 -0.024877 -0.065959
0.049865 0.721414 0.111194
0.319505 0.008761 0.342027
0.256174 0.586753 -0.225866
-0.245634 0.280581 -0.268623
0.080260 0.720405 0.141168
-0.013680 -0.083618 -0.106287
-0.138204 0.123769 0.372183
0.124104 -0.383588 -0.148496
0.322636 0.373504 -0.295787
-0.112500 0.608757 0.280537
0.107067 0.206572 0.537310
-0.165026 -0.236054 -0.293974
-0.022568 -0.065284 -0.137766
-0.181266 -0.794683 -0.256780
0.022630 -0.189798 0.254541
0.299896 -0.396872 0.205164
-0.360657 -0.097199 -0.235119
-0.061073 0.268238 0.424653
0.154006 -0.797237 -0.002435
0.398519 0.102156 -0.174086
-0.376718 0.026641 -0.251039
-0.158401 -0.793727 -0.080086
0.230794 -0.528187 -0.026541
0.516670 0.424094 0.062121
0.260344 0.709896 0.125721
-0.428797 -0.597610 -0.001661
-0.068887 0.086859 0.467245
0.178941 -0.399903 0.331938
0.266482 -0.413090 0.259769
-0.354498 -0.062102 -0.371259
0.080544 0.510288 0.420898
0.262741 -0.769603 -0.132516
0.432948 0.401117 -0.164316
-0.320983 0.118755 -0.269057
-0.183478 0.358253 -0.303233
-0.102763 -0.442104 0.203516
-0.253096 0.539374 0.147469
0.169590 -0.107726 -0.084261
0.034470 0.411953 -0.377467
-0.371203 0.204815 -0.269153
0.041046 -0.652467 0.255543
-0.373421 -0.165038 -0.408393
-0.470539 -0.161218 -0.366661
-0.036784 -0.601717 -0.381188
-0.315647 0.611401 -0.067084
-0.087180 -0.468556 -0.429731
-0.001946 -0.178815 0.206343
-0.352229 -0.669376 -0.255650
-0.318375 -0.489976 -0.394601
-0.020607 -0.362377 0.283707
-0.397280 -0.155810 -0.248210
-0.403254 -0.396562 0.064707
-0.078621 -0.730560 0.283117
0.260428 0.262665 0.407479
0.034799 -0.769498 -0.284633
-0.018224 -0.262500 -0.146321
0.233300 0.684326 0.200768
-0.151014 0.530130 -0.251697
0.171036 -0.457079 0.306718
-0.383408 -0.319925 0.026360
-0.115358 -0.634562 -0.391896
0.093096 0.281621 0.540158
-0.375152 -0.417096 0.099871
0.123694 -0.395335 0.344749
0.229140 -0.740874 0.056165
-0.353518 -0.646967 -0.274125
-0.027241 0.033959 -0.272595
-0.397726 0.534398 -0.160764
-0.198362 0.048456 -0.191769
-0.111162 0.627976 -0.150196
0.179009 0.201128 0.521379
-0.009052 -0.331221 -0.318985
0.479311 0.200881 -0.072070
0.165262 -0.797376 -0.103250
0.245588 0.217263 0.475679
0.124628 -0.364781 0.348197
-0.106587 0.198002 0.388699
0.147667 -0.139781 -0.058690
0.502554 0.508408 0.110275
-0.316333 0.505718 0.039175
-0.166743 0.240786 -0.315156
-0.027315 -0.573040 -0.387955
0.434456 0.687437 0.056539
-0.406502 -0.015905 -0.269545
-0.138684 0.569351 0.306187
-0.299398 0.488591 0.055069
-0.288148 0.587484 -0.110030
0.089387 0.212948 -0.384895
0.098503 0.091380 0.482600
0.448039 0.255350 0.295054
-0.156675 -0.048908 0.075031
0.426585 0.593890 -0.157704
-0.227921 -0.792491 0.016594
-0.491367 0.481089 -0.098821
-0.118225 -0.460199 -0.436917
0.243026 0.252608 0.433565
0.089438 -0.414840 0.340489
-0.203257 -0.792397 0.045114
0.450756 0.169293 -0.129927
-0.138417 -0.755315 0.240967
0.368266 -0.034459 0.069158
-0.211932 -0.201943 -0.135282
-0.389255 0.594079 0.023750
-0.434007 -0.405586 -0.326911
0.407388 0.541695 0.166900
0.112552 -0.032264 0.430623
-0.430104 -0.609425 -0.068332
-0.217797 0.038393 -0.135557
0.439683 0.132513 -0.128535
-0.287233 0.023419 -0.301402
-0.487411 0.523727 0.013414
0.213361 -0.563307 0.136346
0.342247 0.170832 0.419825
0.174268 -0.577289 -0.102639
0.165849 0.436357 0.428189
-0.085517 -0.235937 -0.134161
0.302381 0.715724 0.113529
0.015680 -0.218815 0.263430
-0.305282 -0.492091 0.152992
-0.479469 0.623006 -0.012343
0.454152 0.362971 0.258108
-0.422971 -0.509874 -0.270924
-0.297839 -0.232518 -0.038597
-0.371495 -0.234569 -0.245731
0.274331 0.476514 -0.289841
-0.391068 0.400431 -0.200769
0.297201 -0.100713 0.115581
0.494138 0.192217 0.010445
0.455915 0.080607 0.162957
-0.188423 0.245557 0.313799
-0.086015 -0.693527 0.249652
-0.420945 -0.618982 -0.127670
0.324715 -0.044979 -0.055642
-0.171687 0.323696 -0.314509
0.288600 0.750590 -0.049553
0.026398 0.721788 0.030168
0.157467 0.533574 -0.311444
0.243980 -0.754036 -0.148125
0.343923 0.547932 0.295834
0.396984 0.431890 0.312931
-0.295518 -0.781532 0.029984
0.181404 -0.551314 -0.092074
0.229092 -0.618380 0.041859
-0.352218 -0.466867 0.128191
0.057960 0.464155 0.435781
-0.242635 -0.795025 -0.142263
-0.340441 -0.155068 -0.360680
-0.021790 0.185049 0.512061
0.479094 0.302357 0.213398
0.300594 -0.040070 -0.103924
0.258595 0.715556 -0.085792
-0.303350 0.348172 0.209728
0.129825 0.577417 0.380159
-0.406769 0.302846 -0.159593
0.241651 -0.392944 0.297433
-0.384382 -0.697239 -0.090798
0.360337 0.812397 0.079464
-0.391274 0.317517 0.049531
0.025599 0.653714 -0.207611
-0.131982 -0.688825 -0.361681
-0.235126 -0.793248 0.071276
0.291538 0.569720 -0.218470
0.187619 0.200110 -0.364131
-0.216054 -0.202587 -0.197597
-0.104084 0.239584 -0.347870
0.288155 -0.390040 0.235837
0.305845 0.477199 0.367264
-0.417005 -0.429710 0.059339
0.362388 0.419409 0.340252
0.402923 0.234924 0.352728
-0.002191 -0.030042 -0.208524
0.254696 -0.500176 0.006477
0.365849 0.476859 -0.217760
0.211076 -0.438715 -0.079379
-0.348016 -0.332913 0.069801
-0.011031 -0.798601 0.195830
-0.012945 -0.134447 -0.001621
-0.378310 0.279641 -0.181284
-0.397648 -0.288030 -0.424961
0.091926 0.629753 0.333887
-0.240534 -0.198069 -0.138213
0.298876 -0.443243 0.113337
0.162501 -0.534506 -0.108758
-0.235000 -0.514738 -0.421505
-0.131892 0.033760 0.371784
0.342705 0.500245 -0.226443
-0.314143 0.160636 -0.294509
0.165175 0.691188 -0.131789
0.027628 0.466442 0.433435
0.501764 0.232896 0.111219
0.002596 -0.304668 -0.257706
0.414674 0.823600 -0.049024
0.092036 0.309120 0.516112
-0.323617 0.349843 0.103466
0.332872 -0.064128 0.103437
-0.013563 -0.099804 -0.068180
0.049912 -0.797686 0.202735
-0.008491 -0.304891 0.277706
-0.274663 0.362371 -0.249450
-0.153337 -0.216411 -0.159452
-0.501722 0.450061 0.015923
-0.056148 -0.112248 0.168734
-0.454035 0.300223 -0.015105
-0.349733 0.170094 -0.028550
-0.311712 0.013035 -0.182660
-0.150665 0.297876 0.345195
0.388784 0.075646 -0.164330
-0.308074 0.248877 0.197097
-0.235964 0.551146 0.174763
0.058271 -0.127777 -0.059912
0.058977 0.255322 -0.390382
-0.289399 -0.358602 0.112617
0.270707 -0.782438 0.006586
0.088912 0.647723 0.311153
-0.224828 -0.402096 0.139214
-0.377065 -0.072973 -0.221332
-0.353261 -0.158289 -0.277666
-0.224704 0.025379 -0.018109
-0.394798 -0.623546 -0.221580
-0.101514 -0.399983 -0.422691
-0.408386 -0.645103 -0.127886
-0.250154 -0.791128 0.111009
0.398166 -0.004756 0.068533
0.065077 0.705121 0.201940
0.154244 0.469137 0.426037
-0.178780 0.132642 -0.271878
0.298495 0.539455 0.344816
0.076832 0.546317 0.403154
0.035985 0.610708 0.349210
-0.267545 -0.788907 0.065390
0.039112 0.461725 -0.362548
-0.002478 -0.424902 -0.380765
0.078682 -0.449558 0.329189
-0.309462 -0.715924 -0.275376
0.029609 0.042420 -0.298354
0.128740 0.634648 0.326502
-0.152018 -0.791581 0.029427
-0.184064 0.264111 -0.307225
-0.326957 -0.119345 -0.292114
-0.219022 0.098182 0.285599
0.310810 0.774907 0.082213
0.057543 0.682222 -0.162551
-0.422569 -0.543096 0.055033
-0.246874 0.598353 0.059133
-0.448402 -0.360817 -0.058662
-0.328641 0.296272 0.112767
-0.288191 -0.793197 -0.131848
0.444253 0.109090 0.250495
0.290038 0.621307 -0.182977
-0.075909 -0.092985 0.016407
0.317857 -0.340224 0.088022
0.106006 -0.566668 0.246826
-0.042603 0.344147 -0.371097
0.020092 0.719722 0.075258
0.253597 -0.727491 -0.139675
-0.189013 -0.394169 0.136144
-0.243137 0.053561 -0.132253
0.042289 -0.472642 -0.347980
-0.362180 0.200936 -0.134968
-0.063197 0.016904 0.424996
0.529060 0.836346 0.015843
0.426759 0.433219 0.275857
0.474795 0.769126 0.060088
0.072859 -0.578713 -0.274753
-0.424895 -0.617499 -0.034411
-0.064588 -0.795146 -0.209861
0.076699 -0.438603 -0.194189
-0.403924 -0.460274 -0.336219
0.021735 -0.011143 -0.244331
0.315446 0.627363 0.205261
-0.300651 -0.671141 -0.316582
0.434310 0.587684 0.070359
-0.073272 -0.357251 -0.391177
0.118561 -0.223493 0.323614
0.102119 -0.797304 -0.119801
0.270593 0.385990 -0.326271
0.068326 0.102549 0.502272
-0.323025 -0.306011 -0.420718
-0.414702 -0.039747 -0.240812
0.161224 0.729260 0.044930
-0.029884 -0.687546 0.290470
0.129486 0.339348 0.448308
0.148548 -0.048244 -0.198839
-0.112425 -0.049034 0.286472
0.526699 0.677510 -0.084677
0.140406 -0.526953 0.262855
0.124425 0.558997 -0.303009
0.414902 0.013241 0.085656
-0.423083 -0.178135 -0.244426
-0.023099 -0.772010 -0.282953
-0.029908 -0.797017 0.144519
0.265008 -0.239412 0.237630
-0.136745 -0.241862 -0.293543
0.123778 -0.624528 0.203058
-0.338744 0.189068 0.090644
-0.332387 -0.653990 -0.295657
-0.094103 -0.019089 -0.168999
0.414607 0.545156 0.134109
-0.285060 -0.792196 -0.038439
-0.212696 0.583580 0.167274
-0.186677 0.305692 0.331347
-0.468366 -0.162899 -0.268242
0.236299 0.506598 0.391873
-0.269106 0.069966 0.081353
0.364895 0.056979 -0.177374
0.494101 0.545493 -0.110079
0.006914 0.553248 -0.310563
0.447308 0.416563 -0.135115
0.101696 0.698418 0.223530
-0.282905 0.394331 0.243536
-0.016438 -0.005147 -0.235584
-0.139534 -0.792098 0.056752
0.353583 0.599734 0.174308
-0.209060 0.600262 0.134019
-0.230231 0.573129 0.145457
0.184254 -0.076551 0.317282
0.295288 0.564542 0.328041
0.110382 -0.694672 0.209460
0.498377 0.211564 0.132809
-0.061683 0.187917 0.474933
-0.249807 0.405027 0.294761
-0.462941 0.325500 -0.050370
0.183223 -0.365726 0.338226
0.369745 0.261368 0.359147
0.447145 0.822573 -0.053825
0.091061 -0.511972 -0.200361
-0.258274 -0.443195 0.152377
0.462253 0.218420 -0.123509
-0.482978 0.424397 0.021805
-0.407902 -0.487255 0.082455
0.116352 -0.161951 -0.049068
-0.079187 -0.759655 0.281474
-0.495016 0.510639 -0.092632
0.233450 0.119638 -0.320062
-0.397044 0.190125 -0.187907
0.038042 -0.619500 -0.305581
-0.249749 0.044254 0.111262
0.129234 -0.569268 -0.133918
-0.479484 -0.292060 -0.319989
0.006445 0.473849 -0.354272
-0.314278 -0.520996 0.152008
-0.114935 -0.667586 -0.372556
0.110138 -0.797691 -0.004492
0.108515 0.709234 0.195630
-0.463539 0.630615 -0.040409
0.442718 0.453074 0.227619
-0.502484 0.461860 -0.074430
-0.074905 -0.050781 -0.126113
-0.216316 0.326211 0.324658
-0.279457 -0.534770 0.163318
0.162935 -0.025776 0.425348
-0.116919 -0.078985 0.140760
-0.114271 0.471593 0.387800
-0.081099 0.662835 -0.099706
0.358381 0.714761 -0.133598
0.526367 0.486601 0.099728
0.547966 0.530249 -0.008947
0.094018 0.715516 0.171474
-0.372730 -0.271508 -0.428728
0.107606 -0.253510 0.333744
0.124713 0.167109 -0.369673
-0.209456 0.460880 -0.252983
0.518024 0.785047 0.057086
0.203154 -0.796498 -0.001313
0.258558 0.669919 0.203965
-0.032024 0.040715 0.466136
-0.152431 0.044948 -0.217375
0.567402 0.646284 0.005970
-0.031920 -0.778344 -0.068272
0.499152 0.202546 0.105572
0.138370 -0.114464 -0.083595
-0.301768 -0.520957 -0.391220
-0.101567 -0.315574 -0.374021
-0.341083 0.147794 -0.128364
-0.061379 -0.590957 -0.397214
0.331248 0.577769 0.274842
0.557371 0.559505 0.014279
-0.185789 0.033034 -0.169111
-0.394412 -0.256349 -0.136190
-0.438575 0.276677 -0.009034
0.545991 0.806931 0.015005
0.294955 0.187494 -0.309843
0.112529 -0.130875 -0.067894
-0.096839 -0.041709 0.320808
-0.444334 0.552449 -0.127735
0.528305 0.591942 0.078851
-0.295645 0.292959 0.232306
-0.395561 -0.274111 -0.067432
-0.324910 -0.773670 -0.173924
-0.474316 0.532054 -0.113008
0.354574 0.531693 -0.199807
0.076765 0.112931 -0.350239
-0.180569 0.516722 -0.238832
0.239684 -0.637825 -0.026309
0.216853 -0.263932 -0.041335
0.201675 -0.521876 0.219704
0.398029 0.066332 -0.138041
-0.219375 -0.775905 -0.297266
0.441785 0.716758 0.056312
-0.028159 0.413294 0.434514
-0.097134 -0.688131 -0.353942
0.007681 0.505189 -0.340223
-0.427483 -0.330410 -0.034156
-0.296198 0.059202 -0.296091
0.362049 0.825331 0.037498
-0.487401 -0.232513 -0.330392
-0.143312 -0.552192 -0.426177
-0.017424 0.097323 0.505185
-0.072448 0.652955 -0.137554
-0.199040 0.321619 -0.297130
-0.197340 -0.016436 0.126440
-0.140419 -0.499384 0.155262
0.198540 -0.262792 0.318552
0.004739 -0.195755 0.228923
-0.401341 -0.151127 -0.420182
0.556595 0.778028 0.019431
-0.454257 0.465575 -0.146220
-0.219460 -0.685231 -0.356406
0.251129 -0.302341 0.287358
-0.041151 -0.262745 -0.224055
-0.126431 0.266389 -0.340268
0.564983 0.609364 0.005566
0.041881 -0.733791 -0.282352
-0.223053 0.038809 0.229464
-0.076511 0.663571 0.218439
0.212462 -0.228741 -0.031645
0.360304 0.723742 0.088710
-0.335767 -0.155721 -0.330061
-0.295607 0.110111 -0.100030
-0.487642 0.389198 -0.072093
0.288427 -0.699273 -0.055357
-0.198090 -0.790136 -0.281852
0.296569 0.407301 -0.304972
-0.012324 0.705794 0.142713
-0.153984 -0.043296 0.213770
-0.320155 0.536543 0.042346
-0.298386 -0.770333 0.056478
0.397959 0.661717 -0.155739
0.012069 0.084770 0.507271
-0.136342 0.490700 0.365713
-0.114698 -0.683424 0.228744
0.153198 -0.574080 0.207013
-0.289329 0.238008 -0.256121
0.508100 0.855851 0.013854
-0.242473 0.369971 0.308578
-0.199534 -0.668746 -0.371234
-0.357756 0.437559 0.016202
0.151345 -0.791554 0.078296
0.260367 -0.336539 -0.030061
0.288426 -0.107377 0.151348
-0.115413 -0.069025 0.216222
-0.283226 -0.467759 -0.415598
-0.169062 -0.746376 0.242524
0.039995 0.695808 0.219098
0.066242 -0.283003 -0.107786
0.001683 0.447007 -0.363308
0.442496 0.642971 -0.146409
0.500676 0.309738 0.093758
-0.445552 -0.158596 -0.251307
0.168486 0.639621 0.314790
0.156218 -0.739807 -0.163484
0.552426 0.734854 -0.035176
-0.120802 0.137640 0.395250
0.146477 -0.711425 -0.157436
-0.312020 -0.655167 0.132191
-0.224036 -0.712079 -0.339545
0.306551 -0.421651 0.074482
0.403715 0.149261 0.356490
0.239186 -0.534561 0.116209
-0.175438 0.494045 -0.259182
0.486246 0.158633 0.153714
0.464701 0.588540 0.073687
0.020223 -0.786779 0.043163
0.409188 0.471908 -0.174720
0.146332 -0.740137 0.140192
0.130244 -0.762983 0.158592
-0.159599 0.615974 -0.117249
-0.362323 0.197153 0.067755
-0.126888 -0.785515 0.227517
0.230200 0.021810 -0.255812
0.079250 0.378753 0.447093
0.445614 0.519039 0.123104
0.559689 0.686547 -0.029137
-0.373130 -0.708663 -0.027588
-0.368848 -0.724628 -0.059620
0.492236 0.318581 -0.027767
-0.277908 0.182133 0.230541
-0.257729 -0.793245 -0.014083
-0.122790 0.661329 0.140067
-0.163832 -0.025775 0.247422
-0.122248 -0.005620 -0.168418
0.126080 -0.315018 -0.107827
0.057588 0.571524 0.385918
-0.345745 0.004833 -0.187055
0.467591 0.095776 0.128312
0.295666 -0.275482 0.051345
0.069968 -0.111163 -0.085494
0.396232 0.516423 -0.175839
0.283700 -0.196979 0.155548
-0.445617 -0.566929 -0.090276
0.170263 0.688947 0.234493
0.193421 -0.346640 -0.084591
-0.411514 -0.076434 -0.232130
-0.374103 -0.345281 0.061178
0.320864 -0.343315 0.122048
-0.057464 0.445664 -0.346832
0.033197 -0.498115 0.301881
-0.288561 -0.706196 -0.303734
0.298244 0.678819 -0.144859
0.358833 0.516662 0.307940
0.099829 -0.062751 0.383364
0.100958 -0.793727 0.146138
-0.307950 0.465977 -0.214783
-0.028048 0.684532 0.212283
0.542579 0.615395 0.069686
0.279113 -0.158069 0.147427
-0.021025 -0.794178 -0.149733
-0.011165 -0.596141 -0.368955
-0.276546 0.053181 -0.149507
-0.242194 -0.793635 -0.080652
0.085553 0.728858 0.025718
0.497798 0.240739 0.152081
0.445558 0.058658 0.022476
0.029295 -0.796365 -0.097133
0.411520 0.270522 -0.216426
-0.363333 0.027923 -0.195576
0.282153 -0.267374 0.224430
0.366042 0.300312 -0.269471
0.273050 0.619577 0.284063
-0.156145 -0.249267 -0.318443
-0.216351 -0.554184 0.168730
0.170680 -0.765367 -0.157161
-0.016283 0.710518 0.092540
-0.172530 0.221110 0.317383
0.447979 0.327624 0.280476
-0.323619 -0.779345 -0.131727
-0.212842 0.069992 0.283637
0.226510 0.382795 -0.348050
0.305587 0.101878 0.439115
-0.062531 -0.313220 0.197592
0.175791 -0.274662 0.333130
0.490898 0.163399 0.038897
-0.464341 -0.455290 -0.064579
-0.219707 0.453011 0.311923
0.305539 0.129631 0.448727
0.186143 0.041252 -0.291759
0.142942 0.021111 -0.286625
0.112763 -0.797811 -0.033450
0.172843 -0.097052 0.293663
0.004064 -0.757640 -0.286795
-0.305848 0.581923 0.048536
-0.346620 0.539271 0.028472
0.190999 0.349878 -0.367685
-0.204870 -0.264635 -0.356147
-0.203709 -0.794090 -0.132307
-0.053666 -0.793493 -0.159211
0.373919 0.669039 0.072986
-0.449250 -0.511354 -0.003015
0.272924 -0.212428 0.042091
-0.325978 0.248689 -0.248468
0.031702 -0.796133 -0.172340
-0.239457 0.047080 0.186718
0.417523 0.855185 0.010524
0.148865 -0.409611 0.337042
-0.025511 -0.259974 0.217534
-0.444125 -0.535747 -0.175809
-0.124584 -0.770991 0.029907
0.339294 0.152416 -0.265450
-0.246181 0.221682 -0.265289
-0.056596 0.316046 -0.368641
-0.011038 -0.269863 -0.173463
0.562689 0.584830 0.027404
0.085259 -0.793490 -0.210920
-0.138524 -0.251552 0.012942
-0.277816 -0.589589 -0.378495
0.018070 0.593622 -0.279138
-0.000347 0.007467 -0.256739
0.069652 -0.497623 0.305896
-0.233071 -0.335062 -0.415691
0.245813 -0.486915 0.212821
-0.047752 -0.797984 0.219050
-0.200652 -0.419533 0.148800
-0.429772 -0.458504 -0.296269
-0.444747 -0.331815 -0.100279
0.035526 0.223369 -0.384236
0.410239 0.312482 -0.219030
-0.235925 0.071921 0.240475
-0.160503 0.247754 0.328896
-0.333427 -0.347586 0.089926
-0.176206 0.633598 0.100776
-0.459461 -0.367937 -0.110208
-0.252014 -0.284132 0.058460
-0.374665 -0.010612 -0.202477
-0.434675 -0.547089 0.028703
0.055114 -0.261861 0.318803
0.414618 0.013803 0.052157
0.052112 0.532194 0.409771
0.054873 -0.797363 0.115104
0.484649 0.312497 -0.065419
-0.334303 -0.338576 -0.425416
0.526589 0.630268 -0.087616
-0.155253 -0.218108 -0.084237
-0.313824 -0.222292 -0.092912
-0.163000 0.278511 0.324758
0.430943 0.276487 -0.188264
0.317940 -0.340205 0.156213
0.199375 0.172986 0.516903
0.155846 -0.656711 0.152209
-0.348479 -0.564727 0.131398
0.346765 0.691019 -0.145294
-0.416162 -0.033533 -0.301216
0.146422 0.308906 0.467631
0.484017 0.133973 0.050822
0.029279 -0.029569 -0.222671
0.465148 0.169413 -0.098006
-0.333120 0.567341 0.041584
-0.154746 -0.296323 0.085329
0.320496 0.155234 0.439087
-0.168689 0.037969 0.328713
-0.176554 -0.296069 -0.382860
-0.250044 0.509278 0.210857
-0.133473 -0.053264 0.233804
-0.242588 -0.794592 -0.109781
0.118894 0.069979 -0.324861
0.223956 -0.013311 0.403459
0.282198 -0.050440 0.280068
0.382691 0.122257 0.372924
0.077230 -0.795675 0.177948
-0.003830 0.647339 -0.206243
0.439376 0.370906 0.282652
-0.212290 -0.795301 -0.159879
0.011258 -0.795221 -0.127617
-0.358590 -0.504193 0.128309
-0.288646 0.136178 -0.271249
0.148767 0.595421 -0.267186
-0.429893 -0.261954 -0.203519
0.474364 0.221474 0.239198
-0.473222 0.477473 -0.124666
0.373612 0.549955 0.243567
-0.439837 0.383134 -0.155709
-0.284330 -0.005310 -0.300645
0.479831 0.121215 0.077402
-0.018523 -0.172477 0.091279
-0.408020 0.590393 -0.114981
-0.211530 0.003097 0.173846
0.089062 0.138527 -0.362197
-0.464271 -0.479450 -0.080735
0.274435 -0.117719 0.175436
-0.244108 -0.794273 -0.230899
-0.126140 0.331896 -0.339336
0.218662 0.470232 0.407354
0.041415 -0.280232 -0.122560
0.183586 -0.496459 -0.095626
0.178420 0.134778 0.518712
-0.242661 0.333302 0.310259
-0.171109 0.551817 0.292680
-0.245212 0.351956 -0.265077
-0.322990 -0.730905 0.074678
-0.458572 0.540154 0.013665
-0.073233 -0.247487 -0.221316
-0.474780 -0.321620 -0.304536
0.321039 0.445116 0.362081
-0.336955 0.606502 0.028103
-0.216805 0.024861 -0.051634
-0.143503 0.319126 0.363835
0.277623 -0.169824 0.079664
-0.183701 0.138543 0.315401
-0.175640 -0.794700 0.156930
0.312013 -0.392205 0.164378
-0.265420 -0.694150 0.185260
-0.166896 0.643672 0.066743
0.175167 0.087060 0.494832
-0.201121 -0.793211 0.077156
-0.459245 0.509479 -0.133614
0.138478 0.072722 0.481813
-0.275333 0.420435 -0.236995
0.433252 0.135799 0.300444
-0.327151 0.326247 -0.231216
-0.441784 -0.567551 -0.129351
-0.446718 0.360010 -0.134881
0.074432 0.719420 -0.042657
0.499912 0.337851 0.067560
0.200527 -0.296868 0.326832
-0.326222 -0.777607 -0.049466
0.443269 0.300767 -0.167985
-0.038071 -0.238818 0.054618
-0.387333 -0.484485 -0.342457
0.189895 -0.201481 -0.037519
0.187816 -0.249602 -0.050720
0.270437 0.216000 -0.330360
-0.470301 -0.356381 -0.261370
0.071998 -0.796929 -0.124198
-0.328403 0.205226 0.115136
0.226070 0.688046 -0.124566
0.468563 0.723404 -0.114659
-0.009490 -0.245356 0.239586
-0.369927 -0.723618 -0.090844
0.268877 -0.156385 0.180815
-0.033089 0.129881 -0.338298
-0.119613 -0.421508 -0.433265
0.033742 0.290010 0.530494
0.178775 -0.647468 -0.116396
0.181801 0.413042 -0.357237
-0.103179 0.559801 -0.258346
0.210360 0.498340 0.404039
0.056491 0.025182 -0.289801
0.210409 -0.535206 0.187095
0.065212 -0.454467 -0.305693
-0.068867 -0.534789 0.224304
0.414965 0.504049 0.228688
0.115876 0.655423 0.300437
-0.233164 -0.790269 -0.261728
0.288978 0.037526 -0.232045
-0.338985 0.172296 -0.110817
0.108168 -0.670043 -0.170947
-0.418508 -0.491375 -0.293876
0.262716 -0.134542 0.021640
0.060233 -0.676859 0.264086
-0.020250 -0.216152 0.160738
-0.394295 0.631372 -0.045913
-0.323725 -0.208787 -0.301271
0.053994 0.682729 0.251386
-0.445607 0.385956 0.028354
0.110741 0.721572 -0.035850
-0.116066 -0.334121 0.147904
0.504478 0.541555 0.097058
-0.081754 0.634574 -0.168991
0.140264 -0.269094 -0.071986
0.083788 0.465533 -0.360693
-0.167219 -0.219246 -0.229411
-0.410804 -0.645128 -0.040298
0.120819 -0.337679 -0.127639
-0.389297 0.260587 0.072734
0.111092 0.018335 -0.287212
-0.063788 -0.491660 0.241056
-0.208221 0.278168 -0.292119
-0.337619 -0.747814 0.007113
0.160343 0.030496 0.460914
-0.342974 0.610806 -0.084463
-0.080992 -0.793651 -0.131080
-0.290077 0.458826 0.153904
-0.281351 0.029492 -0.177346
-0.365285 -0.725380 -0.130774
-0.073542 -0.461563 0.233827
0.071260 -0.703190 0.272358
-0.109360 -0.768684 -0.305191
0.258883 0.409548 0.385438
-0.298863 -0.054100 -0.246842
-0.281321 0.496396 -0.203149
0.512934 0.429202 0.102488
-0.212881 -0.790739 -0.044743
0.250885 -0.705863 0.036245
0.453552 0.383350 -0.131882
-0.149087 -0.794511 0.174945
0.065923 0.168814 -0.373131
-0.160324 0.106557 0.350287
-0.392628 -0.246505 -0.174902
0.319309 0.663876 -0.157579
0.329170 -0.053647 -0.014715
0.480501 0.870079 0.024514
-0.456105 -0.487469 -0.020573
0.227581 -0.797904 -0.036051
0.234786 0.048517 -0.277733
0.221966 -0.447904 0.283117
0.475349 0.168243 -0.066606
0.258019 0.038853 -0.255347
-0.119811 -0.237107 -0.261581
-0.073181 -0.281137 0.136371
-0.011400 -0.277764 -0.211891
0.234624 -0.324875 -0.050130
0.154484 -0.635084 -0.125695
-0.467443 -0.379862 -0.186742
0.238375 -0.548643 0.035300
-0.390390 -0.681970 -0.116906
0.521169 0.647322 0.065412
-0.213850 -0.200895 -0.167083
0.250828 -0.508918 0.147132
0.083013 0.706742 -0.098902
-0.140311 0.239617 -0.329681
-0.129372 0.149276 0.357912
0.292306 -0.232478 0.083015
-0.100596 -0.787702 -0.282596
0.221612 0.253282 -0.358238
0.106038 -0.351836 -0.148203
