0.245788 0.772613 -0.261790
0.207037 0.396495 -0.199247
0.082719 -0.685583 0.342892
-0.091654 -0.109565 -0.302128
0.139400 -0.609072 -0.338942
0.028337 0.007180 -0.301154
0.327961 0.122954 -0.256305
0.109914 -0.691518 -0.228368
-0.313979 -0.689161 -0.302146
-0.116376 -0.096031 -0.300103
-0.370256 -0.504871 0.039791
-0.215287 0.503376 -0.038391
-0.168320 0.319450 0.367621
-0.302932 0.155958 0.040046
0.076213 -0.288442 -0.278484
0.215063 0.773220 -0.273861
-0.316300 0.206970 -0.292718
0.071045 0.957010 0.015073
0.006751 -0.294535 0.436278
-0.370628 -0.477386 0.048146
-0.241147 0.648020 -0.136527
-0.353679 -0.312660 0.066177
-0.137783 -0.673419 0.361880
0.247544 -0.421857 -0.247704
-0.010488 -0.668749 -0.351338
0.368323 -0.369568 0.061473
-0.244982 0.233168 -0.068438
0.022741 -0.192240 0.411601
-0.201677 -0.073327 0.303574
-0.213975 0.484559 0.040995
-0.332663 0.177101 -0.134500
-0.140344 0.387357 0.380594
-0.107848 0.771963 0.092092
0.013193 0.940470 -0.268186
-0.092821 0.733118 0.107037
0.084934 -0.687848 -0.338924
-0.055432 0.209098 0.355807
-0.028745 -0.474155 -0.317836
0.247069 -0.266867 0.351636
0.214803 0.340569 0.152760
-0.028624 -0.083163 -0.302113
-0.051601 -0.368946 -0.289981
0.306025 -0.410390 0.273842
0.175131 -0.127280 -0.290099
0.267939 0.566413 -0.166853
0.309037 -0.126431 0.162716
0.028118 -0.684661 -0.108141
-0.377957 -0.503715 -0.045002
-0.139541 -0.069808 0.345215
-0.082202 -0.095485 0.373946
-0.327816 -0.112891 -0.034997
0.032307 0.514481 -0.289698
-0.118733 0.331748 0.408379
-0.333583 -0.614603 0.089512
-0.095088 -0.688414 0.357312
-0.173810 -0.696651 -0.229213
0.053145 -0.197830 -0.291961
-0.108137 -0.692624 -0.242359
-0.352421 -0.557271 -0.179191
-0.213708 0.506603 0.061163
-0.187605 0.039249 -0.301933
0.178953 0.254316 0.320402
-0.287625 -0.684922 0.164161
0.355351 -0.654134 -0.137538
0.285783 -0.492539 -0.257070
0.115567 0.957448 0.009861
0.170138 0.230623 0.306238
0.208517 -0.048535 0.318765
0.074611 0.411935 0.409177
0.313157 0.092530 0.036982
0.300510 -0.339263 -0.230213
0.343457 -0.323536 0.147330
0.097538 -0.503869 -0.319547
-0.214438 0.648855 -0.016792
-0.257431 -0.686971 0.204243
-0.252422 0.733373 -0.240685
-0.085568 0.457133 -0.291872
-0.199842 0.304172 -0.038866
0.295943 -0.391469 -0.214440
-0.051604 -0.507528 0.429067
-0.174365 -0.698546 -0.272768
0.004501 -0.681956 0.282537
-0.152423 0.209856 0.259907
0.076643 -0.696606 -0.239806
0.299035 -0.570912 0.168376
0.224382 0.439266 0.096149
0.240548 0.734988 -0.152746
-0.314583 -0.128816 -0.289080
0.292004 -0.480925 0.281818
-0.261173 0.538814 -0.207284
0.054363 0.763853 0.144484
-0.239496 0.194786 0.076633
0.266780 0.227787 -0.286418
0.219810 -0.677206 0.048931
0.006068 0.308442 -0.295744
0.177086 0.650112 0.175197
-0.377414 -0.420645 -0.009723
-0.257342 -0.277002 -0.279436
0.334460 -0.627677 0.031175
-0.218139 -0.643965 0.315473
-0.208997 0.770157 0.012687
-0.305883 -0.694709 -0.036827
0.114062 -0.682606 0.349500
-0.125924 -0.044800 0.344841
-0.128390 0.577675 0.297035
-0.141692 0.953201 -0.156096
-0.251801 0.725639 -0.195283
-0.078679 0.752882 -0.282036
-0.209540 0.838503 -0.093731
-0.168766 0.268082 0.304028
-0.028264 -0.367306 0.430295
-0.106045 0.761078 -0.278091
0.311982 0.036060 0.109372
-0.111077 -0.681711 -0.346174
-0.360984 -0.632819 -0.125357
-0.093984 0.918995 0.107703
-0.372269 -0.306712 -0.138096
0.310548 -0.197202 0.071390
0.221914 0.418602 0.015566
-0.202414 0.222524 0.027465
0.237140 0.183958 0.191814
0.211018 0.264458 -0.009862
-0.301632 0.183214 -0.298113
0.175328 0.009349 0.322217
-0.142445 -0.359429 0.415202
0.022324 -0.175384 -0.294843
0.039257 0.444319 -0.290198
0.212128 0.352129 0.350786
0.046805 0.651749 0.359886
-0.058475 -0.429629 0.427136
0.310070 -0.130942 0.010990
-0.350668 -0.052225 -0.156927
0.060181 0.959177 -0.087067
-0.068824 -0.473143 0.423386
-0.120093 0.279219 0.397283
0.177125 0.088756 -0.292826
0.310466 0.197256 0.026137
0.344815 -0.159563 -0.217640
-0.327664 -0.650347 0.103164
0.335061 -0.548768 0.025830
-0.268686 0.033571 -0.298990
0.219123 0.137134 0.252657
-0.249651 0.677389 -0.202603
-0.313146 -0.696853 -0.224099
0.086120 0.773811 -0.282147
0.221932 0.425030 -0.012038
0.196421 0.064902 -0.291839
-0.049515 -0.335952 -0.283308
-0.224530 -0.682906 -0.040547
0.277475 -0.037238 -0.276534
0.162113 0.452099 -0.281118
0.022120 0.541173 0.386341
0.178293 -0.682096 -0.168035
0.055476 0.862226 0.161316
-0.324185 0.248850 -0.252024
0.058322 0.188799 0.325575
0.009656 -0.687665 -0.236207
-0.364514 -0.217592 -0.121203
-0.352446 -0.638182 -0.009645
0.324927 -0.243794 0.016988
0.371948 -0.352612 -0.005669
-0.350207 -0.211202 -0.260739
-0.094559 0.124722 -0.306223
0.348717 -0.423164 -0.166455
-0.341506 0.052329 -0.133008
0.205924 0.231757 0.156825
-0.312585 -0.222424 0.058566
-0.034272 0.464928 -0.292239
0.307707 -0.143327 -0.259330
-0.375027 -0.376089 -0.186547
-0.367569 -0.254098 -0.222395
-0.117836 -0.682043 0.275108
0.130295 -0.693346 -0.264280
0.341090 0.017119 -0.148615
-0.129195 -0.695493 -0.262162
0.277258 -0.481886 0.305214
-0.051189 0.070298 0.333450
0.366090 -0.294041 -0.071799
0.256930 0.732749 -0.202057
-0.191230 -0.146381 -0.294719
-0.049846 0.951811 0.086999
0.227292 0.676584 -0.027343
-0.106551 0.147779 0.296948
-0.252646 0.702368 -0.180253
0.238713 0.221561 -0.287728
0.340081 0.005291 -0.176023
-0.178811 -0.159804 0.344273
0.094400 -0.221413 0.412460
0.338754 -0.062546 -0.210823
-0.200507 0.289413 0.052599
0.347174 -0.101112 -0.074331
-0.085777 -0.682438 -0.054779
0.342390 -0.513911 0.144938
0.217662 0.365402 0.252320
0.182049 0.932583 0.012620
0.085722 0.238094 -0.294395
0.067536 -0.255773 -0.283807
0.234794 -0.321190 -0.252774
0.154710 -0.475278 0.405991
-0.024278 -0.577740 -0.343557
-0.214974 0.268438 -0.165948
0.110004 -0.192960 -0.290570
-0.358033 -0.310848 0.019652
0.037446 0.575952 -0.288254
-0.084725 0.894638 0.134243
-0.371720 -0.313250 -0.170345
-0.032861 0.885604 -0.277044
-0.067206 0.262188 0.404529
0.010728 0.451385 -0.292542
-0.090034 0.390754 0.404769
0.016282 0.679479 0.319308
0.076299 0.093986 -0.298486
-0.116482 -0.292837 0.411472
0.228840 0.528845 0.141958
-0.000187 0.185342 0.328240
-0.208761 0.588563 0.144794
0.334580 0.133342 -0.221362
0.166364 0.479551 0.337485
-0.085162 0.290439 -0.299248
0.365757 -0.299402 -0.034896
0.112240 -0.200302 0.403279
-0.065952 0.774397 0.106257
-0.187460 0.877270 -0.259714
-0.359472 -0.657445 -0.185455
0.136725 -0.342379 0.427037
0.137831 -0.669455 -0.068733
-0.347791 -0.329143 0.120495
0.242114 -0.692695 -0.312471
0.301277 0.120377 -0.285943
-0.375281 -0.458682 -0.165961
0.090010 0.659438 0.226453
-0.006100 0.451058 0.406221
-0.150157 0.811524 -0.275713
-0.206061 0.355876 0.131669
-0.285126 -0.115071 0.196698
0.334185 0.057711 -0.228580
0.086441 0.947000 -0.263056
0.182535 0.916822 -0.246890
-0.275823 -0.078038 0.201950
-0.350676 -0.432752 0.129182
0.032697 -0.706671 -0.186294
-0.347194 -0.031033 -0.124380
-0.329333 -0.448857 0.189804
-0.295174 -0.326702 -0.265877
-0.131198 -0.685320 0.301141
-0.045806 0.805827 0.128485
-0.202718 0.324659 0.116541
0.076620 0.232413 0.378137
-0.249538 -0.699653 -0.250129
-0.227717 0.583264 -0.277453
0.321765 -0.649698 0.060762
0.045897 0.422982 0.408266
-0.049985 0.899711 0.143644
-0.352262 -0.684166 -0.202446
0.197023 0.035802 -0.292800
0.311243 0.246068 -0.176201
0.223902 0.453732 0.197501
0.129543 -0.689745 -0.094068
-0.119354 -0.696217 -0.084020
-0.274359 -0.308992 -0.273025
-0.239792 0.485677 -0.235221
0.217554 0.344519 0.055392
0.025823 0.156709 -0.300400
-0.174047 0.952788 -0.136530
0.147792 -0.004272 0.335609
0.331862 0.200105 -0.086900
-0.321172 -0.387323 0.205286
0.184440 0.725697 0.099127
0.108358 -0.683209 0.076446
0.229079 0.531872 0.204769
-0.274726 -0.134665 0.228527
-0.031989 0.504899 0.347765
-0.300069 -0.112546 0.156399
-0.312717 -0.107793 0.026993
0.168849 -0.355305 -0.259656
-0.019112 -0.684092 -0.067141
0.337766 0.190941 -0.135404
0.214570 0.340138 0.288091
-0.122367 0.146580 -0.305338
-0.095823 -0.682080 0.250149
-0.299005 -0.697625 -0.280205
-0.102708 0.880624 -0.275375
-0.372850 -0.303884 -0.109517
0.040056 0.944522 -0.263740
-0.034135 -0.653562 0.410574
-0.300147 -0.302628 0.193938
-0.341252 -0.036543 -0.070037
0.002015 -0.617073 -0.350746
-0.204281 0.320834 0.059313
-0.121955 0.278125 -0.299892
0.219384 0.416071 -0.044230
-0.082923 0.954863 -0.128578
0.121513 -0.458213 0.420531
-0.300079 -0.556622 0.226400
0.079988 0.623283 0.359864
-0.349378 -0.550249 0.093812
-0.222850 -0.405771 0.352691
-0.306776 -0.206885 0.151611
0.354615 -0.659317 -0.210388
-0.371000 -0.531273 -0.046059
0.229467 0.582059 0.162627
0.111450 -0.329015 -0.269799
0.311298 -0.155869 0.157637
-0.213384 0.656475 -0.080316
0.046006 0.701141 -0.283631
0.230220 0.575610 0.078590
0.225883 0.695317 -0.048164
-0.186739 0.949013 -0.095226
0.298926 -0.547461 0.223683
0.349637 -0.182258 -0.194401
-0.237226 0.067253 -0.300822
-0.048859 0.633301 0.353656
0.340191 -0.340064 0.173322
-0.098127 0.805247 0.114545
0.228186 0.559732 0.015376
0.090366 0.783862 0.109761
0.256308 -0.581447 0.274631
0.094319 0.602425 0.347898
0.059109 -0.467333 0.437650
0.009125 -0.459013 0.440986
-0.238751 -0.685494 0.142102
-0.358033 -0.149392 -0.145710
-0.059406 0.726735 -0.282679
-0.173064 0.518685 0.283140
-0.263601 0.197234 0.053374
-0.269609 -0.394948 0.296696
-0.327531 -0.476345 0.184879
-0.318831 -0.678352 0.112015
-0.021336 0.643878 0.375556
0.144427 0.748686 0.090561
-0.357707 -0.234919 -0.248179
-0.309165 -0.094155 -0.008392
0.233684 -0.123198 0.318762
0.195571 -0.358786 -0.251081
0.310990 -0.051933 0.134692
-0.225159 -0.606041 -0.336111
-0.103076 -0.535297 -0.333160
0.297733 -0.098372 0.198142
0.334747 0.023609 -0.049718
-0.159368 -0.652278 0.359124
-0.311089 -0.140584 0.101998
-0.014202 0.028102 0.350245
0.223170 0.490015 -0.065984
-0.210080 0.786483 -0.143300
0.353768 -0.643518 -0.236308
0.165742 -0.684234 -0.135325
-0.251650 0.700812 -0.217021
-0.325326 -0.217175 -0.274146
-0.360185 -0.356626 0.079041
-0.349724 -0.058953 -0.123685
-0.064220 -0.677071 0.090457
-0.184075 0.769783 -0.272919
-0.278324 -0.692888 0.025450
-0.214644 0.533721 0.047042
-0.293199 -0.146511 0.188037
-0.077381 -0.693572 -0.298248
0.180766 0.772417 -0.275339
-0.269142 -0.453409 -0.266671
-0.120900 0.480181 0.339619
0.201873 0.838021 0.075708
-0.300920 0.122671 0.063880
-0.017820 0.440226 -0.290981
-0.115057 -0.671095 0.122415
-0.354119 -0.576837 -0.200454
0.211966 0.648252 0.159906
-0.105913 0.236671 0.354018
0.280759 -0.296399 0.288992
0.204859 0.917768 -0.131010
-0.184689 0.223744 -0.301420
0.328931 -0.495810 -0.210143
0.357776 -0.506259 -0.104322
0.045902 -0.141526 0.395121
-0.103876 -0.411476 0.428021
-0.059121 0.491652 0.341881
-0.050241 -0.005823 0.354305
-0.144755 -0.699620 -0.100380
0.228578 0.504458 0.156908
-0.280373 -0.692376 -0.021176
-0.151321 -0.593139 -0.344614
0.151343 -0.163986 0.379797
0.324243 -0.681083 -0.034634
-0.278150 -0.455408 0.286750
0.227582 0.615996 -0.003757
0.150596 0.962218 -0.100629
0.034550 -0.593929 -0.342389
0.014059 -0.580832 0.432856
0.342723 -0.663636 -0.051751
0.294368 -0.687264 -0.025336
-0.272072 -0.292629 0.271401
-0.140601 0.493932 0.323953
-0.128726 0.192423 -0.303113
-0.181463 0.408976 0.341765
-0.052134 0.148433 -0.306133
0.192386 0.898877 0.039205
-0.241835 0.259797 -0.163933
0.181835 0.947261 -0.016333
0.105920 -0.334200 0.432538
-0.249081 -0.285369 0.314235
-0.046575 0.439495 -0.293657
0.226271 0.460258 0.124532
-0.061398 0.644292 0.265066
0.367786 -0.317990 -0.056187
0.080463 -0.191297 -0.292592
-0.204067 -0.688983 -0.159230
0.246292 -0.459536 0.350081
-0.151200 0.619830 0.201572
0.142735 0.259957 -0.291444
0.345350 -0.262596 0.013215
-0.341217 0.111005 -0.177165
0.359242 -0.644567 -0.163312
-0.194819 0.222331 0.066574
-0.079493 0.609800 0.250873
-0.196532 0.207269 0.098306
-0.297492 -0.079588 0.154091
0.199094 0.929705 -0.187924
-0.151234 -0.581932 0.381395
0.135958 0.735615 -0.278992
-0.062214 -0.681265 0.253812
-0.192547 0.292413 -0.293071
-0.277641 -0.575993 0.260272
0.129478 -0.521229 0.400486
0.052424 -0.072569 -0.299008
0.017044 -0.547835 0.436101
0.211449 -0.579639 -0.324719
0.094572 -0.679787 -0.166727
0.124545 0.486822 -0.285592
-0.005717 -0.203612 0.412968
-0.348694 -0.111024 -0.268174
0.293060 0.157192 0.140940
-0.213053 0.662134 -0.050220
0.309109 0.105114 -0.000366
-0.098624 -0.036850 0.352669
-0.033071 -0.695144 -0.313779
0.122603 -0.424541 0.412685
-0.013056 0.840214 0.154991
-0.264746 -0.061598 0.227399
-0.210857 0.764661 -0.023977
0.007404 -0.681740 0.077145
0.072102 0.749391 -0.283192
-0.086953 0.094621 -0.307004
0.229813 0.557678 0.056202
-0.196096 0.339384 0.304915
0.342787 -0.406054 0.166206
0.212092 -0.693422 -0.256812
0.033935 0.641955 0.392217
0.011764 -0.368440 -0.287785
-0.120384 -0.089228 0.358245
0.003485 0.580941 0.410934
0.001216 -0.245687 0.424714
0.215605 0.760487 0.053469
0.217421 -0.177625 -0.281693
0.221862 0.031768 0.283342
0.266509 -0.356776 0.333164
0.044640 -0.534084 -0.331320
-0.042337 -0.527801 -0.332302
0.256562 -0.632131 0.240806
0.014137 -0.681301 0.012543
-0.045486 0.725336 0.181794
-0.054631 -0.340308 0.437928
-0.196645 0.865039 0.027320
-0.212870 0.508784 0.092758
0.107799 -0.676495 -0.083152
-0.202165 -0.276724 0.359319
0.211666 -0.695574 -0.186834
0.216238 0.364383 -0.045811
0.076864 -0.676008 0.094996
0.212466 0.829402 -0.146916
-0.293698 -0.046947 0.153870
-0.370147 -0.270457 -0.139546
-0.021715 -0.641676 -0.354351
0.307583 -0.191346 0.026479
0.336892 0.074128 -0.206186
0.285970 -0.692230 -0.181863
0.225854 0.501882 0.013630
0.033037 -0.325203 0.438400
0.219583 0.747245 -0.117558
-0.113742 -0.587225 -0.346059
-0.087103 0.664577 0.179218
-0.299700 0.201919 -0.065194
-0.230647 -0.685522 0.191092
0.307501 -0.042154 0.002311
-0.085462 0.480801 0.344092
-0.042097 -0.685755 0.353920
0.021559 -0.685698 0.322027
0.342370 -0.630002 0.004152
-0.314606 -0.412878 0.214762
-0.283119 -0.342804 0.285943
0.124135 -0.002311 -0.295633
0.344281 -0.528511 0.087591
0.143756 -0.153243 -0.291243
0.074640 -0.146415 0.393717
-0.348613 -0.031618 -0.237969
0.115561 -0.233284 -0.284720
0.178777 0.404757 -0.263103
0.315870 0.162211 0.070829
0.313866 0.127734 0.022791
-0.381233 -0.465404 -0.139247
0.018287 -0.677227 -0.210616
0.312597 -0.105285 -0.001576
-0.341234 0.108126 -0.242663
0.030441 0.191083 0.335544
0.253982 -0.298716 0.352632
0.205365 0.204793 0.166720
0.183399 -0.689203 0.170038
0.155072 -0.265881 -0.275640
0.288658 -0.423919 -0.219614
0.134699 0.834336 -0.278059
0.307605 -0.220332 0.056725
0.084080 0.961049 -0.107685
0.016891 0.806343 0.136309
-0.209136 0.723669 0.039556
0.180065 0.303785 0.387164
-0.211165 0.612386 0.089327
-0.095946 0.261156 -0.301964
0.122966 0.064117 0.323004
-0.156535 0.231430 0.277455
-0.310360 -0.441921 0.228635
-0.115936 -0.657491 0.376068
-0.117126 0.406997 -0.292135
-0.063343 0.610666 0.361688
0.215708 0.837484 -0.176263
-0.217820 0.471324 -0.170405
-0.152080 0.146942 -0.305451
-0.148162 -0.297482 -0.279818
0.089386 -0.710106 -0.177981
0.298041 -0.672579 0.106142
0.124418 0.021506 0.334290
-0.026496 -0.129999 0.380701
-0.244161 -0.316876 -0.273439
0.152921 0.947436 0.028424
-0.136578 -0.638484 0.372081
0.140583 -0.443408 0.403386
-0.256177 -0.611678 -0.327311
-0.177997 -0.580996 0.365171
0.224204 0.241029 -0.042420
0.081739 0.915318 0.123151
-0.291977 0.184474 0.054489
0.335758 -0.681480 -0.112675
-0.221865 0.222305 0.002667
0.118008 -0.680591 -0.044266
0.235741 0.520512 -0.262882
0.110986 0.943459 0.074677
-0.324093 -0.700228 0.001864
-0.044997 -0.656648 -0.353937
0.028374 0.564369 0.402269
0.015121 0.468932 0.374275
-0.147730 0.641196 0.181890
-0.298544 -0.356081 -0.258159
-0.151255 -0.204683 -0.292915
0.020570 0.168182 0.312592
0.286495 -0.688482 -0.069681
0.074338 -0.518235 -0.323799
0.101171 0.041122 0.337030
0.110201 0.706313 0.132923
0.251966 -0.588090 -0.314407
-0.051225 0.336547 -0.297534
0.373417 -0.464202 -0.015025
0.146744 -0.677762 0.142330
0.274288 0.243565 -0.102963
0.286047 -0.582292 0.191112
0.191210 -0.693393 -0.278783
0.190093 -0.003036 -0.291666
0.079240 -0.687488 0.381424
0.264446 0.535350 -0.203273
-0.154691 0.134585 0.279272
0.249672 0.244497 -0.086373
-0.314029 -0.598884 0.163786
-0.337828 -0.497061 -0.204869
-0.224285 -0.697242 -0.311096
-0.062396 -0.588396 -0.348643
-0.245698 0.619778 -0.136065
-0.281997 0.103501 -0.299974
0.042887 0.306849 -0.294060
0.200324 0.196483 -0.291710
0.084446 -0.037530 -0.297911
0.201713 -0.228329 0.371979
0.068917 0.954177 0.078418
-0.214671 0.473276 0.013852
0.235404 -0.685301 0.009474
-0.205014 0.863266 -0.195969
0.372013 -0.373615 0.033553
0.195829 0.851337 -0.264540
0.085371 0.702005 -0.284340
0.341161 0.010300 -0.120820
-0.143534 -0.696452 -0.295781
0.281358 -0.449439 -0.236029
-0.352827 -0.146768 -0.075708
0.183023 -0.154246 -0.287866
-0.083521 0.211537 0.341632
-0.132415 -0.681724 0.236779
-0.283988 -0.165786 -0.292152
-0.016171 0.473753 0.362636
-0.232378 0.103516 0.224454
-0.212846 0.095041 0.247934
-0.328799 -0.211828 -0.023402
-0.376446 -0.384334 -0.030761
-0.151757 -0.510021 -0.325480
-0.211361 0.734296 -0.270997
0.083796 0.274416 0.424117
-0.307829 -0.035148 0.093956
0.231330 0.617185 0.078281
0.058542 0.342850 -0.292137
-0.360547 -0.186279 -0.249141
0.218993 0.008305 -0.289435
-0.208601 0.679534 -0.275072
-0.183391 0.307948 0.312981
0.267084 0.537411 -0.174472
-0.196062 0.567169 0.221942
-0.074316 0.935566 -0.270669
-0.330441 -0.472296 -0.216044
-0.203101 0.368030 -0.148510
-0.041783 0.565772 0.393695
-0.075490 0.626256 0.228257
-0.215578 0.530718 -0.026379
0.353636 -0.192506 -0.052511
-0.278056 0.184334 0.078509
0.143144 0.578027 0.332710
-0.286133 0.246894 -0.163679
0.344095 -0.564907 -0.009997
0.208626 0.479949 0.298301
-0.354604 -0.603502 -0.210441
-0.248995 -0.209601 -0.288539
0.155342 0.728057 0.108071
0.342990 -0.032845 -0.080947
-0.245357 -0.021527 -0.298682
-0.318626 0.160466 -0.293352
-0.309228 -0.101315 0.120733
-0.004877 -0.668588 -0.018045
-0.202925 0.326143 0.087951
0.299313 -0.450611 0.280679
-0.074061 -0.688610 -0.226440
-0.212105 0.621756 0.058601
0.026966 0.334838 -0.294438
-0.176561 -0.500093 -0.317357
-0.052868 0.729708 0.155596
-0.186363 0.249514 0.188203
0.333095 0.027644 -0.235793
-0.098517 0.019346 0.337822
-0.061380 -0.618734 -0.355673
0.163058 0.122065 0.291676
-0.365093 -0.477270 0.076280
-0.204791 -0.430620 0.365448
0.203782 0.427896 0.338015
-0.329889 -0.674527 0.085875
0.208785 -0.693704 -0.300719
-0.217261 0.625424 -0.119283
-0.205782 0.871430 -0.076222
0.040340 -0.676484 0.027782
-0.088462 0.952972 -0.096224
0.375490 -0.424673 -0.059857
0.286851 0.052674 0.189511
0.146930 -0.650281 0.359626
-0.332313 -0.310693 0.156838
-0.114876 0.642995 0.194893
0.144321 -0.193460 0.390387
0.116600 0.222493 -0.293491
0.362407 -0.624514 -0.196583
0.208617 0.293348 0.218571
-0.053557 0.130918 0.315732
0.347768 -0.436932 0.159181
0.135007 -0.418101 -0.291684
0.216756 0.781015 -0.119217
0.229156 0.531436 0.075402
0.339494 0.064599 -0.101669
-0.204225 -0.334181 0.368497
0.105612 -0.470800 -0.311286
-0.229360 -0.440277 0.351595
-0.217435 -0.324122 -0.271781
-0.211863 0.448455 -0.128716
-0.025112 0.035726 -0.305405
-0.182903 0.899223 0.035404
0.027272 0.403831 0.425137
-0.176321 0.561900 0.243190
0.000611 0.606605 -0.288069
-0.165877 -0.351047 -0.266819
0.180111 0.574381 -0.279382
-0.229618 0.479580 -0.209538
0.228610 0.565518 0.185181
-0.351048 -0.052945 -0.193157
-0.152898 -0.296682 0.395419
0.136745 -0.516969 -0.318896
-0.378765 -0.513413 -0.109312
-0.077505 -0.671878 0.115746
0.202370 0.364557 0.373729
0.175381 0.609959 0.213843
0.310471 -0.648190 0.099336
-0.070838 0.952112 -0.001490
-0.292699 0.070438 0.116661
-0.286623 0.161530 0.092676
0.310859 -0.047513 0.051465
0.184141 -0.189436 -0.285348
0.345434 -0.592464 -0.008993
-0.067368 0.613956 0.314999
-0.011344 -0.150647 0.393457
0.270692 0.222858 -0.009037
0.106020 0.834013 -0.278477
0.229401 0.658548 0.100131
-0.080924 0.202351 -0.304007
-0.271748 0.066727 0.167635
0.098903 0.960362 -0.013149
-0.327160 -0.103432 -0.285093
-0.338283 0.145893 -0.262082
-0.332411 -0.614520 -0.289681
-0.133132 0.538193 -0.284414
0.208765 -0.650686 -0.334553
0.002598 0.200784 -0.300917
0.230061 -0.667483 0.268492
0.215228 0.858444 -0.006640
-0.294532 -0.698018 -0.162322
0.315924 0.171882 0.043103
0.114816 0.585747 0.328807
0.347395 -0.267529 -0.211547
0.256554 -0.435039 0.340136
-0.065011 0.717823 0.132016
-0.162047 -0.549331 0.391431
0.228490 0.712367 0.024692
-0.076579 0.817725 0.127206
0.029477 0.753977 -0.284567
0.323336 0.028902 -0.263853
-0.199774 0.926481 -0.129107
-0.068195 0.950021 -0.070052
-0.252367 0.611014 -0.173917
-0.133619 0.249257 -0.301681
-0.349273 -0.530570 -0.185750
0.174078 0.377234 0.387987
0.375191 -0.387239 -0.006203
0.070885 0.456207 -0.290172
0.194187 0.670875 0.145359
-0.024805 0.958835 -0.199626
0.142840 -0.687874 0.236570
-0.119768 -0.457678 -0.313111
-0.210689 0.815174 -0.074332
0.306654 -0.145592 0.183114
-0.115301 0.370453 0.401016
0.143369 0.631064 -0.281639
-0.021196 0.405744 -0.293347
0.189157 0.278911 0.335371
-0.198252 0.294023 0.121073
0.366553 -0.480107 -0.109135
-0.058578 0.953354 -0.155487
0.263962 0.188079 -0.287402
0.109620 -0.157426 -0.294190
-0.212331 0.690483 -0.058807
0.249845 -0.516024 -0.293088
0.029654 0.486077 0.357041
-0.365975 -0.287856 -0.225774
0.049072 0.803979 -0.280800
-0.192366 0.286032 0.229434
-0.257951 0.206015 0.026875
0.296216 0.208669 -0.287069
-0.077152 0.956732 -0.193742
-0.260855 -0.539260 0.306993
0.134158 0.454857 -0.284477
0.123145 0.805193 0.114952
-0.128701 0.104225 -0.304153
-0.349333 -0.025035 -0.151175
0.029126 0.932817 0.126555
0.027288 -0.682351 0.246519
-0.063034 -0.473773 -0.318451
0.314512 0.100094 0.079970
-0.154215 -0.693676 -0.049176
-0.119196 0.350460 -0.295482
-0.206003 0.365099 -0.072714
0.310027 -0.113672 -0.260667
-0.201615 0.706579 0.078341
-0.316655 -0.135199 -0.022630
0.301559 0.027554 0.151890
-0.178383 -0.528819 -0.326485
0.127128 0.962498 -0.125736
0.337485 -0.019115 -0.044116
0.350486 -0.599467 -0.042664
-0.315742 -0.584570 -0.291890
-0.123785 -0.390535 -0.290114
0.209738 0.897910 -0.081501
0.228316 0.508879 0.188108
-0.007835 0.545185 0.387621
-0.308145 -0.004967 -0.010665
0.165323 0.381260 -0.276446
0.229149 -0.495261 -0.291009
0.220235 0.763319 -0.092929
0.244356 -0.133270 -0.279262
-0.294375 0.238899 -0.293121
-0.282978 -0.648149 0.222853
-0.350784 -0.561724 0.044427
-0.252564 0.263939 -0.191618
0.112114 -0.045062 0.358819
-0.157992 0.351961 0.380696
0.207296 0.310963 -0.176051
-0.209689 -0.187604 0.327561
0.063767 -0.688381 0.207210
0.327060 -0.437006 -0.181451
0.032378 0.273657 -0.297248
0.362350 -0.271701 -0.044479
0.211945 0.267829 0.063195
-0.352450 -0.626204 -0.231886
0.305194 0.254247 -0.255980
0.348390 -0.485501 0.143690
0.313138 -0.121414 0.104122
0.009402 0.535764 -0.288849
0.137533 -0.196875 -0.286190
-0.232807 0.246485 -0.111399
-0.120952 0.580567 0.268103
-0.114091 0.954831 -0.130973
0.077309 -0.684218 0.315423
-0.221677 0.276356 -0.292480
0.046845 0.615948 0.414143
0.023436 0.599288 0.417250
-0.303360 0.178414 -0.011975
-0.337645 0.161044 -0.163886
-0.332908 -0.292498 -0.022936
-0.288168 -0.586188 0.233423
-0.356393 -0.450477 0.106632
-0.007931 -0.686513 0.134544
-0.289458 0.195830 0.025501
0.231832 -0.550364 -0.308956
-0.133654 0.764651 0.081202
0.098581 -0.444248 -0.303668
-0.262403 -0.275020 0.291194
0.183023 0.428105 0.358163
0.251339 0.702806 -0.219686
0.059448 -0.362522 -0.282622
-0.271917 -0.162893 0.246464
0.082090 -0.229681 -0.286390
0.309697 -0.456506 -0.210461
-0.360870 -0.159023 -0.225050
-0.313334 -0.161289 0.079555
-0.050057 -0.683717 0.022786
0.080165 0.123316 -0.297515
0.251291 0.543477 -0.262097
0.275130 -0.692216 -0.290405
0.335878 -0.543547 0.063425
-0.036195 -0.034247 0.363779
0.309875 -0.623008 0.117660
0.300279 -0.470570 -0.234109
0.125977 0.355807 0.416656
-0.204869 0.341765 -0.031175
-0.214111 0.592894 -0.033320
-0.374976 -0.356772 -0.041106
0.224042 0.458761 0.025793
0.067579 -0.613087 0.426795
-0.076215 0.649668 0.199975
0.205290 -0.680296 0.091679
0.311317 -0.020740 0.043107
0.084983 0.159019 -0.295484
0.162201 -0.289021 0.410699
-0.280967 -0.007289 0.168123
0.244688 -0.409535 0.352799
-0.351959 -0.083318 -0.148658
-0.282554 -0.049815 0.180899
-0.117114 -0.386826 0.426241
0.087505 -0.543871 -0.328505
-0.051798 -0.685417 0.058987
0.105757 -0.634792 0.413064
0.201206 0.901193 0.010320
0.313426 -0.459806 0.248124
0.298392 0.019166 -0.278171
-0.079456 -0.651350 0.383366
-0.212740 0.444032 0.082413
-0.164316 0.951067 -0.067730
0.222027 0.463653 -0.074792
0.338704 0.068255 -0.175979
0.347075 -0.281524 0.084258
0.218448 0.553223 0.238818
0.235157 -0.613436 0.284772
0.255382 0.167011 0.206664
0.259874 0.545117 -0.234017
-0.183957 -0.685917 0.015383
0.279391 -0.237493 0.305199
-0.056891 -0.682175 -0.074898
0.234524 -0.152340 0.326207
-0.337000 -0.263338 -0.024338
-0.038216 0.000798 -0.303584
0.250785 0.513157 -0.240009
-0.199585 -0.345001 -0.268659
0.029812 -0.481486 0.438661
-0.071317 -0.690504 0.225665
-0.108450 0.001069 -0.304634
0.148159 -0.311540 -0.267418
-0.211004 -0.458361 0.369062
0.376594 -0.404928 -0.038622
0.208754 0.009066 0.300539
0.171075 0.836893 -0.274902
-0.247753 -0.094400 -0.297209
-0.183765 0.309155 -0.263180
-0.019555 0.616288 0.413949
-0.212897 0.470292 -0.111028
-0.141402 0.640795 -0.281402
0.186260 0.533737 0.280767
-0.198762 -0.656119 0.332384
0.059305 -0.685123 0.009320
0.245966 0.586432 -0.119748
0.000247 -0.677510 0.183001
-0.035286 0.753028 0.155979
-0.240707 -0.051322 -0.298253
-0.286244 -0.493830 -0.273480
-0.008687 0.756410 0.169597
-0.170616 0.475383 0.314913
0.055207 -0.420104 -0.301103
-0.045976 -0.028889 -0.305852
0.224647 -0.256503 0.365230
-0.204529 0.337241 0.152334
0.371556 -0.410690 -0.113577
0.019120 0.836425 0.153950
-0.019715 -0.609685 0.426165
-0.270174 -0.557829 0.285348
0.031493 -0.461271 -0.313104
-0.307233 -0.223449 0.007252
0.328649 -0.319236 0.191914
-0.304254 0.174384 -0.052169
0.357822 -0.507692 0.060204
0.104165 0.315391 -0.290349
-0.146798 0.398570 -0.288189
-0.371900 -0.442860 0.027393
-0.126053 0.940561 -0.263698
-0.329338 -0.413882 0.188089
-0.050735 0.366385 0.424643
-0.249281 -0.130919 -0.294525
0.124204 0.546964 0.366042
-0.015684 -0.009311 0.357294
-0.147939 -0.684864 0.277904
-0.246399 -0.461433 0.327367
-0.287392 -0.004227 -0.297609
-0.351111 -0.533268 -0.157655
0.210815 0.291367 0.129828
-0.316350 0.098143 -0.295450
-0.200998 0.600837 0.181225
0.252724 0.124240 0.225813
0.229920 -0.014170 0.289240
-0.261230 -0.643340 0.265016
0.074931 -0.322521 -0.272204
0.210036 0.307364 -0.119027
-0.028682 -0.227216 0.418160
0.033817 -0.055490 0.373233
0.260522 -0.470871 0.329378
-0.309522 0.048613 0.026527
-0.250282 0.119743 0.194567
0.213694 0.334959 0.254067
-0.343913 0.059346 -0.200777
0.189607 0.839032 0.101023
-0.285485 -0.675397 -0.324198
0.049321 0.236417 0.391185
0.227229 0.509057 0.224165
0.001361 0.292646 0.437805
0.345414 -0.645646 -0.266793
0.206398 0.162259 0.252869
0.312609 -0.081336 0.118006
-0.085717 -0.354802 -0.282092
0.308144 0.128083 -0.031608
0.159852 0.850489 0.115705
-0.317124 0.224367 -0.114093
-0.341153 -0.540213 -0.231132
-0.168578 0.063493 -0.304375
0.086754 0.208831 0.341596
-0.059636 0.956300 -0.215856
-0.154377 0.273332 0.349407
0.256788 0.201811 0.091621
-0.075310 0.688221 -0.283706
0.312109 -0.218046 0.168995
0.219513 0.800387 0.026367
-0.316107 -0.510249 -0.259862
-0.269336 -0.041341 0.206969
0.314474 0.235122 -0.274122
-0.359218 -0.553878 -0.100212
0.015500 -0.507583 0.437456
-0.174915 0.448623 0.325267
0.223853 0.428000 0.126736
0.257622 0.608857 -0.245390
0.195624 0.320152 0.371044
-0.373415 -0.505360 -0.138593
-0.046890 -0.691862 -0.289682
0.274492 -0.330520 -0.243616
-0.125858 0.934773 0.071025
-0.163023 0.550166 -0.283301
0.344299 -0.079498 -0.157782
-0.346382 0.004801 -0.253253
-0.126495 0.815245 0.113934
-0.307354 0.031782 -0.035946
0.061799 0.747310 0.166097
-0.194184 0.275986 0.185506
-0.321489 -0.696627 -0.253482
0.121276 0.774947 -0.280718
0.096607 0.674527 -0.283691
0.279511 -0.650913 -0.323179
-0.165626 0.109276 0.283655
-0.036495 0.709173 -0.283009
0.047118 -0.336834 -0.276631
-0.164110 0.292637 -0.294017
0.007234 0.728815 0.221996
0.034225 -0.677651 0.059250
-0.324909 -0.601160 0.122098
-0.213256 0.464075 -0.082562
0.355187 -0.503305 0.101411
0.183391 0.223698 0.265898
-0.022300 0.415925 0.407008
0.312927 -0.212723 0.107426
-0.153097 -0.154469 0.358848
-0.286938 0.229748 -0.102617
-0.189834 0.202815 0.127320
-0.016018 0.770623 0.142162
-0.233376 -0.687495 -0.068964
0.210352 0.887614 -0.124117
-0.189914 -0.117827 -0.294475
0.089094 0.725374 0.135755
-0.056821 0.099189 0.326057
-0.207101 0.796862 0.021475
0.350177 -0.135861 -0.130981
0.203013 -0.478208 -0.294574
0.359915 -0.559013 -0.120057
0.230682 0.620500 0.107189
0.260344 0.703146 -0.178918
-0.206159 0.643112 0.101013
0.353619 -0.642492 -0.078937
-0.342330 -0.571480 0.072433
-0.212040 0.736776 -0.021796
-0.332211 0.186768 -0.281883
-0.154769 0.943513 -0.256900
-0.220330 -0.585974 0.326305
-0.113841 -0.364337 -0.282959
0.355880 -0.239150 -0.189681
-0.377204 -0.372089 -0.069730
0.314065 -0.635059 -0.303922
0.353545 -0.192224 -0.110539
-0.081097 -0.271541 0.419135
-0.307333 -0.198891 -0.285440
0.282434 0.149142 -0.286436
0.357440 -0.330699 0.099913
-0.223504 0.840381 -0.195209
-0.327785 -0.444431 -0.218675
0.362410 -0.252890 -0.101005
-0.347670 -0.197629 -0.038854
0.344171 -0.058572 -0.137734
-0.208285 0.366783 -0.015498
-0.183026 0.930868 -0.011277
0.186541 0.501503 -0.272950
-0.196344 0.006701 0.287508
-0.311761 -0.246018 0.038075
0.267348 -0.277686 0.336214
0.239537 -0.571567 0.328209
-0.246403 -0.361967 0.333181
-0.056592 0.093180 -0.306082
-0.284808 -0.534625 0.275832
-0.294588 -0.687576 0.122931
-0.279818 -0.275569 0.248506
-0.202446 0.340105 -0.061465
0.164858 -0.209109 -0.284368
0.104676 0.459925 -0.286927
0.173749 0.144899 0.279449
-0.297237 0.037854 0.113640
0.012838 0.960377 -0.214857
-0.308132 -0.618827 -0.307414
0.359149 -0.530869 -0.121396
-0.356146 -0.194308 -0.065039
-0.248772 0.758371 -0.222824
-0.221980 0.170109 -0.303268
0.163033 -0.525749 -0.318079
-0.077076 -0.059287 0.366230
-0.342748 -0.019749 -0.272151
0.038288 0.829859 -0.281212
0.223162 0.772346 0.028661
-0.068637 0.513995 -0.289958
0.077802 0.385532 0.422226
-0.035705 -0.445044 -0.311400
-0.253031 -0.082783 0.255944
0.011688 0.958401 -0.027580
0.223975 -0.321814 0.379524
-0.025698 0.182889 -0.303067
-0.248519 0.203511 -0.302173
0.207338 -0.168993 0.352629
0.247709 0.049898 0.252083
0.065155 0.194372 -0.296998
-0.196498 0.509025 0.267484
-0.201165 -0.682321 0.193844
0.117222 0.960897 -0.039577
0.102025 0.628116 0.220171
0.218512 0.258874 -0.094920
-0.282342 0.265778 -0.248926
0.119390 -0.647567 0.390685
0.352113 -0.508699 -0.136347
0.047750 0.161346 0.308173
0.020856 0.726789 -0.283665
0.226512 0.737675 0.036888
0.220831 0.441475 -0.056000
-0.029316 0.053093 0.339543
-0.133744 -0.567414 0.398500
-0.030393 -0.676871 0.193039
0.255493 -0.692873 -0.172380
0.366386 -0.490271 -0.020414
-0.217215 -0.696087 -0.215964
-0.050098 -0.691341 0.176764
-0.024263 0.723559 0.217149
-0.305373 -0.146475 0.151312
-0.150121 0.427842 -0.283422
-0.367844 -0.386058 0.042031
-0.357952 -0.593845 -0.061631
0.001335 0.750274 -0.283191
-0.315586 -0.280157 0.076728
-0.246762 0.647678 -0.195380
0.184041 -0.677856 0.062098
0.185563 -0.125784 0.355589
0.206863 0.370416 -0.189170
0.174420 -0.686020 0.265344
-0.240144 -0.101453 0.275692
0.159250 0.315341 0.408413
0.150132 -0.036189 0.345151
0.149213 0.036909 0.325674
0.344712 -0.081560 -0.101599
-0.124708 -0.248862 -0.291422
0.143115 -0.693373 -0.235009
-0.075097 0.430142 -0.293186
-0.258847 0.062262 0.198648
-0.307634 0.067553 -0.014357
-0.143870 -0.696517 -0.225911
0.182455 -0.453168 -0.291540
0.224512 0.528921 -0.008742
-0.213469 0.684688 -0.088123
0.200183 0.301724 -0.256157
-0.313196 -0.695982 0.029625
0.229417 -0.685613 0.171035
-0.165957 -0.473778 0.396231
0.130406 0.835657 0.127563
-0.204522 0.270308 -0.133777
0.208453 0.578073 0.224642
-0.211405 0.023236 0.269930
-0.187782 0.538011 0.255380
0.313000 -0.691418 -0.134946
0.090878 0.939490 0.094939
-0.297619 -0.272615 0.192564
-0.198348 0.331464 0.277112
0.019326 -0.684001 -0.064728
-0.039814 -0.627434 0.418543
0.019822 -0.342960 -0.279718
-0.180860 0.926151 -0.249496
-0.370411 -0.299105 -0.082073
-0.256130 -0.511697 0.317010
0.144657 0.894056 -0.273522
-0.207315 0.401151 0.249860
-0.197494 0.243835 0.010381
0.211741 -0.672685 -0.050737
0.369437 -0.344942 -0.062679
-0.187271 0.173029 0.213894
-0.057356 0.442130 0.395261
0.248274 -0.686863 0.037511
-0.197907 0.556135 -0.281578
-0.200309 0.341016 -0.154731
-0.349751 -0.503763 -0.174779
0.328602 -0.422167 0.208437
-0.329620 -0.333858 0.178761
0.218902 0.370867 0.027392
-0.262176 0.138502 0.164925
-0.042990 -0.687383 0.219312
-0.059056 -0.696315 -0.324924
0.261989 0.683297 -0.158794
-0.119891 0.956584 -0.199660
0.252490 -0.683927 0.188089
0.323693 -0.207477 0.010183
-0.248255 0.218370 -0.008343
-0.185608 0.262162 0.217471
-0.253080 -0.386460 0.322369
-0.033598 0.743297 -0.281988
0.101013 0.489919 0.346921
-0.363709 -0.398039 0.068422
-0.180786 0.721954 0.089420
0.115181 -0.673705 0.378457
0.149754 0.210399 0.304427
-0.143620 0.765533 -0.275863
-0.262016 -0.609909 0.269127
-0.203441 0.345498 0.242961
-0.070279 -0.004831 -0.305867
0.304068 -0.213972 0.202372
0.364658 -0.313108 0.049026
-0.025928 0.236878 0.388244
0.155336 0.959099 -0.234572
-0.345093 -0.073134 -0.074149
-0.217809 0.753156 -0.154683
-0.213700 0.585610 0.077627
0.094873 -0.680002 -0.009659
0.135217 -0.655513 0.167138
0.027880 0.917532 -0.275667
-0.300457 -0.407416 0.241093
-0.210530 0.739088 0.009109
0.296828 0.178130 0.123174
-0.215193 0.533769 -0.054374
0.201404 0.784355 0.072275
0.055111 -0.202991 0.410917
-0.271742 -0.341284 -0.265666
0.137783 -0.120006 -0.293357
-0.290986 -0.223135 0.215287
0.190795 0.222482 0.238214
-0.017954 -0.546731 -0.336228
0.334201 -0.060737 -0.239649
0.340794 -0.121346 -0.216620
-0.093031 -0.618224 -0.350775
-0.129150 -0.067492 -0.298932
-0.053016 0.369101 -0.296282
0.187825 -0.312189 0.400598
0.334674 0.210529 -0.155995
0.116349 -0.545617 0.415147
-0.115267 0.217110 -0.303301
-0.085355 -0.678351 0.002317
-0.336382 0.015520 -0.069880
-0.203627 0.537251 0.226776
-0.132069 0.590276 0.244151
0.251797 0.803830 -0.228238
0.212867 0.285876 0.041276
-0.220562 -0.127504 -0.295706
-0.288851 -0.261459 0.224799
0.225641 -0.566858 0.354291
-0.324116 -0.184553 -0.022011
-0.209353 0.369481 0.015540
-0.191222 -0.283554 -0.280182
0.216928 0.355213 0.321781
0.248567 -0.169571 -0.276533
0.212701 0.873494 -0.094459
-0.318003 -0.003472 -0.293459
0.208204 0.302887 0.250833
-0.069876 0.059023 -0.306973
0.267019 -0.684013 0.010210
-0.197382 0.675406 0.117762
-0.196533 0.259257 -0.015735
-0.325851 -0.034376 -0.288654
0.367141 -0.384648 -0.153871
-0.293546 0.126603 0.094185
0.019112 0.489323 -0.290953
-0.375119 -0.428372 -0.174942
-0.064077 0.314636 0.429902
-0.281083 -0.205534 0.235702
-0.277995 -0.689012 0.082131
0.074705 -0.518821 0.432680
-0.116282 -0.278021 -0.285083
-0.203369 0.348569 -0.099527
0.191747 0.166767 -0.292551
0.234217 0.493079 -0.228868
0.024522 0.273179 0.430724
0.021745 0.851941 -0.281087
-0.156861 0.955100 -0.101372
0.062090 -0.682967 0.252443
-0.070312 -0.297098 0.429297
-0.307378 -0.276862 0.136920
0.233602 0.167758 0.228390
0.174320 -0.673129 0.094368
-0.106213 0.375953 -0.293736
-0.184392 -0.120406 0.330604
-0.357410 -0.126219 -0.225069
-0.237254 -0.637179 -0.336447
0.119570 -0.586264 0.402511
0.126957 -0.696486 -0.185598
-0.187375 -0.689999 -0.037840
-0.084416 -0.228611 0.407689
-0.254587 0.580222 -0.167129
0.099921 0.608165 0.249764
0.340369 -0.399995 -0.183686
0.128653 0.604810 -0.282318
-0.117751 0.172244 0.281470
0.283883 -0.515814 -0.273280
-0.031575 0.915534 -0.274166
-0.255654 -0.031193 0.234124
0.083654 0.095996 0.322840
-0.270241 0.022866 0.182574
-0.209948 0.421238 -0.133683
-0.133329 0.738160 -0.277512
-0.004098 -0.184861 -0.294875
0.001408 0.329029 0.438724
0.338981 0.098587 -0.095125
0.046363 0.078308 0.335069
0.310928 -0.023632 0.128732
0.009644 0.031313 -0.301633
0.060890 -0.693442 -0.325616
0.151540 -0.692175 -0.165859
0.215975 -0.112188 -0.284648
-0.270993 -0.513115 0.293480
-0.017588 -0.691513 -0.288614
-0.219227 0.775259 -0.269988
-0.354154 -0.115488 -0.149760
0.153661 0.959337 -0.030490
0.140767 -0.674475 0.340964
-0.348459 -0.462804 0.136558
0.188350 -0.685584 0.198384
0.179476 -0.257648 0.392660
-0.217567 0.656442 -0.124553
-0.154117 0.463431 0.337752
-0.249360 -0.153418 0.278571
-0.008643 0.720417 -0.283532
0.019456 0.800794 -0.282414
0.293513 0.192650 0.089891
-0.262680 0.099866 0.178713
-0.227233 0.828712 -0.170252
-0.210689 0.479397 0.153798
0.174814 -0.674258 -0.022271
-0.107949 0.870387 0.136742
-0.054199 0.646297 0.293284
-0.356231 -0.678392 -0.110636
0.086301 0.169314 0.302656
0.116056 0.905226 -0.274720
-0.021951 0.954946 0.008089
0.154044 -0.000719 -0.293452
0.306298 -0.105799 0.026273
0.043861 0.227974 -0.296423
-0.210039 -0.686220 -0.098533
-0.185872 0.942437 -0.047415
-0.338291 0.190663 -0.250983
-0.230797 0.533756 -0.121419
-0.307292 -0.035088 -0.018460
0.341852 -0.615056 -0.266783
-0.307684 0.106923 -0.006864
0.368116 -0.324744 -0.087383
0.005285 -0.685717 0.349343
-0.084695 0.549327 0.375788
-0.051939 0.638218 0.325663
-0.311135 -0.137376 0.015363
-0.185142 0.149205 0.254056
0.203006 -0.606445 -0.330908
0.069316 -0.689458 0.070750
0.167995 0.563377 0.332100
-0.261681 -0.368994 -0.260408
-0.187834 0.448426 -0.249813
0.064386 0.498772 -0.288770
-0.150362 0.715006 0.108146
-0.124390 0.459672 0.358632
0.276946 0.027729 0.221865
0.114658 0.182927 -0.294285
0.147977 -0.232390 -0.282629
0.061560 0.211386 0.354293
0.293351 0.233242 -0.075874
0.125845 0.611153 0.234000
0.072919 0.480103 0.357408
0.264500 -0.399345 -0.227539
-0.343259 0.033287 -0.259671
0.351848 -0.161996 -0.075604
-0.207855 0.354893 0.048102
-0.270222 -0.009756 0.193929
0.262530 -0.216227 0.323954
0.081274 -0.690477 0.228376
-0.193068 0.456706 0.303320
-0.008628 -0.345647 -0.283398
-0.058922 -0.686867 -0.260019
-0.099026 0.585455 -0.285433
-0.141301 -0.363119 -0.274655
0.338921 0.063827 -0.143818
0.341201 -0.016741 -0.104980
-0.329882 0.203703 -0.141634
0.227811 -0.531109 0.359611
-0.169235 -0.692517 -0.088596
0.215601 0.805089 -0.271953
0.250326 0.688188 -0.253223
0.216032 0.597967 0.201478
-0.342040 0.076318 -0.230351
-0.127558 0.953222 -0.025282
0.211956 0.353321 -0.125770
-0.355139 -0.133261 -0.122874
-0.186010 0.947443 -0.202251
-0.349174 -0.083444 -0.099368
0.243868 -0.188046 0.328511
-0.128247 -0.189674 -0.296918
-0.268598 -0.638612 -0.327282
0.276933 0.095280 0.198068
0.059927 0.636421 0.378818
0.260770 0.665141 -0.183285
0.341024 -0.051735 -0.182656
-0.016811 -0.314753 -0.282655
0.254283 0.804873 -0.196143
0.079480 -0.245485 0.421667
-0.301230 -0.215692 0.180420
0.239090 0.284661 -0.281237
0.213168 0.337986 -0.100922
-0.309732 -0.061456 -0.000941
0.183296 -0.673319 0.121225
-0.151850 0.514526 0.306586
0.030052 0.310932 0.438881
-0.201395 0.319321 -0.085136
0.037503 0.961452 -0.175068
0.230445 0.562091 0.140424
0.197000 0.034333 0.303269
0.312807 -0.076442 0.088141
-0.179673 0.578986 -0.281661
0.244379 -0.289622 -0.258876
0.373489 -0.428785 -0.089065
-0.215747 0.589944 -0.109308
0.012811 -0.684010 0.157996
0.222144 0.206322 0.112897
0.090722 -0.006196 -0.297567
0.064351 -0.680918 0.042547
0.311601 -0.138583 0.081807
-0.062842 0.677374 0.200074
0.311737 0.142877 -0.005313
-0.356153 -0.662582 -0.063513
-0.256291 0.659074 -0.263733
0.245819 0.215383 0.047620
0.011430 0.114706 -0.302225
-0.335088 -0.502724 0.166188
0.293993 -0.685780 0.018011
0.062378 -0.696318 -0.290192
0.011263 0.775171 0.143260
0.222877 0.460857 -0.034171
0.320790 -0.626871 0.082089
0.037693 0.130595 0.318197
-0.313778 -0.253684 0.067606
-0.342898 -0.020142 -0.092228
-0.097516 0.531950 -0.286775
-0.070485 -0.676896 0.159588
-0.209538 0.287196 -0.223918
0.336690 0.158964 -0.083988
0.227220 0.252097 -0.286777
0.023670 -0.144175 -0.296371
0.103368 0.749654 -0.282227
0.310220 0.205159 -0.004360
-0.252416 -0.182091 -0.291860
0.229022 0.690635 -0.003374
0.166622 -0.228268 0.392271
0.290424 -0.432501 0.300014
0.234878 -0.683509 0.138163
-0.253705 -0.248401 0.300394
0.364200 -0.481982 0.079742
-0.353998 -0.553514 -0.133276
0.213972 -0.059566 -0.287612
-0.302755 -0.353611 0.250812
0.101031 0.229244 0.360306
-0.300513 -0.024107 0.122908
-0.246501 -0.248918 -0.283486
-0.345932 -0.379757 -0.222929
-0.374796 -0.341753 -0.066751
0.176309 -0.680013 0.006024
-0.334128 0.049882 -0.283182
-0.318505 -0.067543 -0.035664
-0.099168 0.708269 0.130761
0.280279 -0.008106 -0.279034
0.332136 -0.658868 -0.289267
0.005403 0.899759 0.156714
0.062131 0.960361 -0.157670
-0.024340 0.957861 -0.230389
0.224495 0.482917 -0.010362
-0.043198 -0.705895 -0.175354
-0.209397 -0.674166 0.311580
0.116013 -0.685495 0.320253
0.073614 0.839219 -0.279874
0.223971 0.462473 0.278659
-0.151048 0.598218 0.224920
-0.055364 -0.378200 0.425200
-0.250493 0.779705 -0.241916
-0.313678 -0.530135 0.214536
-0.279794 -0.697043 -0.243800
0.207339 0.304932 0.279267
0.180429 -0.289577 -0.268092
0.206518 0.683066 -0.276812
0.023777 -0.068702 -0.300482
0.252415 0.668825 -0.228758
0.211473 0.104684 0.268175
-0.042982 -0.163018 -0.298058
-0.214380 -0.697733 -0.284624
-0.306442 0.105924 0.042609
-0.048341 0.668175 0.269815
0.063058 -0.681202 0.178124
0.077561 0.634864 0.334308
0.227400 0.485573 0.111297
0.007862 -0.091679 -0.300325
0.135304 -0.686365 -0.017722
-0.269830 -0.687902 0.137801
0.086122 -0.682947 0.122903
0.361456 -0.258595 -0.133963
-0.207085 0.391823 -0.134476
0.170916 -0.685045 0.233334
-0.361438 -0.339398 0.054275
0.359389 -0.266210 -0.184304
0.363349 -0.449649 0.095563
-0.199132 0.259169 -0.296768
-0.312795 -0.226453 0.087560
0.139759 0.522632 0.355680
-0.166565 0.933770 0.018857
-0.344674 0.041244 -0.179796
0.185392 -0.095305 0.348255
-0.119501 -0.499477 0.417513
-0.215996 0.558538 -0.030999
-0.149235 -0.151502 -0.295200
0.038262 0.891343 0.160716
0.089263 -0.579054 0.427529
-0.197878 -0.686037 0.278679
0.049068 -0.358301 0.427812
0.217212 0.353317 0.121203
0.368006 -0.332282 -0.114276
-0.158184 -0.056673 -0.299068
0.209576 -0.547377 0.374012
0.208389 0.865686 0.027970
-0.319190 0.137172 -0.073478
0.225583 -0.685411 -0.084290
0.344891 -0.141535 -0.194120
-0.221361 -0.685458 0.164788
0.210433 -0.638236 0.311993
-0.243877 -0.490062 0.332442
0.311450 -0.259945 0.143414
-0.046757 0.955396 -0.127440
0.152032 0.176972 0.277997
-0.201756 0.838503 0.033568
0.152468 0.577230 0.268574
0.273405 -0.008237 0.242749
0.225497 0.655747 -0.048722
-0.257870 0.588485 -0.236184
0.312281 -0.517217 0.220668
-0.149423 0.410654 0.364322
-0.077116 -0.684349 0.028006
0.159639 -0.682585 0.317741
-0.333376 0.062588 -0.077562
0.226088 0.184965 -0.289956
-0.129868 0.705524 0.126672
-0.021886 -0.429696 0.436246
-0.267457 -0.206686 0.266236
-0.361720 -0.294948 -0.052326
0.313154 0.008188 0.053397
-0.213859 -0.688609 -0.335494
-0.154112 0.686279 0.133546
-0.078904 -0.282059 -0.285840
0.338441 0.097995 -0.169472
0.137003 0.407169 0.392492
0.264099 0.231105 -0.034508
-0.282207 0.132078 0.122756
-0.199983 0.916566 -0.156032
-0.199928 0.923761 -0.097330
-0.252876 0.678530 -0.161457
-0.160405 -0.230573 -0.289061
-0.300271 0.064394 0.090487
-0.023696 -0.381231 -0.293420
-0.064346 0.651334 0.232412
-0.148571 0.954770 -0.183651
0.212291 -0.590803 0.345098
0.211949 0.280667 0.013869
-0.150447 0.840288 -0.273448
0.163776 0.517528 -0.281208
0.088568 0.961392 -0.137441
0.003413 0.960728 -0.188407
0.219609 0.385915 0.114725
0.091906 -0.548225 0.429369
0.283402 -0.362538 -0.228174
-0.378959 -0.413406 -0.117700
-0.152062 0.177194 -0.304725
0.293208 -0.678068 -0.310801
-0.106618 0.528899 0.363376
-0.197528 0.292373 -0.101928
0.189459 -0.426621 0.399649
0.006819 -0.227726 -0.290453
-0.213163 0.462958 0.058454
-0.366295 -0.446606 0.061776
-0.179600 -0.697914 -0.300225
-0.355359 -0.223264 -0.046827
0.167494 0.631464 0.197671
0.287829 -0.225904 -0.259440
-0.052660 0.682549 0.226941
0.197114 -0.545881 -0.317587
0.018579 -0.685492 -0.034602
-0.335757 -0.186975 -0.273747
0.217682 0.400039 -0.069502
0.340515 0.158517 -0.129090
0.014698 0.888516 -0.277926
0.075785 -0.684317 -0.049879
-0.214532 0.444481 0.036695
-0.214269 0.552484 0.075232
-0.185699 -0.451759 0.386687
-0.057641 0.872950 0.155866
-0.097037 -0.684283 -0.029719
-0.202017 -0.692100 -0.008208
-0.172601 -0.684508 0.262988
0.203707 0.302058 0.308717
-0.086817 0.036394 -0.306231
-0.047899 -0.676920 0.112723
-0.317439 -0.636940 0.148757
0.225720 0.757498 -0.006393
0.293776 -0.115706 0.221731
0.193680 -0.492420 0.394251
0.147125 -0.064033 0.353942
-0.242922 0.521410 -0.272335
0.069246 0.959192 -0.059401
0.054875 -0.687536 0.107541
0.163259 0.253717 0.346680
0.242597 0.498170 -0.150032
-0.259267 -0.669726 0.253099
-0.280486 -0.697278 -0.194813
-0.256991 0.505065 -0.218810
-0.225400 -0.282817 -0.279140
-0.234007 -0.685236 0.043273
-0.150056 0.545569 0.301898
0.313841 -0.686249 -0.294243
-0.222044 -0.685893 0.261782
-0.308253 0.075616 0.020401
0.207761 -0.681787 -0.332930
-0.213104 -0.489071 0.362783
-0.105817 -0.505328 -0.327607
-0.049484 0.225443 -0.301578
-0.348274 -0.636366 0.018544
-0.269293 -0.231889 -0.284978
-0.147466 -0.265713 -0.284262
-0.308452 -0.652412 0.171980
0.312373 -0.083365 -0.262224
0.215239 0.320576 0.108331
0.244144 -0.678866 0.221912
-0.229312 0.842829 -0.225958
0.037535 0.649405 -0.285345
-0.209292 0.838225 -0.146166
-0.037480 0.165804 0.308408
0.224670 -0.646081 0.289180
-0.357637 -0.134659 -0.170461
0.112714 -0.040421 -0.295313
-0.228917 0.209156 0.036229
0.317334 0.192965 -0.276928
0.016398 0.948896 0.103021
0.118708 0.920719 0.095226
-0.142891 0.694360 -0.278126
-0.242857 0.183162 0.113259
0.065998 0.291675 -0.293267
-0.320990 -0.406228 -0.232506
-0.162137 0.520748 -0.283715
-0.048466 -0.680132 -0.210721
0.336734 0.174940 -0.169564
-0.010060 -0.176992 0.407094
-0.305300 -0.057553 -0.294937
0.217173 0.344777 0.083389
-0.045703 0.335937 0.431448
-0.311828 -0.160204 -0.009872
-0.350648 -0.649316 -0.260066
0.043873 -0.019253 0.361224
0.215635 0.809456 -0.112750
0.202913 0.936064 -0.078743
-0.148310 -0.395320 0.410517
-0.088985 0.230780 -0.303223
0.353760 -0.611830 -0.236385
0.231297 -0.438571 0.365478
-0.212899 0.523581 -0.277916
-0.224212 -0.687618 -0.123053
-0.358119 -0.545289 0.067190
0.266690 -0.471426 -0.262889
0.255610 0.613458 -0.130784
0.020090 -0.116296 -0.297492
-0.118574 -0.236592 0.397251
-0.153676 0.017437 0.315402
-0.208271 0.851213 -0.035055
-0.245528 -0.457394 -0.280628
-0.220249 0.127959 0.228405
-0.212046 0.414747 0.065645
0.201769 0.644413 -0.276852
-0.167059 -0.433265 -0.295382
-0.378402 -0.480918 -0.019189
0.329394 -0.171100 -0.245115
-0.075459 -0.645040 -0.354995
0.197346 0.750370 -0.274453
-0.340617 -0.599385 0.063479
-0.230364 -0.509305 0.349984
-0.198813 -0.599532 -0.341667
-0.211635 0.458041 0.123039
-0.344096 -0.407276 -0.214469
0.356631 -0.210009 -0.139023
-0.323151 -0.483346 -0.240426
-0.243410 -0.584472 -0.323026
-0.193477 -0.685782 0.244300
0.332658 0.221496 -0.184290
-0.365641 -0.363613 -0.210177
-0.021336 0.909830 0.144432
0.096551 0.602837 0.286369
-0.375756 -0.384880 -0.157141
0.114537 -0.693895 -0.119294
0.261135 -0.497370 -0.275319
-0.018126 0.956057 -0.104110
0.012595 0.227071 -0.298083
0.112888 0.251394 -0.292941
0.355694 -0.233225 -0.036097
-0.068974 0.933081 0.108755
0.229415 0.493501 -0.123582
-0.232557 -0.552612 -0.318157
-0.187233 -0.256074 -0.284802
0.278501 -0.177779 0.283737
0.260426 -0.263606 -0.262532
0.310571 -0.593381 0.124856
0.358972 -0.545082 -0.147050
0.341737 -0.010972 -0.152206
0.221770 -0.506289 0.370727
-0.180293 0.500497 -0.277503
0.235102 -0.693379 -0.279158
-0.184823 -0.676310 -0.347592
-0.187056 -0.683607 0.125873
-0.024879 0.866900 0.163416
0.210084 0.288414 -0.066857
0.317553 -0.321440 0.221170
0.054447 0.336383 0.436041
0.210542 0.855922 -0.156123
-0.213722 0.687237 -0.121218
-0.045897 0.776424 -0.281779
