0.140085 0.755096 0.104823
-0.166228 0.616137 0.217636
-0.319432 0.044959 0.635612
0.678593 -0.262400 -0.059010
-0.213512 -0.396595 0.389895
-0.421706 -0.412348 0.165948
-0.214682 -0.737209 0.048112
-0.689351 0.131947 -0.178704
-0.091609 -0.016107 0.892288
-0.312580 -0.416087 0.271335
0.547432 -0.367038 -0.085533
-0.015901 -0.745985 0.238116
0.277282 -0.143287 -0.579433
-0.321779 0.599328 0.078896
0.084685 0.729115 0.186204
0.593091 -0.176968 0.229941
0.201547 -0.415983 0.382472
0.620976 0.159571 0.219454
0.421546 -0.242425 -0.336032
0.382163 -0.194619 -0.423220
0.272878 0.342684 0.384440
-0.813140 0.041478 0.145385
-0.459513 -0.091843 0.448647
-0.278933 -0.200617 0.520451
-0.225791 -0.262271 0.511939
0.308450 -0.007395 0.684159
-0.321423 0.359572 -0.319009
0.208583 -0.443017 0.348402
0.325732 0.432665 0.241606
-0.628094 -0.039873 0.332035
-0.565583 -0.175945 0.258473
-0.440029 -0.320686 0.239287
0.475863 0.144819 0.379321
-0.272217 -0.227855 0.499930
-0.024917 0.439138 -0.535948
0.554083 0.371349 -0.074571
-0.064271 0.653552 -0.282180
-0.545093 0.396058 -0.058851
0.482589 0.358977 0.158437
-0.228863 0.653980 0.117160
-0.020977 -0.774102 0.204920
0.042704 0.906868 -0.050431
-0.095128 0.362908 -0.541968
0.463777 -0.374063 0.162162
-0.345469 0.019093 -0.635441
0.334418 -0.371153 0.294432
-0.207834 -0.160792 -0.631376
-0.894026 -0.059629 0.046348
-0.054508 0.527742 0.417752
0.029777 0.959470 -0.010757
-0.145229 0.725031 -0.129745
0.526311 0.052479 0.421212
0.641914 -0.230523 -0.127565
-0.090732 -0.230445 0.678826
0.117780 0.175648 0.706578
0.083095 -0.049685 -0.867224
0.756171 0.064342 0.179489
-0.515552 0.213255 0.271195
0.076750 0.152743 0.770508
0.843892 -0.065831 -0.090278
0.149830 0.815378 0.034795
-0.191759 -0.338300 0.469943
0.079752 0.859643 -0.060608
0.292335 0.153584 0.554083
-0.224927 -0.621486 0.153588
0.194578 -0.567339 -0.238084
0.299814 -0.640098 -0.060090
0.093005 -0.785114 0.121883
0.223339 0.105559 -0.671105
0.296476 -0.553533 0.149993
-0.279219 0.137333 0.583451
-0.008814 0.604926 -0.386262
0.007423 0.787870 0.204708
0.680822 0.168993 -0.150187
0.099777 -0.047676 0.852549
-0.147322 -0.765661 0.087018
-0.476952 -0.033103 0.489947
-0.084763 0.412909 -0.502331
-0.464371 0.399762 -0.135871
-0.262772 0.573344 0.163886
-0.933116 0.033279 0.033610
-0.385406 -0.612257 -0.002339
-0.806093 0.170701 -0.023208
-0.676288 -0.173558 0.150156
-0.664564 0.130087 0.205352
-0.415757 0.351016 0.233229
-0.520419 -0.059439 0.420144
0.410122 -0.422750 0.167130
-0.536894 -0.196098 0.267010
0.530618 -0.293819 -0.175566
0.150508 -0.336973 0.512521
0.112145 -0.552149 0.335709
-0.629259 0.051367 -0.319375
-0.040697 0.479473 -0.479833
0.153168 0.349743 -0.497091
0.710687 -0.250611 -0.038707
-0.606437 -0.355603 0.037962
0.268498 0.044036 0.687468
0.143974 0.071492 0.784534
-0.197390 -0.287769 0.514843
0.156166 -0.493341 0.350495
-0.025450 0.949537 0.025018
-0.483811 0.357674 -0.158517
-0.520744 0.441014 0.038244
-0.560353 0.397913 0.041737
-0.429380 -0.418221 -0.152401
0.059301 -0.218262 -0.722442
0.492766 -0.152445 -0.354791
-0.185193 0.108689 -0.706123
-0.048733 -0.738117 0.213153
0.496133 0.271273 0.232595
0.313461 -0.660984 -0.025558
0.376523 -0.446469 -0.177010
0.149644 -0.312276 0.538082
0.355610 0.261935 0.382458
0.142105 0.349231 0.508666
-0.040823 -0.279888 -0.679292
-0.237585 0.454583 0.307833
0.347537 0.152775 0.499690
0.089218 0.116704 0.794080
0.361076 0.539016 0.099910
-0.079118 -0.362443 -0.558442
0.873680 -0.079486 0.046839
0.230948 -0.509494 0.259559
-0.396556 -0.395064 -0.208382
0.646687 -0.243669 0.109647
0.203366 -0.360050 0.436586
-0.890920 0.020352 0.088732
0.075132 0.888716 -0.036156
0.079100 -0.728825 0.192079
0.085889 -0.428983 0.485131
0.617425 -0.261855 0.120722
-0.232610 0.253629 0.513762
-0.453634 -0.162941 0.383426
0.074622 0.193654 -0.731728
-0.599456 -0.210386 -0.190159
-0.330090 0.406485 -0.263428
0.090693 -0.008099 0.901211
-0.243281 0.382164 -0.374557
0.366699 -0.295372 0.337932
-0.092557 -0.721976 0.185473
0.697779 -0.234026 -0.068198
-0.928753 -0.056301 -0.014951
0.238466 0.430652 -0.330884
0.012651 -0.986883 -0.000468
-0.475660 -0.498477 -0.025865
0.120261 -0.790560 0.089181
0.506269 0.492352 -0.001381
0.029430 0.813454 -0.157119
-0.082320 0.826134 0.091549
-0.193932 0.142361 0.663710
0.281062 -0.121091 0.597850
-0.079998 -0.441326 0.478678
0.546095 -0.403058 -0.050849
0.527741 -0.023339 0.448922
-0.213257 0.189070 0.597674
0.003645 -0.085784 0.910575
0.449454 0.167603 0.382945
0.000643 0.022809 -0.976550
0.315258 -0.524875 0.159869
0.443360 0.555757 0.000885
-0.279174 0.399232 -0.321597
-0.242252 0.597910 -0.159838
-0.317801 -0.353987 0.328215
0.825061 0.111379 0.063563
0.185862 0.017460 -0.796679
-0.309476 0.531121 -0.159405
-0.067984 0.791295 0.140722
-0.800056 0.196783 0.003162
0.265587 0.128176 -0.606239
0.148620 -0.643941 -0.207441
-0.255306 0.521046 0.223650
-0.049423 0.889005 0.061576
0.396234 -0.068603 -0.535165
0.557934 0.028312 0.413756
0.004922 0.756588 0.238491
0.879891 0.082059 -0.038055
-0.154952 0.363345 -0.481704
-0.195659 -0.018998 0.785342
-0.551300 -0.155829 0.292873
-0.597450 -0.285596 -0.116957
0.761142 0.216523 -0.022336
0.649755 0.041606 0.308641
-0.327246 -0.437741 0.235016
-0.021192 -0.714442 -0.264371
0.029343 -0.398274 0.572386
0.117837 0.459021 0.423145
0.231785 0.580056 0.188160
0.040924 -0.082471 0.876609
-0.157660 0.663973 -0.178369
-0.201607 0.392459 0.405936
0.039777 0.645189 0.315037
-0.533920 -0.077007 0.389075
-0.493127 0.376601 -0.130275
0.317025 -0.005231 -0.677747
-0.351293 -0.588976 -0.059733
0.442302 0.267132 -0.290569
-0.823488 -0.089882 -0.086633
-0.160159 -0.163745 0.676098
-0.451891 0.371546 -0.176566
-0.124144 -0.485651 0.390208
0.398141 0.262408 -0.339453
-0.674603 0.272172 0.053228
0.438645 0.153458 -0.407899
0.114812 -0.012571 0.872622
0.878207 -0.040920 -0.080877
-0.744071 0.085237 0.170695
0.086844 0.473315 -0.439843
0.111260 -0.480267 -0.408476
-0.861739 0.042213 0.096051
-0.258796 -0.025319 -0.715890
0.082334 0.517726 0.399943
0.175723 -0.003081 0.821198
0.576630 -0.064458 -0.358914
0.358885 0.493761 -0.147356
-0.282624 -0.015240 0.702140
0.297455 0.434606 0.267942
-0.617895 -0.302723 -0.079385
-0.254510 -0.199934 0.545557
0.182166 0.221091 -0.596744
0.084618 0.359326 0.556059
-0.202242 0.561821 0.235938
-0.026468 0.546560 0.426974
-0.042596 0.705132 0.252275
-0.441974 0.557875 0.000153
0.780942 -0.179826 -0.039231
0.058064 0.274592 0.667347
0.808264 0.052386 0.139353
-0.204472 -0.455033 0.340497
0.438588 0.349028 0.212386
0.464130 0.112606 -0.423268
0.001718 0.889490 0.108796
0.609563 0.215135 -0.175303
-0.347081 0.594652 -0.058268
0.036146 0.141548 0.822308
-0.557405 -0.331148 0.111449
0.683421 0.147200 0.169382
0.620092 -0.259452 -0.120458
-0.020184 0.149714 -0.830104
0.043316 0.039707 -0.916981
0.130337 0.030595 -0.839069
0.631354 -0.206981 0.161666
-0.123637 0.558909 0.317457
-0.519549 0.043463 0.436989
-0.076276 0.586880 0.336847
0.691190 0.022902 0.285911
-0.485912 -0.064334 -0.449756
-0.609271 -0.043806 -0.346925
-0.240170 0.514033 -0.245798
0.575724 -0.348639 -0.075639
0.836789 0.127752 0.035460
0.615525 -0.234613 -0.149863
-0.343982 -0.451089 0.204931
-0.370450 0.330551 -0.299002
0.659318 -0.016299 -0.324386
-0.174666 -0.320236 0.505100
-0.592121 -0.328457 -0.079425
-0.241706 0.239285 -0.519009
0.705421 0.051193 -0.243389
0.059258 0.834938 0.105805
-0.506551 -0.096134 0.397319
-0.563883 -0.302723 0.133397
-0.125205 0.702187 -0.172613
0.830557 -0.078683 0.090763
0.269680 -0.578796 0.151526
-0.108961 0.220692 -0.670350
0.681209 0.039640 -0.279153
-0.205825 -0.011886 -0.782288
0.613872 0.208032 0.178097
-0.158651 0.562011 0.279339
-0.567744 -0.247158 -0.185099
-0.292401 0.327872 0.379730
-0.199688 0.618760 0.181553
-0.460557 0.269149 -0.270296
-0.294355 -0.480021 0.225627
0.519523 -0.479847 -0.000633
-0.057173 0.906607 -0.036222
0.761428 -0.126730 0.111845
0.577163 0.226127 -0.196711
0.653023 -0.194485 -0.152494
0.679618 -0.320334 -0.000052
0.494495 0.392403 0.113106
-0.382502 0.302115 -0.315386
0.011341 0.917442 0.071220
0.342504 0.385426 -0.272072
-0.194934 -0.069408 0.735662
-0.053627 -0.700928 0.245449
-0.096092 -0.304896 -0.599016
-0.349202 0.092471 0.558330
0.178148 0.592378 -0.229476
0.307180 0.253925 -0.438897
-0.193970 0.202584 -0.603446
-0.415426 0.579102 -0.005474
-0.228951 0.630611 -0.140440
0.416982 0.200618 0.382402
-0.461255 -0.164171 -0.374577
-0.078742 -0.322968 0.598293
0.140869 0.329980 -0.529154
0.306119 -0.468301 -0.225582
0.335614 0.358010 0.306379
0.031706 0.427620 -0.540676
-0.052686 0.133922 0.813396
-0.084206 0.713523 0.202276
-0.792163 -0.101540 0.106299
0.162607 0.319488 0.517907
0.292247 -0.039364 -0.668391
-0.001712 0.307988 0.690303
-0.464187 0.270820 0.264995
-0.046256 0.735020 -0.218727
-0.516627 0.070801 -0.412574
-0.222158 -0.757167 0.020676
-0.185447 -0.743269 0.071287
-0.700720 -0.181579 0.117705
0.488844 0.317263 -0.193895
-0.208302 0.220438 -0.571261
0.118178 0.821432 -0.060393
0.755960 -0.019234 0.224808
-0.161282 -0.700526 -0.138196
-0.276785 -0.547369 0.175847
-0.348878 -0.618177 -0.032947
-0.197990 -0.311688 -0.490324
0.798053 0.143347 0.058602
-0.285543 -0.077431 -0.637029
0.047511 0.581880 -0.370611
-0.300538 0.585609 -0.113856
0.645381 0.199777 0.154844
0.257017 0.382564 -0.360422
-0.099164 0.757415 0.143424
0.093401 0.770689 -0.135911
-0.664032 -0.018874 0.317097
0.122668 -0.869951 0.007385
0.208306 -0.620535 -0.171161
0.011288 -0.912133 -0.076582
0.139909 -0.523102 0.336992
-0.519000 -0.429238 -0.051764
0.108056 0.880849 -0.011099
-0.019871 0.739477 -0.240655
-0.212248 -0.476066 -0.311688
-0.285413 -0.422100 0.292490
0.902347 -0.066274 -0.031382
-0.700166 0.275989 0.023849
-0.549107 0.369783 -0.081113
0.039149 -0.784642 -0.176209
0.075189 0.482028 0.442786
0.307183 -0.127007 -0.565813
0.055687 0.074880 0.869437
0.342286 -0.254593 0.403124
0.589885 -0.243341 0.166774
0.056352 0.373420 0.570231
-0.224245 0.054410 0.721350
-0.286070 -0.242480 0.471452
-0.628046 -0.086421 0.285536
-0.423712 0.382805 -0.193484
-0.481035 0.229537 0.289430
-0.567973 -0.326103 -0.105927
-0.002458 -0.289077 0.708469
0.089064 0.397773 -0.513165
0.652836 -0.060739 0.286428
0.204345 0.241082 -0.554573
-0.422891 -0.170940 -0.406170
0.124602 0.118461 -0.756940
0.037271 -0.193105 0.769625
0.739477 0.050444 0.210082
0.500538 0.287020 -0.212444
0.838370 -0.048001 0.113631
0.343984 0.077509 -0.578510
-0.039163 -0.150720 0.810120
-0.753677 -0.151152 -0.095173
-0.133989 0.642165 0.223848
0.201452 0.266678 0.531872
-0.223431 -0.056094 0.720479
-0.077136 -0.232277 -0.690590
0.454995 0.286798 0.258209
-0.395144 0.096656 -0.508203
0.036792 -0.704004 -0.259208
0.266322 0.097126 -0.636555
-0.230598 0.580638 -0.188765
0.286057 0.442086 -0.271860
-0.155859 0.123366 0.720781
0.549885 -0.075592 0.374525
-0.638360 0.241746 0.119896
0.094206 -0.620880 0.284917
0.167969 -0.117874 0.714162
-0.387946 -0.483110 0.128948
-0.589722 0.155598 0.254682
-0.198165 0.773382 0.028453
-0.371529 -0.262496 0.365977
0.058887 -0.655668 0.285448
-0.677702 -0.120686 0.201616
0.207759 0.569901 0.222341
-0.219534 -0.746288 -0.034180
0.001601 0.136431 -0.861971
-0.012636 0.256141 -0.731227
0.514952 0.174234 -0.310816
0.651388 -0.347085 -0.001530
0.263606 -0.057024 -0.679372
0.069021 -0.068891 0.862091
-0.305348 0.079263 0.615392
0.069907 0.158348 -0.771746
-0.731303 0.010634 0.258067
-0.559557 0.046109 0.394336
0.239660 0.124491 -0.635851
0.588763 -0.274477 0.136762
-0.395594 0.550526 -0.053882
-0.340161 -0.326907 -0.332935
0.325153 0.130868 -0.543981
-0.095613 0.713058 -0.191334
0.024074 0.574618 -0.401310
-0.328526 0.294417 -0.377060
-0.033875 0.105734 0.860394
-0.012517 -0.260797 0.726690
-0.123682 0.372396 0.503925
0.468839 -0.000875 -0.530288
0.547503 0.188121 0.264378
-0.356312 0.360416 0.283275
-0.202444 -0.714589 0.082972
-0.106516 -0.371942 -0.521545
-0.479378 0.487570 -0.033054
0.517550 -0.096162 0.386291
0.526070 -0.237911 0.236020
-0.547245 -0.274732 -0.178025
-0.130056 0.272343 0.597604
0.318861 -0.281631 0.399511
-0.267793 -0.347261 0.384948
0.274230 0.634147 0.091626
-0.687388 -0.310328 0.002287
-0.283008 -0.673789 0.043206
-0.159629 0.159483 0.680890
-0.510724 -0.364542 -0.124738
0.120142 0.319927 -0.559934
-0.452168 -0.137462 0.410372
0.184573 -0.539670 -0.275758
0.258601 -0.561880 0.179521
-0.148339 0.785384 -0.066277
-0.606416 0.254056 0.139530
-0.152450 0.433848 0.413704
-0.496751 0.185174 0.318077
-0.208759 -0.481734 0.309509
-0.194354 0.017573 0.788073
0.389280 0.395581 0.215141
-0.642386 -0.215547 -0.142069
-0.664199 0.015789 0.320015
-0.185693 -0.508909 0.305400
0.060804 0.497912 -0.441286
-0.297425 -0.403728 -0.298850
0.155672 -0.057941 -0.786387
0.889362 -0.095151 -0.015491
0.175379 0.436692 0.387931
0.527697 -0.067408 0.404898
-0.191403 -0.156712 0.651887
-0.108560 -0.624605 -0.266838
-0.630692 -0.195224 -0.174085
-0.476331 -0.197165 -0.326506
0.500160 0.119814 0.380029
-0.275705 -0.334088 -0.390210
-0.340287 -0.306589 0.353127
0.041364 0.060942 0.897696
0.111843 -0.299108 -0.589052
0.625294 -0.347849 0.026859
0.296384 -0.581049 -0.122570
0.316232 0.209230 0.474539
0.042589 -0.479739 0.477673
-0.150552 0.132129 -0.717325
0.327099 0.269927 0.402977
0.392527 -0.560563 -0.046912
0.100998 -0.427885 -0.471121
0.357808 -0.186468 -0.455726
-0.130227 -0.868258 -0.001519
0.403015 0.491046 -0.105942
-0.297779 0.344364 -0.357861
0.705481 0.076747 0.217776
-0.425658 -0.475420 -0.098925
-0.451437 -0.492369 0.056196
-0.122469 0.039136 0.838396
-0.041721 -0.002525 0.955759
0.201328 0.040523 0.758150
0.422026 0.168861 0.409115
-0.192862 0.030789 -0.776349
0.159506 -0.688770 -0.151726
0.332520 -0.435963 0.231519
0.145802 0.500496 0.353704
-0.524025 -0.270789 0.205188
-0.178444 0.325411 -0.496147
0.174801 0.317240 -0.507961
0.318243 0.052302 -0.629457
-0.375136 0.578141 -0.046725
0.262947 -0.359065 0.377990
-0.399280 0.438693 -0.162030
-0.745026 -0.047082 0.207895
-0.274564 -0.317435 0.408004
-0.299949 -0.333699 0.366355
-0.409104 -0.304595 -0.286304
-0.042245 -0.122765 0.834992
-0.175719 -0.547022 0.277261
-0.465601 0.341789 0.192613
-0.538643 0.297495 -0.163864
0.108813 0.682783 0.208407
0.322303 -0.210775 -0.466924
0.252113 0.020136 0.727755
0.718291 -0.130494 -0.151221
0.037928 0.837400 -0.124674
-0.220756 0.561144 -0.218100
0.281627 -0.403179 -0.315197
-0.137029 0.196537 -0.666437
0.119244 0.201625 0.679134
0.728473 0.083702 0.187830
-0.313495 -0.512440 0.174067
-0.259715 0.343622 0.396665
0.223571 -0.151437 -0.624994
0.810984 -0.176759 -0.012261
0.295864 0.515374 0.188765
-0.157951 0.202649 -0.639402
-0.102078 -0.173466 -0.724461
-0.379088 -0.308767 0.312148
-0.389631 -0.137939 0.472433
-0.181897 -0.497571 -0.320534
0.563974 -0.328365 -0.107663
-0.144309 -0.077789 -0.777902
-0.047808 0.072441 -0.879755
0.189210 -0.677080 -0.133712
-0.356805 0.246871 0.396326
-0.688588 -0.021232 0.290183
-0.826835 0.014502 -0.158664
0.039512 -0.879640 -0.080852
-0.545534 -0.059993 -0.394475
0.168206 -0.710117 -0.121681
0.470212 0.057351 0.472439
-0.012041 0.231110 -0.756850
0.226590 -0.584291 0.189120
0.033807 0.784601 0.181591
0.126902 -0.399339 -0.473763
0.407910 0.474983 0.117110
-0.202670 -0.598807 0.198525
0.331575 -0.473136 0.195291
-0.469167 0.199073 -0.331763
-0.432951 0.212358 -0.354694
-0.470202 -0.394912 -0.134889
0.993454 -0.002889 0.003658
0.150792 0.453441 -0.395769
0.050818 -0.487465 -0.461719
0.298831 -0.192828 0.508343
0.495290 0.054121 -0.450591
0.206903 0.547990 -0.245108
0.352727 -0.552218 0.095058
-0.002798 0.389283 -0.607921
0.250195 -0.651836 -0.097972
-0.440838 -0.536948 0.022215
0.208392 0.598984 -0.192625
0.188160 -0.075444 -0.736400
0.361414 -0.457145 0.181443
-0.244440 0.502736 0.252825
-0.185126 -0.415063 0.399813
0.706561 0.175320 -0.118124
-0.750423 -0.106814 -0.142767
-0.077442 -0.797010 -0.125551
0.264988 -0.636972 0.098043
-0.221465 -0.580467 -0.198069
0.544518 -0.189387 -0.266097
-0.362282 0.526764 0.110958
-0.158785 -0.302358 0.538859
0.472764 0.050881 -0.476357
-0.125187 -0.434507 0.440310
0.201891 -0.083293 0.714821
-0.378029 -0.201951 -0.420022
-0.120347 -0.037614 -0.842040
-0.134476 0.508605 -0.356922
-0.525494 0.041170 -0.433338
-0.173241 -0.753195 -0.073566
-0.292724 -0.275898 0.431380
0.154752 -0.144441 -0.700811
0.058567 -0.668951 -0.272486
-0.035564 -0.309342 -0.655097
0.192489 0.689491 0.118023
0.727646 -0.219410 -0.052948
0.214370 -0.019885 0.765745
-0.175493 -0.604951 0.219556
-0.090439 0.795474 0.114090
0.466345 0.218229 0.315427
0.209262 0.160640 0.630099
-0.109544 -0.404909 -0.485550
-0.605211 0.077900 -0.316892
0.160758 0.717790 0.121458
-0.118291 -0.370293 0.511420
-0.003962 0.103326 -0.892716
-0.278032 0.197727 0.524243
-0.538959 -0.139327 -0.321717
-0.122066 0.483453 -0.394484
-0.593819 0.310571 -0.095613
-0.393220 -0.027443 -0.579339
-0.366891 0.332611 0.300501
0.063334 0.919183 -0.017487
0.921297 0.065087 0.013620
0.214062 -0.216598 0.569341
0.550210 0.213511 0.236280
0.030809 0.363451 0.605742
-0.239046 -0.163664 -0.597291
0.035087 0.117687 -0.847227
-0.052221 -0.166114 0.781664
-0.446158 0.035007 0.518837
-0.270985 0.261789 -0.467228
0.058381 -0.437765 0.503856
-0.189973 -0.279269 -0.530760
0.208835 0.459159 -0.332008
0.195037 -0.732312 -0.072655
0.022505 -0.260257 0.717243
-0.086375 -0.089825 -0.823803
-0.358224 -0.465238 0.176540
0.156315 -0.527386 -0.316301
0.621010 0.325353 -0.053639
-0.103431 0.660173 0.236399
0.812586 -0.061278 -0.126140
-0.039469 0.359368 -0.601165
0.287706 -0.277845 -0.434452
-0.067286 0.426595 0.506121
-0.050771 -0.635527 -0.313705
-0.580989 -0.267797 -0.151215
0.069096 -0.690963 -0.239943
-0.009330 -0.631023 -0.359649
-0.116544 -0.785328 -0.098129
0.303447 0.620737 0.075818
-0.251348 0.402651 -0.346003
-0.379907 -0.560326 -0.059769
0.016931 0.215078 -0.767991
0.681441 0.238366 0.080195
-0.227737 0.142315 0.629949
-0.316190 0.036562 -0.647251
-0.500919 -0.225385 -0.273698
0.422858 -0.207713 0.369431
-0.176401 -0.133318 0.690284
-0.045241 -0.475062 -0.479699
-0.353103 -0.538095 -0.108805
-0.103598 0.549580 0.346825
0.418940 -0.120141 -0.460922
0.313911 -0.284314 -0.401778
0.875514 0.113884 -0.010607
-0.568382 -0.017857 0.413763
0.427737 -0.351530 -0.220735
0.406562 -0.574820 -0.018620
0.201177 0.321515 0.477310
0.082958 -0.310134 -0.606912
-0.334970 -0.464409 -0.200623
-0.611313 0.125143 0.263547
0.440826 -0.104131 0.455047
-0.151660 -0.558859 -0.289483
-0.722216 0.115305 -0.162484
-0.720167 0.050156 -0.229682
0.117858 -0.659283 -0.222862
-0.364558 -0.045679 0.589766
-0.028346 -0.853066 -0.118590
0.673577 -0.157375 -0.169050
-0.302695 -0.298490 0.398818
-0.495439 0.473167 0.031396
0.802917 -0.126219 0.070867
-0.191998 0.313859 0.494145
-0.307172 0.138529 -0.554302
-0.124235 0.319379 0.556389
-0.286758 0.603420 0.109824
-0.481685 0.041038 0.477279
0.566881 0.074300 0.358821
0.082910 -0.701310 0.215784
0.417979 0.494418 0.087606
-0.313492 0.456336 -0.230174
0.573897 0.117555 -0.308551
0.313081 0.551098 0.135823
0.358755 0.116592 0.524656
0.077780 0.905020 0.017204
-0.747520 0.174429 0.078054
-0.760393 0.130415 0.109195
0.055204 0.230993 -0.713807
0.592190 0.355202 0.052610
0.073030 -0.558026 -0.368946
-0.820989 0.061486 0.117528
0.018289 -0.738432 0.243282
0.719985 -0.104691 -0.175330
0.597154 -0.296535 0.106314
-0.326839 -0.171538 0.501625
-0.163346 0.094957 -0.741701
0.270610 -0.729369 0.000026
-0.006970 0.378715 0.614317
0.055242 -0.187502 -0.757256
-0.650075 -0.032370 -0.317558
-0.570551 0.424767 0.004684
0.201445 0.479492 0.319066
-0.566163 0.352265 0.081574
0.443426 -0.095768 -0.460809
0.350218 0.646800 -0.002985
0.592137 0.154573 0.253292
0.000137 -0.242506 0.757358
-0.125831 0.334421 -0.539751
-0.602196 -0.086235 -0.311572
0.145575 0.645898 -0.208529
0.036386 -0.400750 -0.562866
0.257381 0.319244 0.423378
0.729283 0.114045 -0.156677
0.651051 0.062871 -0.286081
0.130859 0.674806 -0.194338
0.121886 -0.080971 -0.797146
-0.435395 0.448950 0.115658
0.031054 0.484084 0.484864
-0.082770 0.478289 0.438943
0.232303 0.423421 0.344278
-0.283633 -0.157500 -0.558869
0.659698 0.034016 -0.306289
-0.063370 -0.299840 -0.636792
-0.422975 -0.007972 0.569055
-0.566924 -0.132177 -0.300901
-0.001834 -0.425880 -0.572288
0.337092 -0.104144 -0.558767
-0.877798 -0.002145 0.120062
0.254513 0.708872 -0.036619
-0.296840 0.234040 -0.469121
0.062095 0.510769 0.427138
-0.193507 -0.627992 0.178503
0.178997 -0.466201 0.354805
0.400044 0.042609 0.557350
0.426595 -0.320123 0.253284
-0.515111 -0.243536 -0.241355
-0.340135 0.458495 -0.201372
-0.624949 -0.057984 -0.317068
0.041277 0.677220 -0.281506
-0.533826 -0.208243 -0.257932
0.391665 0.050895 -0.557442
-0.201783 0.240124 0.558094
-0.276639 -0.397102 -0.326262
0.324706 -0.574497 -0.100800
0.208818 -0.330737 0.460448
0.341382 -0.039461 0.619159
0.321105 0.671107 0.007791
0.181899 -0.802919 0.015184
-0.380101 -0.167012 0.452889
-0.748432 0.110935 -0.140637
0.207281 -0.663107 0.129614
-0.370027 0.425680 0.204295
0.387633 0.564593 0.047776
-0.024278 -0.715463 0.260264
-0.230470 -0.020633 -0.748899
0.559509 0.033586 -0.406907
-0.168377 0.701820 0.129808
0.616465 0.044630 0.338908
0.534307 -0.169336 -0.296359
0.158338 0.148090 0.693575
-0.202874 -0.107646 -0.689484
0.400021 0.423355 -0.176627
-0.296011 0.386348 0.317644
-0.671295 -0.052080 0.276627
0.320473 0.122378 0.557152
-0.711512 0.201693 0.086801
0.280924 -0.600444 0.118635
-0.740813 0.164401 -0.094790
-0.011495 -0.932372 0.056139
0.428480 0.463170 -0.108353
0.280266 0.137327 0.582410
-0.402483 0.235028 -0.362491
0.112647 -0.211080 -0.676276
-0.199108 -0.653327 -0.147567
-0.279628 0.642418 -0.077957
0.180342 0.420175 -0.399485
0.217995 0.183606 -0.598400
0.106441 0.527911 0.365651
-0.002451 -0.802411 0.195139
-0.800279 0.158872 0.040851
-0.319025 0.627154 0.053823
0.259889 0.392646 0.347467
0.029858 -0.675844 0.294301
-0.496386 0.041209 -0.462407
-0.024031 -0.563492 -0.412480
-0.037165 0.661044 0.301794
-0.021014 -0.592216 -0.386773
-0.072618 0.098218 -0.829167
-0.080242 0.546558 0.373202
-0.163518 -0.225300 -0.611182
0.460090 -0.303605 0.236307
0.134674 0.844392 0.020935
0.003847 -0.312690 0.683465
-0.036142 0.601102 0.362758
0.446312 -0.501537 -0.052153
0.417264 -0.425765 -0.156972
-0.008164 0.192666 0.799171
0.101991 -0.397122 0.500890
-0.400084 0.279485 0.320433
0.120070 -0.506910 -0.373023
-0.452750 -0.378576 0.168676
-0.254995 0.641799 -0.103208
0.729422 -0.205617 0.064966
0.462433 -0.220732 0.316837
-0.238023 0.100047 -0.661934
0.409551 0.512003 -0.078449
0.044554 -0.256503 -0.698947
0.762511 -0.028956 -0.208534
0.343913 -0.652665 -0.003425
-0.250505 0.290765 0.458731
0.241683 -0.041325 -0.716996
-0.130525 -0.105632 0.763845
-0.310924 -0.672330 0.016749
0.070666 0.806926 0.122411
-0.541890 -0.437663 -0.020449
0.149849 -0.397520 0.452632
-0.752251 0.185640 -0.062111
0.400201 -0.318376 0.281426
0.647180 -0.083466 -0.269357
-0.062124 -0.507165 -0.430713
0.064908 -0.610427 -0.324667
-0.826554 -0.121429 -0.052019
0.000267 0.684559 -0.315177
-0.772259 0.175155 0.052587
-0.227960 -0.314237 -0.457805
0.462324 -0.474152 0.063525
-0.193326 0.705184 0.101495
0.163875 -0.146995 0.689132
-0.237697 -0.555151 0.207152
-0.049443 -0.251502 -0.699058
0.287568 0.684728 0.027706
-0.702054 -0.029233 -0.268716
0.519734 0.240783 0.239484
-0.140473 0.109482 0.750049
-0.495689 -0.478037 0.026276
-0.142709 0.829046 -0.028246
-0.482408 0.358653 0.158941
-0.076230 0.328792 0.594980
0.658314 -0.103922 -0.237767
-0.150759 0.078518 -0.770723
0.399650 0.558507 -0.041846
0.412260 -0.170789 -0.416953
0.215437 0.768621 -0.015942
-0.078215 -0.603230 0.318558
-0.073059 0.390914 -0.536029
0.298136 0.130196 -0.571671
0.238221 -0.083278 -0.678504
-0.119898 0.200873 0.679233
-0.328392 -0.141167 0.530444
0.581423 -0.207861 -0.210717
-0.480328 -0.456088 0.063586
-0.356718 0.113906 0.529378
0.487310 -0.328792 0.183900
-0.256577 0.228453 0.514971
-0.069551 0.352280 -0.578172
-0.854156 -0.031272 0.114574
-0.137404 0.224886 0.637712
0.600910 -0.121496 0.277596
0.468386 0.233000 -0.298615
0.207765 0.573978 -0.218259
0.313909 0.614694 -0.071400
-0.155684 0.380451 0.463867
-0.176993 0.232145 -0.590863
0.581635 0.084929 -0.333439
-0.158913 -0.513594 0.327495
-0.204343 -0.533774 0.261884
0.018972 -0.440057 -0.540973
-0.751300 0.020342 0.228360
0.825632 -0.030710 -0.143661
-0.360358 -0.638832 -0.000813
-0.497551 0.140847 0.361604
-0.324421 0.622478 -0.053104
0.651898 0.256743 0.091362
0.369643 0.079229 -0.551130
0.618446 -0.121313 -0.260243
-0.144951 0.398931 -0.456121
-0.354453 0.554262 -0.091288
0.522147 -0.160499 0.317356
0.311478 0.172867 0.515657
-0.545062 0.145751 0.309189
0.296222 -0.320732 -0.383049
0.266945 0.431598 -0.301459
0.540217 0.382853 0.076932
-0.296691 -0.636573 0.066738
-0.612601 -0.384987 -0.002414
-0.078052 -0.908679 -0.013272
0.010781 0.681368 0.307854
-0.844895 0.052120 -0.102987
-0.494162 -0.351354 0.154487
0.587806 -0.324788 0.087409
-0.277651 -0.647950 -0.074401
-0.210286 -0.562976 -0.226740
-0.351085 -0.256500 -0.392417
-0.105124 0.171924 -0.722957
0.617936 -0.001531 0.380535
0.699152 -0.203661 -0.097191
-0.032383 -0.744495 -0.223125
0.136793 -0.750089 0.113121
0.357094 0.078653 0.564255
-0.883711 0.054110 -0.062182
-0.225913 -0.308317 0.465772
0.462685 0.363122 -0.174195
-0.396725 -0.584494 0.018783
-0.229598 -0.714426 -0.055981
-0.100744 0.346827 0.552433
0.654015 0.125199 0.220789
0.013242 -0.590938 -0.395822
-0.208093 -0.359639 -0.432270
-0.585653 0.183596 0.230752
-0.474826 0.137410 -0.387766
-0.143220 0.595815 0.260966
-0.244595 -0.575750 0.179656
0.555959 0.007347 -0.436696
-0.462451 0.234586 -0.302964
0.037671 0.915259 0.047073
-0.150520 0.023530 0.825952
0.096798 -0.403332 -0.499873
-0.045410 0.347550 0.607042
-0.221577 0.711390 0.067037
-0.459213 -0.450965 -0.089825
0.440214 0.517828 -0.041960
0.441043 -0.145178 -0.413781
0.091670 0.644907 -0.263426
-0.037671 0.406860 -0.555471
-0.155348 -0.640678 0.203975
0.307104 -0.160677 0.532221
-0.739323 -0.258143 0.002538
-0.057225 -0.565518 -0.377258
0.161025 0.120900 -0.718081
0.582892 0.273353 0.143757
-0.115436 -0.756619 -0.127949
0.587421 0.332852 0.079729
-0.676925 0.105275 -0.217803
0.063523 -0.120498 -0.815983
-0.116356 -0.462000 0.421647
-0.010360 0.831666 -0.157976
-0.216466 0.377141 -0.406394
-0.062753 0.468750 0.468499
0.472439 -0.318160 -0.209404
-0.110102 0.303871 0.586030
0.479219 0.520298 -0.000485
0.271536 -0.658497 0.069971
0.122503 0.200636 -0.676863
-0.931685 -0.033799 0.034521
0.477000 0.185886 -0.337116
-0.037878 0.769409 0.192714
0.190771 0.133750 -0.675482
-0.216293 0.407819 0.375890
0.451779 -0.472069 -0.076155
-0.253314 -0.430187 0.316501
-0.217238 0.738530 0.044235
0.713603 0.019603 -0.266799
-0.390232 0.268918 -0.340852
0.803038 -0.165483 0.031481
-0.595642 0.106493 -0.297868
0.863892 -0.085830 -0.050281
0.006341 -0.215111 0.778547
0.146609 0.656840 0.196553
0.415944 -0.318326 -0.265732
0.193299 -0.027481 -0.779219
-0.583250 -0.147330 0.269422
-0.064406 0.213780 0.721818
-0.062715 -0.235874 0.701414
-0.438880 -0.351560 0.209563
-0.279098 -0.359795 -0.361110
0.622867 0.350416 -0.026719
-0.080530 -0.600003 -0.319470
0.064430 0.835852 -0.099720
0.551744 0.348102 -0.100157
-0.232240 -0.097556 0.670207
-0.151607 -0.256505 -0.591889
0.081300 -0.087935 -0.830768
-0.144881 -0.547152 0.307969
-0.156768 -0.731322 0.111915
-0.080568 0.699624 -0.219811
0.173819 -0.739654 0.086530
-0.335167 -0.595094 0.069741
-0.030164 -0.793012 0.176824
0.047713 -0.305502 -0.646788
-0.490387 -0.079462 0.430153
-0.639889 -0.273764 -0.086350
-0.080521 -0.640676 0.278806
-0.214029 -0.238039 0.547933
0.527080 0.262085 0.210837
0.220336 0.367779 0.411887
-0.494852 0.107968 -0.397183
0.005334 0.026285 0.968384
-0.587221 -0.073098 -0.339683
-0.188547 -0.770280 -0.041173
0.044474 -0.303705 0.651824
0.028289 0.277369 0.694346
0.055813 0.084781 -0.859409
0.804840 -0.096189 -0.098974
-0.454599 0.251978 0.293425
-0.039586 -0.404900 -0.555516
-0.696712 0.172023 -0.131268
0.358092 -0.626432 0.015478
-0.657317 0.213070 0.129616
-0.659808 -0.180500 -0.159694
0.839946 -0.156144 -0.003910
0.058687 -0.335997 -0.605318
-0.483755 -0.410041 -0.106207
-0.346981 0.149862 -0.503160
0.766004 -0.197378 0.036618
-0.318483 0.489734 0.191785
0.340769 0.317119 -0.342115
-0.560152 -0.127754 0.312097
-0.435442 -0.224209 0.340351
0.189604 -0.509134 -0.301264
-0.698162 0.150833 0.151009
0.044906 0.578826 0.376270
0.018460 -0.333573 0.647970
-0.462261 0.120002 -0.417741
-0.430424 -0.119732 0.449847
-0.037214 -0.288607 0.674182
0.115174 0.294603 -0.590226
0.524087 0.133485 0.342431
0.528457 0.189673 -0.281871
-0.134756 -0.728916 -0.136333
-0.366046 0.195018 -0.438938
-0.095577 0.613617 -0.290809
-0.173746 0.015912 -0.810344
-0.617992 0.277466 -0.104545
0.117344 0.751813 0.130846
0.550492 0.252001 -0.197508
0.615575 -0.308668 -0.075759
0.150842 0.593024 -0.256135
-0.581123 0.368137 0.050742
0.299453 -0.249283 -0.451266
-0.875582 0.057199 0.067223
0.423791 -0.531721 -0.044490
-0.322369 -0.609684 -0.067949
0.309710 -0.385589 -0.304704
0.839100 0.002268 0.158632
-0.166929 -0.311646 -0.521427
-0.253139 -0.067516 -0.679347
-0.646082 -0.053724 0.300197
0.615052 0.298436 -0.086515
0.049648 -0.216627 0.733729
0.505394 -0.454776 -0.039832
0.093042 0.329113 0.577849
0.235368 -0.065121 0.699514
-0.491548 -0.147183 -0.361271
0.429063 -0.178039 0.392899
-0.034665 -0.148394 -0.816944
0.404089 0.000091 0.595821
0.566345 -0.087319 0.346338
-0.478787 -0.104469 -0.416747
-0.638076 -0.098901 -0.263027
0.062130 0.338630 0.599242
-0.238631 -0.464059 0.297312
-0.121549 0.012865 0.865590
-0.829321 0.155795 0.014886
0.530937 -0.139071 -0.329995
0.312997 0.484923 0.202083
0.281401 -0.500827 -0.217775
-0.657862 -0.110153 0.231988
-0.274720 -0.630131 0.095152
0.867362 0.013549 0.119093
0.277374 0.249300 -0.473327
0.202070 0.098593 -0.699341
0.504061 -0.036509 -0.459432
-0.173565 -0.399817 -0.426620
-0.353865 -0.404546 0.241591
0.276592 -0.315314 0.408097
-0.519347 -0.438253 0.042402
0.496045 -0.321722 -0.182235
0.255096 -0.509997 0.234908
0.230576 -0.624747 -0.144678
-0.035620 -0.814853 0.149531
-0.446930 -0.388798 -0.164274
-0.330674 -0.276341 0.392988
-0.388605 0.374169 0.237228
0.076577 -0.529531 0.393895
-0.595196 0.213352 0.191452
-0.516858 -0.367748 0.115397
0.338007 -0.603977 0.058018
0.169874 -0.199311 0.630816
-0.079995 0.079166 0.840840
-0.366000 0.436123 -0.197879
-0.054457 -0.224286 -0.721262
-0.038670 -0.527805 0.433527
-0.018091 0.968041 -0.013871
0.236418 -0.558228 -0.205355
0.384868 0.027985 0.587149
0.455992 -0.385907 -0.158103
-0.162600 -0.200870 0.636532
0.683812 -0.289682 -0.026509
0.817928 0.083258 -0.098817
0.490822 0.299619 0.209561
-0.704933 0.100848 -0.194223
-0.436883 -0.206276 -0.356843
0.351061 0.482408 0.166534
0.731568 0.120777 0.147661
-0.406576 0.385399 0.208028
0.121159 -0.003038 -0.875807
0.001510 0.482371 0.516121
0.029669 -0.460413 0.509920
-0.082436 0.743317 -0.174250
-0.424229 -0.044829 0.530944
-0.376050 -0.472936 -0.151016
0.677840 0.236842 -0.085321
-0.114984 0.821698 -0.063321
0.244875 0.748080 0.007047
-0.372396 -0.015393 0.612213
0.525828 -0.394256 -0.079919
-0.021901 -0.475686 0.502415
0.574472 -0.148203 0.277326
-0.106491 -0.296295 0.597218
0.032845 0.835041 0.132116
-0.565087 0.234897 0.200017
0.757115 -0.208032 -0.034854
-0.101867 -0.878231 -0.019906
-0.170232 0.829322 -0.000448
-0.595187 -0.057336 0.347479
-0.066866 0.327273 -0.605864
-0.039830 0.800214 -0.159957
-0.336700 0.072450 -0.590852
-0.215319 -0.776316 -0.008365
-0.648984 -0.138113 0.212905
-0.451553 -0.271922 0.276528
0.082361 -0.458618 -0.459023
0.199987 0.507974 0.292042
0.507637 -0.167854 -0.324512
-0.384805 0.229579 0.385618
0.117327 0.298167 0.584508
-0.319626 0.100501 -0.579875
-0.654069 0.161841 -0.184092
-0.549787 -0.436311 0.013904
0.156052 0.091645 0.752306
-0.266097 0.206594 -0.527310
-0.402729 -0.086760 0.510513
0.623484 -0.373924 -0.002594
-0.104035 0.588417 0.307552
-0.458451 -0.292077 0.249474
0.551372 0.354536 0.094095
-0.263755 0.250330 0.485916
0.257501 0.462987 -0.279514
-0.607943 0.018905 -0.373154
-0.957042 -0.037224 0.005738
0.675058 -0.074565 -0.250380
-0.428245 0.253480 0.318277
0.284161 -0.626840 -0.089001
0.201794 -0.299803 -0.498405
-0.566721 0.315551 0.117731
-0.077014 -0.877294 -0.045696
-0.015908 -0.901371 0.082724
0.383898 -0.259935 -0.356169
-0.034942 -0.769196 -0.195863
0.940652 0.044927 -0.014427
-0.320855 0.557748 -0.121401
-0.707262 0.031691 -0.261051
-0.318483 0.652618 -0.028902
-0.019192 -0.270195 -0.710618
-0.157768 0.585467 -0.256765
0.726603 0.144326 -0.129077
0.083743 -0.171654 0.744606
0.241683 0.208284 0.550033
-0.319557 -0.005025 -0.675421
-0.540246 -0.248238 -0.211517
0.102166 -0.688356 -0.209481
-0.448083 0.381217 0.170702
0.678596 0.052684 0.268722
-0.669423 0.176471 0.154108
0.482969 -0.270313 0.246720
0.228619 0.018329 0.753053
-0.093701 0.450147 0.456155
-0.276953 -0.601949 -0.121100
-0.063575 -0.754732 -0.181695
-0.145538 -0.443275 0.411189
0.501828 0.451357 -0.046817
-0.783138 0.024213 -0.192648
-0.639212 0.320514 0.040277
-0.289470 0.680770 -0.029763
0.341092 -0.128087 -0.530824
0.461703 0.312653 0.225646
-0.554639 0.224548 -0.220814
0.278584 0.623283 -0.098136
0.162440 0.720616 -0.116950
0.079710 -0.247523 -0.672770
-0.423930 -0.270436 0.305637
-0.348879 0.285077 0.366048
0.437406 -0.041018 0.521579
-0.288219 0.060948 -0.650837
0.154036 0.121494 0.724476
-0.027791 0.737411 0.234801
0.069167 -0.573176 0.357660
-0.054158 0.613206 0.332638
-0.167314 -0.108410 0.724282
-0.347455 -0.074085 0.578462
-0.310529 0.197627 -0.491846
-0.149438 -0.007131 0.843432
0.252763 -0.432497 -0.314742
0.856391 0.139018 0.004593
0.748748 -0.162211 -0.089044
-0.116284 0.438635 -0.445085
-0.231322 0.058806 -0.709876
-0.516641 0.276455 -0.206906
-0.542517 -0.399084 0.058401
0.104704 0.781815 0.113483
0.214533 0.211477 0.573991
-0.160466 -0.480563 0.358973
-0.172388 0.803766 -0.023848
-0.336239 0.118656 -0.545108
-0.384046 -0.085096 -0.530861
-0.816232 -0.150141 -0.033630
0.153261 -0.809512 -0.037229
0.168351 0.753215 0.078436
0.578518 0.250198 -0.171285
-0.030274 -0.861662 0.108067
-0.159714 0.281683 -0.558605
-0.070746 -0.263241 -0.666016
-0.130018 -0.681882 0.188103
-0.349938 0.310624 0.339441
0.669073 0.089031 0.241899
0.952429 -0.018701 0.028875
0.131878 -0.227040 0.641084
0.599353 0.124328 -0.276323
-0.435022 0.155270 0.409710
-0.519238 0.200297 -0.280467
0.659738 -0.183070 0.157194
0.479787 0.479626 -0.040589
-0.020724 -0.187908 0.791368
0.025417 0.120721 0.853864
0.371464 0.030556 -0.597982
0.463151 0.386452 0.150400
0.163070 0.359316 0.477615
-0.017578 -0.618390 0.364034
0.385580 0.215450 -0.398972
-0.076257 0.148519 0.775224
0.726721 -0.153716 -0.119569
-0.047869 -0.832620 0.119513
0.522709 -0.368350 0.108944
-0.098421 0.476142 -0.425440
-0.036201 0.704634 -0.259169
-0.374913 0.514316 -0.110774
-0.397593 -0.168847 -0.433562
-0.026699 -0.211135 0.762166
-0.198490 0.408606 -0.392906
0.012979 0.076147 -0.910877
0.557065 0.426675 0.016262
0.018519 -0.506114 0.475369
0.244133 -0.313853 0.442016
0.303264 0.563688 -0.133051
0.100458 0.191321 -0.708225
0.560909 0.118881 0.320213
0.677236 -0.026009 0.296758
0.250277 0.079866 -0.669860
-0.174738 0.150403 -0.674861
-0.921013 -0.035842 -0.043149
0.320414 0.044173 0.635416
-0.586947 0.057128 0.355926
0.060234 -0.270433 0.669335
0.889766 -0.012468 -0.097769
0.143181 -0.479085 -0.377736
-0.183744 -0.076473 -0.739787
-0.456510 -0.074802 -0.468690
0.110928 0.594452 0.294622
0.391730 -0.215570 -0.392702
-0.156403 -0.666637 -0.176962
-0.277675 0.270233 0.452094
-0.849384 -0.094722 -0.055896
0.141677 0.416250 0.442076
0.135695 -0.159731 0.704579
-0.441532 -0.055920 0.502550
0.387530 -0.612058 0.000414
0.415013 -0.381629 -0.203360
0.592217 0.073807 0.333979
0.351573 0.466116 -0.182313
0.730126 -0.052161 0.217717
-0.033580 0.670586 -0.295837
-0.346417 0.531776 -0.121811
0.127514 -0.745634 -0.126856
0.411454 -0.271143 0.317405
0.094107 -0.877110 0.028787
-0.638388 0.352227 -0.009387
0.636574 0.015048 -0.348381
-0.115617 -0.557891 -0.326496
-0.653371 -0.268093 0.078540
0.121259 0.452620 -0.426124
0.401126 -0.347943 -0.250933
0.055453 -0.375476 0.569073
-0.229836 0.377145 0.393021
0.269590 -0.552430 -0.177981
-0.146352 -0.335503 0.518147
0.167724 -0.363264 -0.469015
0.354073 0.037392 0.608537
-0.094931 -0.775402 0.129668
0.052148 0.440262 -0.507592
0.526751 -0.278881 0.194369
0.001161 0.720155 0.278690
0.376463 -0.587356 0.036183
-0.247320 -0.359791 -0.392891
0.305419 -0.416487 -0.278097
0.162671 -0.829262 -0.008068
-0.177681 0.670298 0.152023
0.270211 0.500988 -0.228803
-0.079998 0.503970 0.416035
-0.357384 0.008423 0.634196
-0.464319 0.435756 0.099928
0.076827 0.675645 0.247531
0.003481 -0.395496 -0.601024
-0.426529 0.191443 -0.382030
-0.119655 -0.310855 -0.569493
-0.786294 0.047503 -0.166203
-0.557405 0.136252 -0.306346
0.911657 -0.034941 0.053405
-0.580636 -0.395468 -0.023898
0.628478 -0.192720 -0.178803
-0.022719 -0.652080 -0.325204
-0.970085 0.000520 0.029397
-0.193695 0.730137 0.076172
0.825448 -0.137427 0.037127
-0.400917 0.069925 -0.529160
0.361398 -0.287003 -0.351602
0.075689 -0.398867 0.525447
-0.098820 -0.829117 0.072066
-0.508136 -0.210827 0.281039
0.837009 0.000440 -0.162551
0.083193 -0.888596 -0.028215
-0.558689 -0.179259 -0.262053
-0.152516 -0.838746 0.008739
0.230957 0.182325 0.586719
-0.745561 0.215848 0.038593
-0.449541 -0.405615 0.144847
-0.777196 0.109269 -0.113536
0.202032 -0.173426 0.624543
0.066263 0.182768 0.750971
0.240445 0.661782 -0.097776
-0.774966 0.147638 0.077396
0.219172 -0.469710 0.311120
-0.146632 -0.175467 -0.677903
0.138382 -0.551607 0.310013
-0.892409 -0.075667 -0.031927
0.275215 -0.682710 0.042077
-0.184104 0.774229 -0.041666
-0.119410 -0.394077 0.486516
0.534811 0.105569 0.359623
0.027044 0.696946 0.276014
0.235167 0.548547 0.216288
0.896630 0.019371 -0.084002
-0.410376 -0.300628 0.288998
0.045290 -0.762942 0.191769
-0.321904 0.677260 -0.000839
-0.273401 0.712837 0.013767
-0.677021 -0.233264 0.089718
-0.656071 0.093064 -0.250867
0.130641 0.793297 -0.076064
-0.798698 -0.005483 0.195821
0.330875 0.221217 -0.447911
-0.245376 0.720814 0.033815
-0.263528 0.670979 -0.065496
0.149034 -0.668475 -0.182494
0.431407 0.129824 -0.438772
-0.458244 -0.358839 -0.182919
-0.312101 0.133935 0.553967
-0.400606 0.049744 0.549652
-0.033534 -0.338672 -0.627796
-0.181037 0.761221 0.057743
-0.182435 -0.425119 -0.392448
-0.257720 0.613846 -0.128436
-0.452002 -0.478666 -0.069335
-0.316027 -0.199685 0.484290
-0.074013 0.461961 -0.464028
0.196232 -0.334122 -0.469647
-0.182120 -0.254588 -0.563292
0.354859 0.230394 0.414749
-0.490480 -0.193237 0.316285
0.108346 -0.859728 -0.031930
-0.164753 -0.574081 -0.261168
0.807841 0.027615 0.164546
0.152724 0.038693 -0.808586
0.175351 0.467971 -0.356680
-0.499248 0.399403 0.101352
0.358049 0.391417 0.250536
-0.850062 -0.011988 -0.137951
-0.758911 0.079415 -0.161676
0.588539 -0.030324 -0.381139
0.229621 -0.635664 0.134717
0.287728 0.222023 0.490251
0.227968 0.511722 -0.260312
-0.510366 -0.004728 0.484908
0.262275 -0.608965 -0.128763
-0.128788 -0.686134 -0.185081
0.180176 0.159152 0.660674
0.487791 0.446837 0.065374
-0.284716 0.218261 0.497025
0.294106 -0.523936 -0.181960
-0.473714 0.069241 0.457047
0.070645 -0.732471 -0.196889
-0.052232 0.832841 -0.114929
-0.154520 -0.518192 -0.327291
-0.241255 0.161257 0.597489
0.107837 0.869737 0.022431
0.262819 -0.233018 0.504164
0.207425 -0.145176 0.647401
-0.403064 0.119111 -0.477829
0.036218 -0.593882 0.369902
-0.159348 0.458787 0.381867
0.674105 0.269071 -0.056826
0.001238 -0.175493 -0.823272
0.269966 0.318303 -0.411733
-0.012858 0.180908 -0.806236
0.103955 0.275355 -0.620693
0.191293 -0.481355 -0.327354
-0.619044 -0.215760 0.165197
0.723027 -0.275898 0.001080
0.575743 0.276544 -0.147715
0.559895 -0.046100 0.394007
0.065995 -0.910161 0.023846
0.049470 0.452155 0.498377
0.599346 -0.292563 -0.108093
0.413456 0.065296 0.521250
-0.694106 0.229601 0.076296
0.031618 -0.133828 -0.834555
-0.199320 -0.360778 0.439904
-0.111361 -0.849940 -0.038701
-0.298252 -0.480359 -0.221391
-0.714750 -0.129475 -0.155780
0.722379 -0.031775 0.245851
-0.670830 -0.004373 -0.324799
0.012650 0.160364 -0.826987
-0.704656 -0.231006 -0.064341
0.528633 0.026639 0.444730
0.424270 -0.289085 -0.286648
0.517007 0.296175 0.186820
-0.134819 0.539494 -0.325690
-0.848017 -0.038967 -0.113018
-0.662165 -0.209897 0.127940
0.882091 -0.051254 0.066658
-0.951052 0.048636 0.000317
-0.278970 0.120951 -0.600081
-0.093205 0.035466 -0.871334
-0.523429 0.102595 -0.373979
0.016909 0.705717 -0.277379
0.127352 0.115100 0.757552
0.615563 -0.326111 0.058328
0.037544 0.401060 0.561399
0.312337 -0.055273 0.632392
0.007100 -0.770086 -0.222815
0.021662 0.874654 -0.103689
-0.209007 0.469064 0.321931
-0.246036 0.097933 0.656034
0.427092 0.290436 0.282475
-0.393286 0.393153 -0.213562
0.138339 0.216839 -0.644825
-0.204283 -0.612080 -0.183639
-0.600886 0.219766 -0.179349
0.595539 0.237003 0.167459
0.095462 0.135435 -0.769104
-0.414538 0.000336 -0.585128
0.506421 -0.421551 -0.072031
0.687618 -0.155021 0.157362
0.112314 -0.367664 0.520025
-0.366764 -0.530492 0.102747
0.144871 -0.047204 0.807927
0.771145 -0.063081 0.165774
0.037193 -0.167282 -0.795526
-0.736766 0.074509 -0.188729
-0.777117 -0.086584 0.136299
0.317382 0.100469 -0.582153
0.594199 -0.027544 0.378260
0.236814 -0.429825 0.333363
0.113179 -0.731765 -0.155060
0.040621 0.718321 -0.241063
0.602372 0.272458 -0.125173
0.802119 -0.122770 -0.075114
-0.772771 -0.172835 0.054394
0.114630 0.090060 0.795312
0.296024 0.600994 0.102985
0.246624 -0.160530 -0.592847
-0.065075 -0.529953 0.404974
0.209269 0.143352 -0.647380
0.339966 0.583206 -0.076831
0.798956 -0.080693 0.120354
-0.643311 -0.071624 -0.285068
0.045986 0.142885 -0.811132
0.006447 0.052667 0.940892
-0.678806 -0.054983 -0.266214
0.509098 0.357811 0.133094
0.429967 0.078500 0.491535
0.133524 0.223041 0.643438
0.194111 -0.377860 -0.428031
0.112343 -0.153859 0.733802
0.778596 0.029757 -0.191647
0.200332 0.434443 -0.365227
-0.262406 0.689170 0.048426
-0.854930 0.130979 0.014093
-0.291810 0.563925 -0.144267
-0.847218 -0.151822 -0.000962
-0.087000 -0.399322 -0.513682
0.612927 0.263543 0.123533
0.622732 0.236892 -0.140378
0.031266 -0.110566 0.858171
-0.039827 -0.418329 0.541846
-0.103402 0.838695 0.057904
-0.191713 -0.801816 -0.006473
-0.559795 -0.021031 -0.419176
0.098153 0.055952 -0.845896
-0.137579 0.516305 0.346119
0.005714 0.633020 0.361268
0.368048 -0.548407 -0.083547
-0.319669 -0.260002 -0.420331
-0.612234 -0.126382 -0.261386
-0.043106 0.936304 -0.020596
-0.253862 0.033748 0.712394
-0.691552 0.194307 0.114144
-0.646474 -0.188883 0.164645
-0.144904 0.344825 -0.510273
0.434917 -0.004608 0.560477
-0.700157 0.295010 -0.004837
-0.377764 0.445334 0.176904
-0.475963 -0.381466 0.142574
-0.050297 -0.879532 -0.070174
0.399127 0.167409 -0.433466
0.072405 -0.615858 0.311739
0.234131 0.458988 -0.306883
0.123033 -0.041020 -0.835948
-0.445674 -0.229472 -0.324856
-0.416790 -0.471545 0.111668
0.288854 0.310610 0.400540
-0.144699 -0.393114 0.462190
0.342726 -0.002880 -0.654397
0.205127 -0.717353 0.077525
-0.497667 -0.169657 -0.332678
0.467722 0.116904 0.415378
0.122357 0.761731 -0.115915
-0.165546 0.733857 -0.100601
0.142952 0.557044 0.300006
0.172847 0.236182 0.590973
0.332096 -0.163927 0.503980
-0.317830 0.354504 0.327669
0.338312 0.065958 0.595733
-0.469450 -0.503000 0.027552
0.551680 -0.205427 0.242894
0.302138 0.073580 0.624284
0.044785 0.611636 0.343582
0.433691 0.103945 -0.462368
-0.237876 -0.070789 0.691337
-0.085784 -0.037490 -0.876731
0.338739 -0.330580 0.330685
0.083470 -0.356469 0.560064
-0.502957 0.074367 0.422678
0.380977 0.113254 -0.505772
0.231964 0.739380 -0.028659
0.278803 0.177708 -0.543492
-0.101818 -0.687910 0.210275
-0.177849 -0.717414 -0.104743
-0.366001 -0.501578 -0.132424
-0.346826 0.195794 0.457382
-0.603815 -0.272614 0.123574
0.066041 0.644008 -0.289954
-0.408600 0.234024 0.357378
0.480578 0.495236 0.024188
0.328166 -0.319533 -0.352304
-0.211053 -0.128841 0.660109
-0.877207 0.092382 0.030417
0.496654 0.192792 0.310556
-0.782329 0.065811 0.151859
-0.196724 0.294751 -0.508527
-0.002257 -0.533468 0.464278
0.022155 -0.511512 -0.466335
-0.313423 0.577017 0.109563
-0.513202 -0.272881 -0.213918
-0.100275 0.008135 -0.891594
-0.062986 0.915606 0.021411
0.272186 0.047427 -0.680389
-0.773701 0.199568 0.026731
-0.230430 0.546300 0.223271
0.148588 -0.446726 -0.404688
0.518784 -0.264041 -0.217177
0.170869 -0.644215 0.184917
0.290604 -0.227906 -0.481492
0.739132 0.185170 0.075702
-0.305810 -0.427363 -0.266829
-0.071090 0.001819 -0.927096
-0.401082 0.080353 0.518568
-0.546561 0.069772 -0.383669
-0.049460 -0.941867 -0.008678
0.622887 0.117551 0.259564
-0.251539 0.069857 -0.678606
-0.180742 -0.250402 0.568857
-0.425563 0.022633 0.551806
0.236545 0.382422 0.381034
-0.282561 -0.128963 0.588479
0.556336 -0.023396 0.420270
-0.305034 -0.094215 0.600754
0.468297 0.476055 0.055650
0.021266 -0.543909 0.434826
0.284361 -0.360615 -0.355027
-0.411320 0.289430 -0.299252
0.251644 0.684037 -0.064321
0.128444 0.141307 -0.730255
-0.614351 -0.332327 -0.053324
-0.473646 0.072539 -0.453818
-0.105060 -0.600470 -0.294473
0.186395 0.048115 -0.765491
0.602308 0.038433 -0.359260
-0.631044 -0.233581 0.135376
0.478915 -0.136664 -0.384423
-0.316767 -0.381641 0.301595
-0.318307 -0.536846 -0.144849
-0.351461 -0.182946 0.465595
0.326441 -0.197891 0.475670
0.131163 -0.253593 0.615246
0.575461 0.319824 -0.104719
0.335341 -0.257729 -0.406933
-0.117139 0.619116 -0.263748
-0.065095 -0.011827 0.923082
0.331136 -0.582218 0.086648
-0.656259 -0.155698 -0.188045
0.037076 -0.644800 0.318127
0.792207 -0.024061 -0.183732
-0.285208 0.501649 0.213145
0.004903 0.159898 0.835200
-0.413628 -0.153806 0.432568
-0.152262 0.308759 0.538981
-0.670257 0.195253 -0.134492
0.430498 -0.079421 -0.490084
-0.039985 -0.363512 0.596505
-0.163395 0.477099 -0.359509
-0.539518 -0.336474 -0.124011
0.520759 0.160687 0.318557
-0.458757 0.123229 0.418018
0.250625 0.676826 0.072552
-0.137632 0.834557 0.027813
-0.694192 0.005939 -0.299873
0.369739 -0.397702 0.232561
0.177164 -0.623165 -0.199671
-0.388727 -0.274591 -0.336684
0.685171 -0.127341 -0.187491
0.520288 0.250165 -0.229548
-0.008381 0.858701 -0.132921
0.673950 0.300714 0.025339
0.142516 -0.616296 -0.241189
0.061169 0.469659 -0.469173
0.280415 0.559735 -0.159852
-0.708368 -0.261147 0.030490
-0.617605 0.032906 0.349491
-0.021747 -0.235822 -0.742434
0.097926 0.648388 0.253689
-0.187672 -0.547356 -0.264973
-0.067571 0.680443 -0.251988
0.556710 -0.036539 -0.406753
0.713766 -0.009476 0.276764
-0.814204 0.047085 -0.138714
-0.116138 0.303041 -0.580824
0.040007 0.535302 -0.424693
0.066998 0.023943 0.909061
0.555957 -0.142132 -0.301914
0.340609 -0.544924 -0.114471
0.450990 -0.194450 0.354562
0.242613 -0.155656 0.601732
-0.317865 0.293365 0.388773
0.375868 0.007455 0.616679
-0.692356 0.201083 -0.106564
-0.593100 0.110030 0.296873
0.191658 0.739506 -0.068840
-0.040692 0.164288 0.795020
0.553006 -0.437663 0.009333
0.111333 -0.708047 -0.180625
-0.305973 0.178836 0.515193
0.063266 0.722447 -0.214292
0.496760 0.155771 0.347471
-0.020043 -0.896479 -0.083481
0.005643 -0.806354 -0.188004
-0.285556 0.452621 0.261826
-0.472920 -0.248848 -0.278234
0.791602 -0.032631 0.175767
-0.395389 -0.237487 0.367126
-0.074990 0.267268 0.657745
0.132017 0.417340 -0.450646
-0.015959 -0.352542 0.631501
0.068936 0.056619 -0.874449
0.342166 -0.353162 -0.304676
0.038683 0.169725 0.791593
-0.132378 0.640527 -0.227097
0.233301 0.317603 0.449098
-0.007496 -0.341822 -0.650684
0.492873 0.369912 -0.137218
-0.646229 0.275306 -0.078469
-0.187407 0.456378 0.356217
0.699919 -0.178258 -0.121827
-0.172656 0.640825 0.186520
-0.001303 0.419098 0.579600
0.134097 0.387334 0.478572
-0.438559 0.458506 -0.102938
0.395295 -0.194712 0.409996
0.411907 0.191014 -0.397081
-0.001017 -0.679838 -0.319148
0.541650 0.111246 -0.347107
-0.323434 -0.197360 -0.479208
-0.007672 -0.648209 0.344122
-0.781325 -0.063109 -0.155565
0.364896 -0.365808 -0.269299
-0.384469 -0.152550 -0.462984
0.561967 0.232511 0.205523
0.731849 -0.147879 0.120276
-0.666263 -0.302172 0.031567
-0.036046 0.197516 -0.766439
-0.028845 0.062764 0.908393
-0.070628 -0.428720 -0.500654
0.542747 0.286821 -0.170434
