-0.254411 -0.013622 0.493356
-0.248855 0.104803 -0.228793
0.178176 0.245305 -0.380615
-0.030773 0.131220 -0.587964
0.235082 -0.012698 0.329124
-0.124723 0.140770 0.384548
-0.065415 -0.469516 0.610251
-0.046787 -0.012543 -0.516670
-0.213459 -0.213066 0.863903
-0.215239 0.037164 0.455293
0.297772 -0.174782 0.522828
0.170535 -0.366693 0.780746
0.035881 -0.235023 0.952491
0.168699 0.231267 -0.271793
0.257029 -0.116985 0.433658
0.216888 -0.329691 0.759718
-0.276470 -0.238685 0.736316
-0.240173 -0.189041 -0.000723
-0.254545 -0.086772 -0.007508
-0.190501 -0.072339 -0.434393
-0.038340 0.197428 0.148826
0.131816 -0.435408 0.488072
0.151828 0.208969 -0.062154
-0.068606 -0.271899 -0.245843
-0.098849 0.176358 0.182143
-0.252545 0.154681 -0.271534
-0.154244 0.196563 -0.190717
-0.291287 0.011712 0.622504
-0.097483 -0.456930 0.589435
-0.253294 -0.198561 0.175565
0.237610 -0.219886 0.827287
-0.116887 0.154542 0.276207
0.360735 -0.153582 -0.377512
0.084906 0.193984 0.053040
-0.059078 -0.451821 0.736298
-0.210507 -0.288811 0.191169
0.140319 -0.309315 -0.058298
0.013490 0.131093 -0.589824
0.153590 0.149663 0.671714
0.011315 -0.163410 -0.453629
0.057725 -0.251715 0.954636
0.256422 -0.010974 0.763079
0.113621 -0.398162 0.186825
-0.149800 0.191859 0.608426
-0.245604 -0.199839 0.397770
0.026516 0.256436 -0.244234
0.080198 -0.434554 0.332067
-0.220417 0.199962 -0.274595
-0.142204 -0.425323 0.652771
0.168376 -0.414287 0.543786
-0.108404 -0.227292 -0.274678
-0.092879 0.168392 0.466359
-0.080316 -0.067660 -0.510288
-0.133511 0.192165 -0.058350
-0.140202 0.159462 0.174517
-0.285558 -0.165367 0.751019
0.123097 0.258892 -0.317223
0.245505 -0.152423 -0.010311
-0.324377 -0.098456 -0.411464
-0.100229 -0.202601 -0.348612
-0.228905 0.007827 0.784577
-0.254221 -0.268795 0.761944
0.254970 -0.012334 0.502108
0.233267 0.183771 0.373041
0.034418 -0.425407 0.173430
0.258178 -0.128308 0.223159
-0.062038 -0.397553 0.030872
0.136567 -0.340999 0.857041
0.270936 0.097089 0.488132
-0.188916 -0.300847 0.040692
0.212865 -0.051110 -0.175203
0.192599 0.234695 -0.327571
0.291561 0.121255 0.517647
0.283975 0.082377 0.547820
-0.192472 0.082479 0.331730
-0.042247 -0.033364 0.885196
-0.259278 0.004427 0.741844
0.252349 -0.132193 0.381056
0.312025 -0.157712 0.612417
-0.227004 -0.350746 0.684474
0.249682 0.095158 0.707791
0.123999 -0.328059 0.883166
-0.283094 0.106236 0.072911
-0.190185 -0.396608 0.544070
-0.128218 -0.375825 0.820112
0.067895 0.131244 0.653580
0.283891 0.053585 0.633971
0.113500 0.231113 -0.549860
0.293168 -0.115412 0.516451
-0.244612 -0.294588 0.755278
-0.220535 -0.013932 -0.028305
0.056449 -0.357306 -0.079023
-0.280736 -0.125043 -0.312381
0.149487 0.157949 -0.514525
0.247192 -0.198968 0.352060
0.088577 0.165411 -0.581473
-0.121127 0.103387 0.723069
-0.282807 0.170875 0.079699
-0.031018 0.270785 -0.405500
0.409303 -0.126166 -0.470043
-0.131275 -0.368835 0.092006
0.206736 -0.375154 0.656479
0.282219 0.165084 0.411545
-0.264668 -0.070850 -0.279350
-0.186996 0.064560 -0.093851
-0.245980 -0.062484 -0.258970
-0.113360 -0.347315 0.874752
-0.362001 -0.095645 -0.337517
0.210876 0.048998 0.329185
0.300048 -0.055596 0.670596
0.265923 -0.160005 0.801577
-0.312731 -0.105761 0.626383
-0.220349 -0.140795 0.866510
-0.234465 0.184075 0.372345
0.216072 0.118843 0.707824
-0.138836 0.140588 0.280888
-0.271466 0.031466 0.696871
0.217463 0.047416 -0.026532
-0.347540 -0.099096 -0.406560
-0.139932 -0.074018 0.904765
0.186111 -0.150347 -0.219037
0.251229 -0.073873 0.313518
0.281277 -0.026747 0.544988
0.251165 -0.119411 0.410867
-0.266720 0.186984 0.095008
-0.285256 0.186201 -0.027015
-0.108721 0.127617 -0.517989
-0.259497 0.004280 0.511711
0.106547 0.174986 0.165098
0.232977 0.024104 0.256594
0.306426 -0.203618 0.631067
-0.007888 -0.478760 0.649584
-0.299698 -0.218417 0.615057
-0.017772 -0.417107 0.082212
0.179674 0.244402 -0.356658
-0.174063 0.097412 0.387194
0.273701 0.163404 0.625503
-0.164772 0.007572 0.836383
0.103091 -0.074975 -0.501316
-0.057866 -0.094040 0.922837
0.267770 -0.024902 0.518647
-0.147315 -0.229748 -0.174774
0.150405 0.174641 -0.160438
0.159988 -0.331511 0.036405
-0.282464 0.002967 -0.348149
0.142267 -0.120308 -0.451962
0.226361 -0.003313 -0.415661
-0.209071 0.135824 -0.182570
-0.246073 0.118411 0.698044
-0.120767 -0.361845 0.017182
0.243029 -0.070542 0.387085
-0.253403 -0.176111 0.217162
-0.401228 -0.156736 -0.383198
0.066129 -0.338255 0.923123
0.123056 -0.144449 -0.434093
0.152996 -0.228031 -0.155916
-0.133353 -0.347403 0.854040
0.246845 0.059488 -0.219962
0.241884 0.008330 0.492386
0.246086 0.059131 0.189588
-0.123913 0.226794 -0.214175
-0.068892 -0.407182 0.099761
0.146734 -0.266073 -0.114669
0.179954 0.109907 -0.477584
-0.249605 -0.283420 0.470523
-0.200754 -0.143702 -0.459755
0.257370 -0.211989 0.797855
-0.235717 0.152819 0.402182
0.079012 -0.465790 0.546618
0.101139 -0.011086 -0.517547
-0.285277 -0.228592 0.711043
0.113018 0.201261 0.003354
0.171342 -0.399086 0.686322
-0.043373 0.029098 0.820085
-0.134639 -0.435509 0.591709
-0.219871 0.206831 -0.447264
0.248562 -0.193444 0.819474
0.208125 -0.306461 0.362236
0.212194 -0.316290 0.792239
0.259410 -0.311876 0.568451
-0.149596 0.127362 0.316474
0.203020 0.016731 -0.115930
0.244180 -0.006931 0.247614
0.276463 0.126524 -0.361226
0.182918 -0.401794 0.524357
-0.192008 0.050395 -0.465416
-0.326873 -0.111690 -0.491782
0.198744 0.234572 -0.366767
-0.269168 -0.110204 0.183110
0.167285 0.109563 0.421949
-0.095867 0.145309 -0.547753
-0.292096 -0.242497 0.591583
-0.247672 0.188625 -0.409500
-0.276196 0.137515 0.440268
0.068145 -0.445979 0.742003
0.180172 -0.179867 -0.134805
0.088174 -0.313555 -0.134349
-0.076056 -0.332548 -0.107074
0.053588 0.104487 0.700204
-0.065895 -0.336622 0.925066
0.008839 -0.383005 -0.045631
-0.251434 -0.080271 0.282370
-0.012358 -0.176820 -0.435160
-0.278257 -0.040094 0.735682
0.276295 0.099419 -0.342106
0.008076 0.089635 0.722843
-0.011243 0.199628 0.165751
-0.214271 -0.020018 0.828281
0.057620 -0.223705 0.952151
-0.272801 -0.295228 0.629017
0.101152 0.244820 -0.239014
0.161204 -0.415303 0.497547
-0.046169 0.210030 -0.061459
-0.091618 0.160301 -0.569068
-0.052411 0.201934 0.083093
-0.259612 -0.317630 0.647288
0.197999 -0.132824 -0.232212
0.296174 -0.147791 0.518199
-0.111375 -0.440633 0.445871
-0.255600 -0.038604 -0.005649
0.046381 -0.225974 -0.352480
-0.280686 0.015873 0.681688
-0.056313 0.015556 -0.518255
-0.131731 0.063871 0.779266
-0.218124 -0.039520 -0.183460
0.160084 -0.405589 0.433993
0.212110 0.147816 -0.206740
-0.301156 -0.060456 0.581940
-0.185691 -0.324975 0.186289
-0.121574 0.186777 -0.134058
-0.021820 0.212960 0.003219
-0.382298 -0.107430 -0.431286
0.021550 -0.428952 0.197261
-0.083408 0.171231 0.563506
0.220429 0.015073 0.395498
-0.276429 0.079794 0.039140
-0.311095 -0.091871 0.646603
-0.272548 0.218272 0.578242
0.013397 0.195791 0.263372
0.195453 -0.243505 0.872532
0.206827 -0.094386 -0.195097
-0.226466 0.045142 -0.172503
0.207076 -0.147676 -0.284927
-0.273233 -0.274801 0.692282
0.059415 -0.428655 0.267727
-0.086459 0.265981 -0.379503
-0.182245 -0.182717 -0.362607
0.292544 -0.233077 0.681550
-0.134582 -0.408409 0.746336
-0.287270 0.108588 0.592870
0.191977 -0.260517 -0.026872
-0.213341 -0.161686 -0.446133
0.063621 0.167163 0.431062
0.205523 -0.136243 -0.262261
0.194971 -0.301988 0.149153
-0.173944 0.159411 0.410021
0.257912 0.164246 -0.294222
0.237440 0.133019 0.690532
0.012518 0.197546 0.209481
-0.019543 -0.291698 -0.244160
-0.014382 -0.463997 0.420807
-0.011762 -0.426080 0.146301
0.186600 -0.184181 -0.100940
0.219790 0.148541 0.679653
-0.153349 -0.005713 0.852915
0.267515 -0.283233 0.528035
0.222831 -0.363002 0.548154
-0.082429 0.183848 0.162600
0.281633 0.026607 0.667800
-0.282698 0.191548 0.574192
-0.204988 0.171759 -0.213877
0.303412 -0.178450 0.551109
-0.245171 -0.233983 0.808279
-0.227509 0.214027 -0.330015
0.054737 0.161090 0.518292
-0.222819 -0.170703 -0.425661
-0.190967 0.111837 0.435375
0.262500 0.038451 0.174440
0.086621 0.264787 -0.364075
-0.232901 0.105825 0.715603
-0.136032 -0.022403 -0.504418
-0.208591 -0.039856 -0.161455
-0.219205 -0.304795 0.418644
0.062306 -0.313703 0.940715
-0.252292 0.093608 0.709469
0.105689 -0.110920 0.927896
-0.289925 -0.091138 0.104154
0.183259 0.133208 -0.489200
0.094593 0.189134 -0.043080
0.060954 -0.419103 0.186450
0.032483 0.182053 0.379068
-0.196389 0.032164 -0.037042
0.262082 -0.310257 0.643685
-0.198038 0.133560 -0.049193
0.367964 -0.069083 -0.319339
-0.158449 0.101288 0.732314
0.151848 0.139308 0.243933
0.174611 0.132618 0.426419
-0.252281 -0.169941 0.241611
-0.022408 -0.152107 0.940226
0.112087 -0.301499 -0.122030
-0.234210 0.022599 -0.188687
0.263378 -0.070676 0.195927
0.000477 -0.362371 -0.097194
0.098650 -0.189212 -0.378856
0.224382 -0.293310 0.415060
-0.277033 0.103659 0.656557
0.147013 -0.422894 0.659754
0.011015 0.189012 0.368686
-0.117043 0.261857 -0.384223
0.102750 -0.032465 0.886165
-0.101179 0.179834 0.144656
-0.071073 -0.371963 0.875334
0.049759 0.201276 -0.614935
-0.107720 0.154909 0.324018
-0.243623 0.060164 -0.416153
-0.055707 -0.448419 0.374196
0.057973 -0.417446 0.162384
-0.064221 -0.209810 -0.369011
-0.129295 -0.434442 0.467855
0.096867 0.253308 -0.467534
0.105139 0.086888 -0.492897
0.309666 -0.126277 0.675502
-0.034694 -0.342530 0.927667
0.150824 -0.426811 0.529000
0.224244 0.167472 0.661874
0.004873 -0.416721 0.068940
0.240764 -0.218771 0.277451
0.233322 -0.173248 0.849563
0.100008 0.192931 0.088356
0.014409 -0.283301 0.952873
-0.159232 0.147987 -0.128318
-0.035890 -0.471119 0.479440
-0.215521 0.049330 -0.451741
-0.398876 -0.123152 -0.349424
-0.089831 -0.357596 0.880630
0.170584 -0.181796 -0.196230
0.223593 -0.267467 0.288984
0.232734 -0.244459 0.821412
-0.265872 -0.087849 0.794821
-0.023603 -0.355300 -0.107010
-0.086670 -0.201540 -0.368113
0.038147 0.065948 0.766038
0.036245 0.265792 -0.312992
-0.059079 0.196894 0.109333
0.006204 0.210428 0.041488
0.216411 0.118510 0.177709
0.287556 -0.261265 0.657145
-0.200441 -0.039759 -0.131443
-0.352343 -0.150363 -0.465754
-0.203890 0.183000 0.142459
0.264739 -0.120483 0.186897
0.264422 -0.109778 0.803620
-0.373236 -0.156224 -0.393676
0.147332 -0.280135 -0.091509
0.279089 -0.134009 0.131251
0.038029 0.176141 0.416137
0.150764 0.218540 -0.223383
0.228893 0.135616 0.422246
0.203325 -0.029687 -0.113876
0.238880 0.234122 0.593337
-0.128325 -0.095642 -0.473721
-0.217145 -0.270961 0.083830
-0.069367 0.123804 0.677178
-0.265379 0.101755 0.685886
-0.156440 0.125500 0.286332
0.010833 -0.262723 -0.302110
0.186101 0.227896 0.586501
0.287765 -0.128299 0.753357
0.252886 -0.177638 0.217956
0.159535 0.223582 0.570896
-0.216031 -0.236701 0.848849
-0.129167 -0.413729 0.341419
-0.272431 0.092118 -0.300496
0.136930 0.209390 -0.042388
0.123880 0.207396 -0.557270
-0.204929 0.055191 0.373949
0.105204 0.165048 0.276206
-0.204849 -0.120602 -0.072584
-0.250278 -0.335687 0.605859
0.273771 -0.182854 0.464261
0.043485 -0.415936 0.108834
0.006470 0.064075 0.765748
-0.012961 -0.432837 0.224018
0.071322 0.027601 -0.518019
0.232480 0.027285 -0.020963
0.170719 -0.196666 -0.150237
-0.286182 -0.248848 0.547769
-0.293566 0.171568 0.024028
-0.125489 0.237152 -0.237832
-0.208107 0.030329 0.785004
-0.019453 0.139811 0.629252
0.292686 -0.069304 -0.298510
-0.294800 -0.088217 0.722896
-0.289868 -0.143696 0.741204
0.272501 -0.047621 0.513842
-0.277909 -0.080428 0.163378
-0.260181 0.156460 0.405169
-0.028621 0.127972 0.656985
-0.009079 0.186583 0.381689
0.396903 -0.113822 -0.452826
0.295845 0.139341 0.496551
-0.284248 0.076298 0.073046
-0.223132 -0.015833 -0.179419
0.260058 0.190440 0.105626
0.088697 -0.453941 0.676001
0.240519 -0.047361 0.376167
-0.071966 -0.459012 0.682322
-0.056942 -0.296137 0.946827
0.165183 -0.035562 -0.474165
-0.275821 0.145221 0.100757
-0.074132 -0.414459 0.173189
0.257197 -0.108703 0.268711
-0.285451 0.030185 0.127702
0.284162 0.144029 0.025195
0.094455 -0.360500 -0.024050
-0.238096 -0.224071 0.375672
-0.042885 0.267134 -0.322416
-0.069173 -0.402836 0.072857
0.010524 -0.333096 -0.161055
0.085711 0.260885 -0.446210
-0.104866 0.247392 -0.477016
-0.095642 -0.390754 0.075969
-0.267213 0.161795 0.640797
-0.183880 -0.286923 0.859032
-0.213718 0.126124 -0.469838
-0.095745 -0.398606 0.124730
-0.179093 -0.323726 0.119162
-0.095888 0.193204 -0.006055
-0.228846 -0.050967 -0.219464
-0.285423 -0.065825 0.066432
0.194597 -0.109503 -0.151187
-0.292895 -0.033815 0.565469
0.126290 0.233721 -0.230571
0.229776 0.036214 0.483272
0.039005 -0.284373 -0.250091
0.042736 -0.436500 0.290848
-0.157544 0.148124 0.427301
-0.206418 -0.293700 0.164924
0.107535 -0.258651 -0.209358
-0.092440 0.023288 0.830142
-0.085145 0.260734 -0.289811
-0.223347 -0.302496 0.786132
0.166659 -0.408526 0.660974
0.270608 0.147822 -0.328649
0.222844 -0.114576 -0.261885
0.010519 -0.114590 0.929035
0.145614 -0.376154 0.213596
-0.029277 -0.265210 -0.292222
0.005045 -0.360307 0.912758
0.123461 0.160888 -0.531473
0.309652 -0.170693 0.590218
0.288472 -0.097293 -0.430950
0.273677 -0.083827 0.035111
-0.013593 0.055722 0.778119
0.018401 -0.431329 0.223269
-0.203309 0.092700 0.239365
0.276865 -0.086635 -0.295547
0.045638 -0.330731 0.934023
-0.079821 -0.182342 -0.404289
-0.215341 -0.299567 0.334112
0.298088 0.210670 -0.006032
0.260351 -0.083978 0.464907
0.245548 0.191937 0.634394
-0.181053 -0.275092 -0.028681
0.125521 -0.015034 0.867721
-0.072753 -0.430083 0.299837
-0.152007 0.244957 -0.439903
0.303141 -0.214789 0.655835
0.215723 0.152294 -0.052702
-0.226672 -0.084358 -0.425394
-0.235169 -0.149978 0.848745
-0.263626 0.156465 -0.400277
0.237184 -0.011575 0.302034
0.095118 0.116422 0.694335
0.126898 -0.433719 0.668333
-0.116097 0.163016 -0.540337
-0.174507 -0.174281 -0.158236
-0.124151 -0.232458 -0.230866
-0.225812 0.156379 0.145690
-0.135084 0.145518 0.667755
0.219260 0.176547 -0.061912
-0.310366 -0.143663 0.584353
0.144992 0.254529 -0.335616
-0.101481 0.197875 -0.586003
0.125595 -0.409917 0.757970
-0.300618 -0.152238 0.542198
-0.284861 -0.142327 0.487884
-0.092331 -0.456179 0.643635
0.123633 -0.228489 0.938832
-0.215935 0.011649 -0.157241
-0.039052 -0.080664 0.915962
0.172131 0.097340 0.401927
-0.058238 -0.459738 0.704739
0.090314 0.040361 -0.509366
-0.251029 -0.176686 0.303868
-0.100962 -0.291158 0.932027
0.236121 -0.284792 0.781809
-0.212728 -0.094185 0.869880
-0.037349 0.103933 0.705130
-0.149955 -0.403662 0.379810
-0.114484 -0.390545 0.141238
0.308022 -0.150106 0.677839
0.221021 0.018426 -0.166276
0.117410 0.199389 -0.030833
0.277783 -0.020874 -0.284947
0.142646 -0.159765 0.928403
0.285143 -0.249924 0.547332
-0.091092 -0.396786 0.099163
-0.205253 -0.278020 0.035843
0.174597 0.183172 -0.062743
-0.162835 0.170404 -0.162658
0.012435 -0.446429 0.330901
0.043707 0.150370 -0.601406
-0.259755 -0.301321 0.517859
0.121558 -0.081673 0.911998
0.204275 0.074044 0.271348
-0.072371 0.151880 0.617463
0.076082 0.264201 -0.411715
-0.177153 -0.054886 -0.453850
0.075353 0.179812 0.274552
-0.115251 -0.329197 0.893201
-0.203834 0.101754 0.214996
0.248146 0.087760 0.472632
-0.226589 0.019361 0.468927
0.144277 -0.419576 0.685656
0.235492 -0.334297 0.489420
0.280434 0.049778 0.660345
0.214663 -0.302699 0.395180
0.111263 0.009534 0.845856
0.106024 -0.409190 0.245270
0.361662 -0.158598 -0.401243
-0.292360 -0.182496 0.518506
-0.173420 0.182556 -0.190723
0.197944 -0.385138 0.488482
-0.095010 -0.369034 0.860540
0.110804 0.202267 0.030328
-0.070532 -0.376664 -0.023361
-0.254205 -0.140162 0.241370
-0.305826 0.172567 0.497484
0.289752 -0.259051 0.626426
0.271888 -0.107350 0.475961
-0.230273 -0.004043 0.359722
-0.139613 0.256495 -0.376443
-0.232128 0.239513 0.588981
0.236266 -0.346244 0.604524
-0.012121 -0.098534 0.921406
-0.038401 -0.316909 -0.182743
0.171290 -0.169172 -0.259837
-0.111196 -0.310862 0.914682
0.078376 -0.036486 -0.517264
0.086441 0.005101 0.850020
0.267368 0.140855 0.120376
0.159317 -0.298252 -0.041347
-0.078123 0.164896 0.443479
0.043450 0.133044 0.634969
0.051127 -0.462956 0.441367
0.006490 -0.413031 0.045287
0.278173 0.090545 0.652375
0.255891 -0.123445 0.291429
0.148145 -0.366888 0.166830
0.059330 0.041988 0.804990
0.189908 -0.300331 0.068934
0.284618 -0.020731 0.697276
0.263079 -0.309793 0.592858
-0.280095 0.013262 0.146143
0.221434 0.072299 -0.448686
0.126696 0.249184 -0.271783
-0.135122 -0.359930 0.057273
0.181922 0.232299 -0.291361
-0.275233 -0.063336 0.500717
0.277811 -0.002071 0.551608
0.258713 0.051761 -0.246034
0.246292 -0.331739 0.626174
0.005339 -0.452807 0.359948
0.433881 -0.129717 -0.391544
-0.045922 0.171986 0.508254
-0.201218 0.159518 0.678066
0.276847 -0.284769 0.617037
0.036390 0.200670 0.094474
0.187420 -0.154778 -0.130318
-0.134400 -0.211908 -0.252846
0.245255 0.009256 0.767882
0.298318 0.161234 0.452829
0.097538 -0.308893 0.924418
-0.253337 -0.131790 0.346394
0.153357 0.214695 0.106207
-0.221988 0.023944 0.348995
-0.143066 -0.275167 -0.097702
-0.283148 -0.059395 0.147959
-0.019872 0.265809 -0.304303
-0.238198 0.097067 -0.201540
-0.098148 -0.114690 0.929456
0.124952 0.074422 0.764753
-0.239361 -0.037844 0.447912
0.078617 -0.186493 -0.395869
0.230928 -0.250811 0.101545
0.107249 0.105485 0.713751
0.227700 0.041061 0.238850
0.291196 0.205585 0.544723
-0.041346 -0.129987 -0.481524
0.274618 0.035391 0.151376
-0.146521 -0.328509 -0.019324
-0.062595 -0.390454 0.007900
0.108574 -0.178397 0.942225
0.093811 -0.446772 0.700942
0.255803 -0.077871 0.236273
0.292868 -0.005692 0.645801
-0.176426 -0.011543 0.848774
0.250088 -0.087752 -0.275990
-0.082793 -0.165922 -0.425395
-0.250443 -0.219135 0.056016
0.278229 0.110560 0.120665
-0.261398 -0.149151 -0.323776
0.218253 0.200409 -0.270144
-0.196172 0.046678 -0.107601
0.324641 -0.159162 -0.446630
-0.147406 -0.361385 0.124954
-0.047817 -0.385761 -0.021629
-0.286279 0.066682 0.098428
0.012887 0.248712 -0.211739
0.204531 -0.018770 -0.067096
-0.155235 -0.271138 -0.077337
0.154550 0.154165 0.162534
-0.305608 -0.195381 0.604497
0.243596 -0.165450 -0.336751
-0.185234 -0.399018 0.515789
0.248697 -0.330927 0.590820
-0.184807 0.124554 0.206981
-0.095901 -0.402790 0.156546
0.073039 0.188224 0.163083
0.064395 -0.099102 0.924345
-0.199429 0.160431 -0.192903
0.282195 -0.037911 0.151009
0.006685 -0.150699 0.938559
0.126866 -0.384623 0.163530
0.074526 0.218514 -0.599000
-0.278389 0.038859 0.674875
-0.154466 -0.052518 0.889080
0.047616 0.003600 -0.517437
-0.148155 -0.364627 0.151400
-0.293495 -0.115368 0.734652
0.173637 -0.037738 0.869976
0.293662 -0.003187 0.619202
-0.181630 -0.150988 -0.166248
0.284405 -0.116919 0.493932
-0.092764 0.263339 -0.407506
0.106687 0.261829 -0.402719
-0.269841 -0.115007 0.029654
-0.290765 -0.249523 0.660248
-0.164571 -0.350639 0.175429
-0.243299 -0.070990 0.405552
0.244819 -0.109719 -0.283245
-0.144163 0.211553 -0.205908
0.038970 -0.040847 0.890203
-0.247680 -0.063023 0.311801
-0.074768 0.054859 0.786837
0.262457 -0.004457 -0.266237
-0.078147 -0.408824 0.138460
0.019325 0.242364 -0.570653
-0.201634 -0.368934 0.708542
-0.112208 -0.082123 0.915653
0.086503 0.182222 0.186552
-0.206426 0.070074 0.453130
0.274104 0.141820 -0.003456
-0.216805 -0.176322 0.866278
-0.103758 0.201035 0.050060
0.134371 0.217829 0.534981
0.179342 -0.343626 0.262090
-0.092085 0.172657 0.539309
-0.047995 -0.356229 0.912844
0.099868 0.235310 -0.215535
-0.234634 -0.061721 0.829661
0.309463 -0.178846 0.622660
0.102424 -0.345540 -0.048079
-0.161873 0.159868 0.158324
-0.138033 0.190341 0.122263
0.074692 0.192571 0.126405
0.222736 -0.074201 -0.217149
0.029876 -0.431917 0.247111
-0.261603 -0.207094 0.105125
-0.244979 -0.053426 0.339556
-0.085815 -0.380914 0.010264
0.245813 -0.068931 0.360039
0.221571 0.015273 0.444785
0.247953 -0.170568 0.827562
-0.037102 -0.475040 0.516405
0.190495 0.013282 -0.471999
-0.142669 -0.357187 0.831276
0.274154 -0.081911 0.495622
-0.171611 0.056154 0.780510
-0.103509 0.073734 0.764015
-0.251756 -0.164822 -0.341066
-0.052435 0.243172 -0.570174
-0.252567 -0.071897 0.811138
0.274765 0.095212 0.031514
-0.287745 -0.022861 -0.293860
0.028850 -0.412155 0.055139
0.174887 -0.182596 -0.351280
0.211393 -0.290196 0.822161
-0.237510 -0.027604 0.364857
0.144215 0.188836 0.118231
0.016372 0.194086 0.299520
0.010269 -0.408848 0.845572
0.267434 -0.104566 0.023876
-0.125138 -0.202225 -0.305471
0.190127 -0.325053 0.249888
0.015272 0.216008 -0.596338
-0.351363 -0.158319 -0.434327
0.195871 -0.386792 0.632794
-0.234964 -0.243142 0.392283
-0.037054 0.169667 0.536255
0.273879 -0.023654 0.169426
0.208187 -0.082348 -0.437348
0.072132 -0.246011 -0.291136
-0.304804 -0.056090 0.618473
-0.262335 -0.295893 0.695283
0.223154 -0.154021 -0.305077
0.104164 -0.392660 0.110819
0.282565 0.029637 0.066827
-0.086641 0.216977 -0.157058
-0.194147 -0.361581 0.743970
0.304444 -0.146121 0.546851
-0.162614 0.249383 -0.389084
0.230342 0.185047 -0.461767
0.231631 0.198712 -0.071588
0.022670 -0.295532 -0.236666
-0.175717 -0.031285 -0.469040
0.118657 0.251282 -0.457448
0.100409 0.088529 0.739488
-0.040741 0.188178 0.246288
-0.084749 0.254478 -0.504763
0.181951 -0.323190 0.170931
0.013360 0.177460 0.447791
-0.186086 -0.385152 0.693773
-0.235364 -0.085877 -0.027458
0.055898 -0.022520 -0.517805
-0.010589 -0.470715 0.697476
-0.242909 -0.086202 0.830592
0.018372 0.148544 -0.606363
0.158324 0.160417 0.417866
-0.266349 0.104456 0.469901
-0.006856 0.224606 -0.112504
0.066083 -0.069342 -0.511159
-0.219485 0.128586 0.702225
0.384948 -0.104818 -0.399400
0.277301 -0.136040 0.473527
-0.175612 0.231924 -0.456730
-0.253873 -0.047874 0.470411
-0.125757 -0.440331 0.523910
0.018039 0.113985 -0.572250
-0.200950 -0.284322 0.838580
-0.268192 0.203774 0.601476
0.231245 -0.012814 0.367923
-0.213540 -0.243289 -0.001638
-0.280496 0.056557 0.659259
0.249876 -0.078138 0.336996
-0.191331 -0.026530 -0.449680
-0.044726 0.263888 -0.290782
-0.033026 -0.421865 0.132272
0.001551 -0.288839 -0.256446
0.062267 0.188393 0.242146
-0.176120 -0.258905 -0.050657
-0.061663 0.259584 -0.268299
0.149964 0.202698 0.407206
0.239164 -0.006025 0.276797
-0.188659 0.112911 -0.042443
0.294223 -0.025222 0.666133
0.328859 -0.147612 -0.352807
0.286950 -0.088956 0.083842
-0.197758 0.001529 -0.093968
-0.018073 -0.450847 0.356657
0.211454 0.228775 -0.387589
0.195992 -0.108488 -0.117987
0.174219 -0.313271 0.029709
-0.194469 -0.386137 0.665572
-0.023970 0.186335 0.360574
-0.275545 0.119707 0.111923
-0.270198 -0.173177 -0.408982
-0.012510 0.201511 0.137220
0.263242 -0.059589 0.008801
0.235996 0.193511 -0.289350
0.211861 0.004659 -0.439511
-0.231174 -0.251161 0.256202
-0.102634 0.263527 -0.338622
-0.156897 0.029174 -0.490947
-0.148173 0.137827 0.686778
-0.114389 0.193185 0.527483
0.219073 -0.122631 -0.044460
-0.038007 -0.365785 -0.075591
0.147838 0.147240 -0.091512
-0.199324 -0.046604 -0.102799
0.214052 0.167986 0.148144
-0.009381 -0.478806 0.526030
0.051906 -0.244884 -0.312109
-0.276148 0.115222 -0.349819
0.037272 0.268234 -0.375394
0.215548 0.174575 -0.480090
0.310069 -0.128077 0.579270
0.123629 -0.430538 0.693215
0.065447 0.259964 -0.517806
0.316374 -0.099155 -0.427516
-0.272185 0.023026 0.537179
-0.018079 0.211136 0.032943
0.004070 -0.481330 0.628001
-0.291264 -0.251756 0.635144
0.200704 0.009053 -0.056739
0.010606 0.240005 -0.180861
-0.248177 -0.075952 0.347652
0.034295 0.265283 -0.520686
-0.146888 0.137943 0.257824
0.189374 -0.297738 0.040611
-0.099731 -0.021461 0.879808
0.200590 0.049401 0.768648
-0.054630 -0.172478 0.946216
0.072786 -0.370688 -0.028618
-0.306723 -0.060131 0.643752
0.067856 -0.466315 0.640105
-0.170782 -0.143416 -0.447815
-0.309146 -0.185358 0.630377
-0.172099 0.087477 0.745827
-0.026914 -0.444312 0.328130
-0.200226 -0.072433 -0.099264
-0.126745 -0.195256 -0.332779
-0.100967 0.057852 0.784597
0.190837 -0.137031 -0.197045
0.176112 0.093702 0.376506
0.224430 0.109547 -0.458949
0.268407 -0.260823 0.492271
0.280312 -0.201516 0.751717
-0.243218 -0.025215 0.269396
0.281966 -0.082432 0.060565
-0.354548 -0.113769 -0.487422
0.169653 0.185811 -0.199604
-0.096160 -0.450903 0.670367
-0.250534 -0.148873 0.825937
0.172689 0.129796 0.224766
0.293101 -0.203168 0.524681
-0.230984 -0.283551 0.431007
0.243684 -0.233807 0.083192
-0.002741 -0.459747 0.393173
0.144292 -0.422723 0.456058
0.010757 0.231052 -0.141577
0.079230 -0.457317 0.459578
0.192631 -0.118161 0.892101
0.274329 -0.112835 0.160940
0.204177 0.173203 -0.220830
-0.278398 -0.151864 0.772504
0.276859 -0.064191 0.758768
-0.171443 0.102200 0.363647
-0.126847 0.216287 0.012401
-0.295401 -0.154387 -0.471839
-0.176817 0.243249 -0.325474
-0.117479 -0.251550 -0.203399
0.078624 -0.028935 0.882873
0.258072 -0.110803 0.243397
0.277556 0.054633 0.552448
0.092242 0.133945 0.658372
-0.066320 -0.140098 0.939613
-0.219156 -0.085013 -0.225993
-0.000162 -0.435556 0.248768
0.151350 -0.398540 0.353664
-0.283252 -0.137623 0.093382
-0.298388 -0.061043 0.691070
-0.036712 -0.252058 -0.313172
-0.312500 -0.160560 0.635967
-0.203578 -0.383846 0.513613
-0.105794 -0.177385 -0.396301
-0.224898 -0.279071 0.405068
0.150998 0.144289 0.215482
-0.283981 0.222303 0.545004
-0.236709 0.082688 0.725961
0.055661 0.193432 0.189608
0.183278 -0.208281 -0.092503
-0.283488 -0.008442 0.698517
-0.221030 -0.361677 0.510346
0.180434 0.153385 0.412467
-0.254393 -0.116276 0.323390
0.105375 -0.288301 -0.157343
0.122449 0.118359 0.699379
-0.284299 -0.143944 -0.330877
0.123895 0.201745 0.080613
0.259525 0.007888 0.740044
0.189649 0.054946 -0.037764
0.032244 0.098236 0.708103
-0.159979 -0.329810 0.846568
0.247588 -0.199335 0.328335
0.187522 -0.390592 0.664031
0.276922 -0.167947 -0.431674
0.100432 -0.439177 0.395652
-0.126312 -0.034333 0.886680
-0.227371 -0.257795 0.162389
0.300871 -0.119848 0.539214
-0.174581 -0.399057 0.458973
0.056749 0.195383 0.144940
-0.131133 0.254709 -0.299645
-0.042858 0.205804 -0.611603
0.252715 -0.167532 0.329986
-0.098055 -0.386652 0.833605
0.289277 0.190315 0.563462
0.238029 0.142836 -0.041784
-0.080446 -0.392969 0.045901
0.129376 -0.431101 0.437186
0.047019 -0.466526 0.691173
-0.172120 0.231918 -0.275912
-0.172243 -0.342309 0.817483
-0.136022 -0.398795 0.768015
-0.192941 0.179192 0.654843
-0.256425 -0.116713 0.235724
-0.167125 0.122889 0.429054
-0.046924 -0.346057 -0.110287
-0.335617 -0.161516 -0.391421
-0.049515 -0.465562 0.459948
0.212949 0.088715 -0.168583
0.266862 -0.026562 -0.367710
-0.297701 -0.228279 0.636373
0.235440 0.167793 -0.250351
0.028735 0.267102 -0.335695
-0.014377 0.197553 0.189877
-0.339202 -0.108288 -0.334282
0.247503 0.033887 0.740152
-0.012368 -0.144021 -0.473401
-0.002537 0.097955 -0.558876
0.256513 0.021551 0.191153
-0.218039 0.036527 -0.026008
0.218635 0.219812 -0.411152
0.289676 -0.014187 -0.346393
-0.298001 0.207057 -0.016857
0.176012 -0.095202 -0.470804
-0.151900 0.225003 -0.489227
0.009047 0.197099 0.235330
0.240390 -0.224490 0.325323
0.274070 -0.061058 -0.284711
0.224380 -0.290324 0.801940
-0.213042 0.094640 0.729717
0.096080 0.165522 0.595420
0.125244 0.180162 0.598469
-0.122059 -0.118930 0.926757
0.278167 0.181496 0.084744
0.222401 -0.167716 -0.326593
0.181504 0.116557 -0.128010
0.163586 -0.390364 0.374036
-0.272081 0.143427 -0.365577
0.162164 -0.076149 -0.462071
-0.275235 0.112558 -0.321731
-0.067614 0.183537 0.216307
0.279607 -0.148061 0.772746
-0.219188 -0.287270 0.311251
-0.159387 -0.237566 0.911163
0.113222 -0.444048 0.475324
-0.026671 -0.300789 -0.223605
0.252566 -0.095446 0.821007
0.077806 -0.450607 0.413211
0.066857 0.184658 -0.617618
0.207197 0.202788 0.624469
0.187826 0.156059 0.672217
0.256237 -0.136748 0.005003
0.260397 0.064153 0.504728
0.262971 0.145682 -0.026233
0.050161 0.181639 0.354951
-0.242425 -0.330789 0.690091
0.209793 0.072094 -0.029765
-0.116726 -0.443366 0.493830
0.283532 0.102395 0.099121
-0.312218 -0.076128 -0.304131
0.177007 -0.321101 0.107684
0.030247 -0.449581 0.761077
-0.125711 0.214971 0.047235
0.086896 0.236384 -0.580263
-0.058351 -0.466721 0.486854
0.123567 -0.234793 -0.223544
0.151824 -0.380933 0.784135
-0.158453 0.130082 -0.100130
0.105072 -0.379894 0.045102
-0.131429 -0.380269 0.164316
0.120131 0.201530 -0.156876
-0.265211 -0.169693 0.798113
-0.000849 -0.239926 -0.345421
0.297384 -0.085908 0.713088
-0.036958 0.108051 -0.560797
0.293928 -0.224446 0.551116
-0.062144 0.262897 -0.505090
-0.291960 -0.008302 0.593638
0.093894 -0.411681 0.223975
0.222190 -0.272864 0.311963
-0.075215 -0.243357 0.951935
0.206372 0.120757 -0.473498
-0.248880 0.213014 0.613430
-0.172913 0.143473 0.173782
0.117860 -0.446076 0.589549
0.029850 -0.166645 0.942572
-0.315763 -0.103647 -0.467557
0.247794 0.008550 0.209859
0.289441 -0.010535 -0.303642
0.272217 -0.288131 0.667407
0.174667 0.154836 -0.502278
0.139600 0.147336 -0.069156
0.263765 -0.093990 0.199381
0.239934 -0.218312 0.217413
-0.189951 -0.159252 -0.438217
0.172547 -0.050825 -0.457111
0.107165 -0.239237 -0.248807
-0.237995 -0.046769 -0.241533
-0.369888 -0.154815 -0.448505
0.275522 0.115489 -0.383906
-0.271593 0.063774 0.145902
0.195407 -0.306753 0.185915
-0.276936 0.178120 0.602105
0.015363 0.270864 -0.438712
-0.221809 -0.268163 0.230147
-0.236881 0.126211 -0.212485
-0.241989 -0.216989 0.346799
-0.037082 -0.175864 -0.431414
0.368000 -0.096577 -0.381419
-0.096509 0.061946 -0.494391
0.250121 -0.055561 0.288232
-0.303972 -0.125759 -0.324797
0.305544 -0.090296 -0.308713
-0.071987 0.200717 -0.085181
0.153291 -0.128612 0.917827
-0.250010 -0.257236 0.446439
0.263058 0.206886 -0.068017
-0.018710 0.248782 -0.216327
-0.197654 -0.101282 -0.105692
0.188063 -0.082804 -0.454088
-0.209598 0.178299 -0.481629
-0.286853 -0.166607 -0.437666
0.178267 -0.134685 0.903118
-0.220569 -0.039418 -0.405537
0.038264 0.269046 -0.425988
0.272294 0.114033 0.015682
-0.240276 -0.332315 0.511259
0.124415 0.185471 -0.547125
0.122610 0.145950 0.330540
-0.073103 0.098984 0.719715
0.083018 0.264592 -0.340405
0.180700 0.075699 -0.054384
-0.100850 -0.380830 0.033341
0.291557 -0.242124 0.571142
-0.071783 0.199925 -0.046516
0.127695 0.255660 -0.430894
-0.300093 -0.007174 -0.328824
0.116053 0.256658 -0.294274
0.150479 -0.185691 -0.350076
0.125107 -0.376282 0.098894
-0.095007 0.206139 -0.136184
-0.103527 -0.406303 0.210536
0.259183 -0.036405 0.495091
0.217189 -0.284845 0.367910
-0.225552 0.020718 0.316958
0.182259 0.180732 0.142245
-0.043019 -0.232397 -0.344461
-0.277495 -0.235280 0.498076
-0.038139 -0.423392 0.818866
-0.049818 0.066847 -0.530213
-0.182498 -0.306246 0.842509
-0.074132 -0.241137 -0.301627
0.147739 -0.250681 -0.135366
0.205363 -0.067491 -0.412695
-0.245498 -0.262972 0.787333
-0.297082 0.142527 0.499241
0.154426 -0.191671 -0.244359
-0.032800 -0.475571 0.652869
-0.303946 -0.105082 0.563650
-0.044331 0.209025 -0.030598
-0.293172 -0.151102 0.509006
0.186886 0.105434 -0.039995
-0.045369 -0.301893 -0.207829
0.175116 -0.147503 -0.441931
-0.083846 0.196862 0.066487
-0.278841 0.125071 0.462099
-0.153789 0.146339 0.194341
0.018664 -0.092757 0.919674
-0.231750 -0.064001 -0.393642
-0.150442 -0.148513 -0.434933
-0.236075 -0.018493 0.341137
-0.214546 0.226377 -0.346279
-0.110088 -0.449871 0.570600
-0.215793 -0.118431 -0.048767
-0.196813 -0.331238 0.305052
-0.006168 -0.431200 0.197090
0.020478 -0.405952 0.026575
-0.220063 0.144278 -0.050799
0.172631 0.138316 -0.136553
-0.208602 0.096999 -0.156723
-0.253049 -0.014966 -0.255936
0.288501 -0.262754 0.593725
0.178977 0.137029 -0.048315
0.024647 -0.466726 0.442563
0.258219 0.183715 -0.361768
0.071651 -0.331495 -0.121286
-0.012636 -0.257620 -0.310872
0.175686 0.193598 0.623063
0.132831 -0.401246 0.289233
-0.095317 0.124753 0.681513
0.042320 -0.003246 0.857052
-0.216783 -0.326295 0.433940
-0.194778 0.210456 -0.075751
-0.232146 -0.178328 -0.402163
0.054413 -0.474748 0.557577
-0.423737 -0.124901 -0.440039
-0.236270 -0.242350 0.322875
-0.096639 0.194989 -0.108362
0.018963 0.173325 0.473604
0.124354 0.111604 -0.498955
-0.110283 0.188581 0.553828
-0.253402 -0.296217 0.732256
-0.130734 -0.190141 -0.356137
-0.234762 0.200494 -0.309463
0.281389 -0.011693 0.148861
0.010775 -0.061224 0.904204
-0.048708 0.149853 -0.599752
-0.109720 -0.363256 -0.004201
0.205584 -0.276161 0.045242
0.134510 0.135325 0.352051
-0.144064 0.252541 -0.409069
-0.120903 -0.341666 -0.032923
-0.098267 -0.418382 0.281285
-0.047665 0.078534 0.748506
-0.039432 0.243198 -0.202449
0.177614 -0.284431 -0.025766
-0.306174 -0.024458 -0.309610
0.055740 0.204619 -0.039887
-0.250273 -0.060111 0.255455
0.329966 -0.128477 -0.334862
-0.244330 -0.218919 0.187098
-0.131874 -0.344544 -0.008817
-0.173217 0.109677 -0.479136
0.299181 0.162688 0.544395
-0.109455 0.139086 0.662841
-0.281541 -0.130914 0.129415
0.242087 -0.042609 0.352813
-0.278448 -0.100823 0.773213
0.206699 -0.021070 -0.136893
-0.228776 0.155962 -0.468100
-0.209867 -0.328271 0.777594
0.292266 -0.102240 0.739457
0.192634 0.068724 0.754156
0.045777 0.122871 0.660123
-0.048255 0.227771 -0.588920
-0.227758 0.104882 0.179119
-0.317064 -0.047358 -0.303799
-0.078922 -0.216554 0.951764
0.194357 0.039691 -0.055919
-0.205210 0.058368 0.343345
0.135292 -0.380767 0.185535
0.247832 -0.192657 0.263490
-0.060559 0.202828 0.054430
-0.249141 0.090373 0.166586
0.273915 -0.162942 -0.354026
0.214678 -0.261803 0.837648
0.181113 -0.320025 0.136111
-0.128752 -0.393619 0.791987
0.057795 -0.472057 0.533299
-0.234988 -0.261552 0.419488
-0.253371 0.176920 -0.303126
-0.083858 0.183015 -0.600447
-0.182952 0.235336 -0.430550
-0.170017 0.210285 -0.070944
0.202811 0.137451 0.694617
0.066937 0.164386 0.479396
-0.225140 -0.082405 0.852985
0.136236 0.257503 -0.390152
-0.167770 -0.250074 -0.072599
-0.341644 -0.132768 -0.494202
-0.017031 0.193521 0.243930
-0.104930 0.196115 0.086168
-0.015570 0.113629 0.684093
-0.013220 0.269513 -0.484340
-0.164841 -0.376259 0.765990
-0.256046 -0.223261 0.441441
-0.268735 -0.185644 0.113813
0.256520 -0.208709 0.071430
-0.247997 -0.227303 0.083577
-0.045407 -0.463197 0.435874
0.014766 -0.481547 0.600303
0.223032 -0.256708 0.077858
0.328182 -0.158111 -0.378998
0.086742 -0.230418 0.950653
-0.196465 0.055730 -0.034752
-0.115171 0.184578 0.114641
0.034905 -0.327951 -0.163963
-0.394349 -0.101379 -0.363451
-0.279137 0.036466 0.557206
-0.274621 -0.275723 0.535708
0.410914 -0.117091 -0.433112
0.268699 0.041767 0.698113
-0.221280 0.088247 0.200022
-0.282809 0.078165 0.550894
-0.015160 0.195415 0.216192
0.110586 0.131899 0.675818
-0.173749 -0.099117 0.901383
-0.153983 -0.189696 0.924197
-0.034130 0.205963 0.063440
-0.228750 -0.185876 -0.023070
0.297305 -0.116045 -0.492916
-0.283477 0.181463 0.387025
-0.157713 0.251916 -0.354840
-0.183194 -0.154947 -0.136686
0.101066 -0.198925 -0.351147
0.009375 0.269153 -0.356566
-0.317133 -0.100197 -0.316390
0.177297 0.058934 0.770426
0.037518 0.048457 0.792376
-0.256318 -0.241890 0.781052
-0.023585 -0.439319 0.298136
0.247207 -0.194942 0.382964
-0.176820 0.036005 -0.478805
0.227725 0.006273 0.347208
-0.000254 -0.469024 0.442445
-0.198414 0.085352 -0.034863
0.224070 0.010772 0.371490
-0.025264 -0.436359 0.795291
0.169507 -0.378035 0.342378
-0.157508 0.121534 -0.492395
0.132268 0.173444 0.425060
-0.192004 -0.120022 -0.179224
-0.026342 0.092125 0.722651
-0.215302 0.036496 -0.153328
0.031486 -0.352781 0.920058
-0.165632 0.132069 0.218795
0.035180 -0.447172 0.343766
-0.239281 0.206033 -0.349857
0.193261 -0.313770 0.212305
0.156885 -0.421825 0.609641
-0.010515 -0.471680 0.466618
0.238702 -0.343503 0.563817
-0.073401 -0.256929 -0.269921
-0.288611 -0.031831 0.704695
0.283621 -0.109297 0.134412
0.019181 0.196285 -0.613159
0.020510 0.166532 0.515846
-0.216426 0.031480 0.381259
0.167594 0.110067 0.321386
-0.140278 0.168522 -0.057058
0.254896 -0.137826 0.316617
-0.251999 -0.171924 0.410548
0.294842 0.199309 0.014893
0.240261 0.166368 -0.054639
0.039744 -0.412922 0.081058
0.131824 -0.268817 -0.139554
-0.212700 0.115297 -0.036476
0.104804 -0.448249 0.656142
-0.060043 -0.172137 -0.426976
-0.257580 0.090901 -0.246596
-0.309754 -0.168868 0.609767
0.126040 0.087457 0.745086
-0.242603 -0.024231 -0.235601
-0.227919 -0.257690 0.131573
0.184194 0.087014 0.438557
-0.242530 -0.056352 0.425503
0.170429 -0.171826 -0.235767
-0.269333 0.024983 0.167066
-0.216779 -0.052521 0.848019
-0.048597 -0.436824 0.301332
-0.179444 -0.159560 -0.193353
-0.008972 0.101090 0.705054
-0.011285 0.208939 0.057388
0.282864 0.057490 0.576351
-0.210674 -0.354395 0.726804
0.116934 0.185986 -0.118597
0.272451 0.026903 -0.321820
0.115807 -0.317624 0.903217
-0.250616 -0.313282 0.707460
0.259644 0.006239 0.519599
-0.175299 0.179013 0.396244
0.246767 -0.170014 -0.434430
-0.152748 -0.352201 0.097460
-0.270753 0.137212 -0.315998
-0.428419 -0.148410 -0.434898
-0.195033 -0.343129 0.357389
0.224018 0.107357 -0.195989
0.264724 0.070835 -0.381052
-0.253091 -0.206422 0.152555
-0.135310 0.136164 0.335944
-0.423990 -0.156163 -0.408449
0.311070 -0.121018 -0.322582
-0.246252 -0.046785 0.284137
0.192104 -0.127303 -0.132468
-0.135822 -0.013368 0.866734
0.020170 -0.250794 -0.321105
-0.101208 -0.276157 -0.184357
0.256080 0.069810 -0.405106
0.185594 -0.177778 -0.324543
-0.447062 -0.144055 -0.406415
-0.164316 0.207443 -0.219235
-0.167596 -0.390846 0.394154
-0.358053 -0.102098 -0.427697
-0.241429 -0.216539 0.227886
0.313559 -0.105089 -0.476644
-0.084931 -0.101333 -0.491184
-0.282621 -0.047768 0.050394
0.067197 -0.432232 0.303603
-0.161515 -0.240807 -0.096618
-0.325064 -0.072383 -0.364971
-0.135769 0.205782 -0.529821
-0.213495 -0.203954 -0.031986
-0.235127 -0.239150 0.047734
-0.260914 -0.205720 0.080147
0.020420 -0.440430 0.304040
-0.291421 -0.059179 0.102111
0.003373 0.172579 0.498039
0.225781 -0.074980 -0.402996
0.214182 0.207486 -0.455440
0.324855 -0.162313 -0.421691
0.104872 0.168975 0.240253
-0.150895 -0.426716 0.574210
-0.275137 -0.099752 -0.467889
-0.240701 0.069815 0.190493
-0.224293 0.031682 0.288356
0.092759 -0.374655 0.012660
0.252497 -0.175154 0.285032
0.024651 -0.470775 0.469054
0.058551 -0.383168 -0.013498
-0.120116 -0.368649 0.040555
0.282458 0.183425 0.587965
-0.176276 0.070534 0.762134
0.195200 -0.135020 -0.107340
-0.061010 -0.310317 -0.174633
0.291858 0.181622 0.032119
0.244824 -0.032066 0.470298
-0.267993 0.022929 -0.357679
-0.023618 -0.104959 -0.499811
0.309644 -0.156448 -0.363244
-0.012706 -0.425260 0.818721
0.194565 -0.192055 -0.075259
-0.075428 0.264612 -0.425198
-0.222534 -0.251793 0.031768
0.129557 -0.368933 0.828561
0.286017 0.055302 0.605727
-0.003148 0.267743 -0.510591
0.070535 -0.197247 0.948740
-0.275134 -0.162166 0.467112
0.154533 0.171411 0.145254
0.009621 -0.277404 -0.276304
0.117331 -0.223052 -0.264240
0.035532 -0.304307 0.948237
0.199458 0.075203 0.453668
-0.118204 -0.114582 -0.461595
0.171598 0.203870 -0.222408
-0.240155 0.003224 0.480145
0.254427 -0.256597 0.771647
0.324088 -0.072834 -0.306062
0.068394 0.254130 -0.548274
0.140708 -0.400433 0.319139
0.268134 -0.143524 0.164776
-0.269750 0.123485 -0.401887
-0.149241 -0.256408 -0.111873
0.255059 -0.126791 0.340809
-0.250998 0.193010 0.629625
0.144321 -0.416281 0.415954
-0.227421 0.107444 -0.454164
-0.043733 0.269796 -0.376293
0.033682 -0.362028 -0.086508
-0.014502 -0.394237 -0.017865
-0.200469 -0.135314 -0.248975
0.074466 -0.403251 0.826175
-0.062573 0.226824 -0.159775
0.133894 -0.302518 0.900041
0.292634 -0.037242 -0.355609
-0.169527 -0.162606 -0.426330
-0.014683 0.179668 0.433902
-0.228260 -0.229864 0.012572
0.269596 0.068211 -0.294013
0.150692 0.165336 0.646742
-0.195986 0.072609 0.360291
-0.011851 -0.049367 0.895967
0.228976 0.042950 0.756713
0.018623 -0.441330 0.781868
0.251678 0.169914 0.384907
-0.303503 0.181038 0.415581
-0.154591 -0.400613 0.727925
-0.123420 0.146588 -0.521758
0.210410 0.041764 0.457857
0.267660 -0.093813 -0.415094
0.260763 -0.173643 0.167130
-0.252881 0.163035 -0.048998
0.306612 -0.165620 -0.387517
-0.115781 0.043404 -0.493112
-0.166910 0.123680 0.246160
0.123419 -0.287439 0.916473
-0.001962 0.254552 -0.558721
0.089141 -0.057160 -0.512452
0.245514 -0.070977 0.435988
0.304852 0.164949 0.489814
0.285404 0.104449 0.069419
0.132013 -0.026543 -0.505506
-0.312674 -0.140912 0.610748
0.286186 0.080870 0.601346
0.249330 -0.281648 0.754987
-0.339972 -0.077227 -0.320341
-0.046369 0.250167 -0.227210
0.239407 0.020021 0.229382
0.182485 0.087713 0.740377
0.289534 -0.200930 0.728159
0.298382 -0.166583 -0.415130
-0.417805 -0.142555 -0.460363
-0.277682 -0.160947 0.105281
-0.197678 0.144860 0.173607
-0.199211 0.234644 -0.374682
0.054691 0.078896 0.747192
0.065722 -0.365099 -0.051241
0.124872 -0.381677 0.133535
-0.293485 0.193024 0.036653
-0.072601 -0.419445 0.213561
0.160665 -0.182909 -0.374864
0.152218 0.086952 0.744565
0.153858 0.186139 0.617844
-0.121630 0.216315 -0.548054
0.286278 0.017881 0.088717
0.259333 0.138882 -0.427839
0.040368 -0.367321 0.900653
-0.216696 -0.039470 -0.032521
0.214226 -0.291506 0.339741
-0.164111 -0.185062 -0.345766
-0.243269 0.010870 -0.214988
0.319487 -0.096725 -0.398585
-0.270761 -0.184074 0.089972
0.039564 0.197392 0.162958
0.274378 0.116235 -0.322782
-0.241204 -0.220759 0.312034
-0.272144 0.051800 0.536646
-0.304931 -0.076300 0.671284
-0.200881 0.067388 0.756002
0.072475 0.171844 0.350906
0.173021 0.144791 0.176466
-0.166797 -0.211922 0.913289
-0.090175 -0.456293 0.488050
-0.198501 -0.368458 0.451850
-0.214471 -0.377175 0.611324
-0.261735 -0.143597 0.435377
0.184358 0.209420 -0.073519
-0.229073 -0.340237 0.707935
0.296889 -0.040079 0.582908
0.038602 0.255565 -0.555766
0.286411 -0.083629 0.137496
0.132183 0.220150 -0.208405
-0.032066 -0.180048 0.946664
0.082017 -0.412894 0.804668
-0.230110 -0.235031 0.829549
-0.066189 -0.465071 0.654421
0.310583 -0.111905 0.599175
0.081481 -0.407922 0.148260
0.259116 -0.305880 0.681005
-0.100019 0.174026 0.582322
-0.138952 -0.250617 0.921888
0.271844 0.189153 0.610108
-0.235621 0.115537 -0.028242
-0.221053 -0.275428 0.276662
0.078085 0.194391 0.075640
-0.274353 0.121359 -0.376298
0.138093 -0.216132 -0.232344
0.178769 -0.328050 0.827870
0.284996 0.100904 0.527693
-0.312441 -0.117630 0.598659
-0.348502 -0.105039 -0.458811
0.103491 0.176673 0.572048
0.155721 0.116083 0.364722
0.280924 -0.164065 0.479559
0.304627 -0.099776 -0.449777
0.117920 -0.443080 0.630835
-0.182706 0.129068 -0.142795
0.114479 0.176111 0.139378
0.283689 0.071424 0.074430
0.218899 0.224203 -0.360306
-0.145311 0.154580 -0.514379
0.196500 -0.116937 -0.185836
-0.188493 -0.137324 -0.200767
0.094147 0.226798 -0.194248
0.122968 0.239201 -0.484638
0.198446 -0.087390 -0.143014
0.301149 -0.166272 0.707357
0.224619 -0.362502 0.582558
-0.298562 -0.035137 0.601782
-0.204783 0.222809 -0.433078
0.190957 -0.154224 0.897149
0.203153 -0.164151 -0.068757
-0.248750 -0.012553 0.219816
0.274500 -0.229934 0.745472
-0.271424 0.066831 -0.301369
0.231376 0.017022 0.281693
-0.035753 -0.217700 0.951729
0.070541 -0.224549 -0.335637
-0.216184 -0.264031 0.833393
0.112697 -0.380613 0.073077
-0.210118 -0.290802 0.216979
-0.288280 0.198468 0.548725
-0.268672 -0.004522 0.175008
0.278157 -0.015894 0.044575
0.300083 -0.218531 0.577023
-0.300803 0.162781 0.519667
0.281698 -0.169797 -0.384593
0.175508 -0.383204 0.397798
-0.158886 -0.416893 0.637845
0.247567 0.044003 -0.401813
-0.142843 -0.431929 0.546820
-0.287321 0.043252 0.101304
-0.109973 -0.416177 0.302549
-0.164769 -0.324828 0.024281
-0.107360 0.202247 0.021721
0.072291 -0.462429 0.481638
0.011172 0.180798 0.424353
-0.160740 0.120245 -0.075580
-0.306719 -0.088150 0.589705
-0.147530 -0.189217 -0.288127
0.039002 -0.239476 -0.333708
0.234294 0.121211 -0.214252
0.268495 -0.087410 0.789162
-0.024013 -0.243614 -0.332290
-0.124967 -0.140988 -0.440537
0.015103 0.170545 -0.621335
-0.045235 0.179502 0.380915
0.118688 -0.414149 0.309077
-0.222064 0.018106 0.435630
-0.046170 -0.413361 0.092436
-0.191584 -0.171289 -0.415602
0.250692 -0.047251 -0.008686
-0.110635 -0.449592 0.540079
-0.253816 -0.200059 0.424523
-0.073337 0.112310 0.698020
-0.251898 -0.141453 0.407504
0.082339 0.263342 -0.314295
0.196807 0.045295 -0.091010
0.300458 -0.190844 0.695934
0.151066 0.070983 0.762925
0.307299 -0.192634 0.577507
-0.116000 -0.186015 -0.376419
0.325246 -0.027918 -0.319894
-0.068727 0.267407 -0.335900
-0.191491 0.181536 -0.065054
0.276548 0.010478 0.693953
0.013811 -0.178103 -0.433907
0.224215 0.026770 -0.432785
-0.050172 0.091443 0.727746
0.088826 -0.390645 0.062116
-0.108776 -0.238986 -0.247953
0.258414 -0.173437 -0.405960
0.268953 -0.156305 0.453965
-0.182561 -0.362760 0.352672
-0.276662 -0.155344 0.132816
-0.122962 0.147132 0.306884
0.100968 0.260806 -0.425726
-0.290696 -0.053987 0.715132
0.174441 -0.409637 0.567267
-0.371365 -0.096699 -0.380679
-0.216185 0.177437 -0.234094
0.028028 -0.478997 0.624352
-0.093493 -0.435111 0.365040
-0.151386 -0.422742 0.469073
0.124414 0.158884 0.228581
-0.119244 0.258545 -0.410130
0.194170 -0.214256 -0.065207
-0.181376 0.015512 0.820719
0.163922 -0.191269 0.917366
0.021711 -0.317924 -0.191254
0.129910 -0.184323 -0.367032
0.304059 -0.195353 0.670566
-0.252169 0.187018 -0.329803
-0.263130 -0.069783 0.474960
-0.244285 -0.232428 0.107913
0.074236 -0.394337 0.043274
0.271413 0.021602 0.538531
0.306891 -0.088179 0.598079
-0.209287 0.087623 -0.455159
0.135517 -0.209309 -0.255487
-0.178542 0.237082 -0.298632
0.138008 0.209421 0.559736
-0.317762 -0.156632 -0.459614
-0.259727 -0.259724 0.470031
0.106409 -0.157498 -0.423650
0.165661 -0.180397 -0.310097
0.053841 0.267228 -0.404167
0.249634 0.196651 -0.380519
0.255013 -0.095451 0.443227
0.105612 -0.452470 0.609391
0.310863 0.189720 0.491862
0.198711 -0.279371 0.022326
-0.261057 -0.140197 0.806184
-0.282205 -0.093306 0.059118
-0.130370 0.172773 0.619602
-0.130348 0.202327 0.564397
0.275735 -0.284869 0.584777
-0.150188 0.169069 -0.141609
-0.168305 -0.385287 0.365208
-0.272940 -0.127575 0.163568
-0.269434 -0.297213 0.658923
-0.248009 -0.191902 0.347033
0.236291 -0.238575 0.057617
0.152943 -0.290182 0.889528
0.054078 -0.415808 0.133781
-0.223982 0.219839 -0.376621
-0.244296 -0.232666 0.134577
0.051809 -0.466500 0.466402
0.061720 0.198148 0.054418
-0.149307 -0.094979 0.910624
-0.263479 0.149320 -0.296746
-0.274359 0.076768 0.520014
0.021278 0.209176 0.021969
0.278927 0.155014 0.093756
-0.021053 0.236082 -0.576281
-0.187381 -0.311728 0.100049
-0.224692 -0.325539 0.456521
0.192057 -0.157347 -0.097947
-0.154841 -0.161468 0.923694
-0.264543 0.048901 0.165662
-0.159865 -0.291119 -0.048338
-0.009999 -0.072372 0.909213
0.199538 -0.085075 -0.118712
-0.205575 -0.060052 -0.414856
0.284586 0.033399 0.584122
0.401122 -0.156126 -0.417192
-0.160236 -0.293812 0.879845
-0.123904 0.128341 0.686141
0.251461 -0.237074 0.797902
0.192136 -0.302946 0.117240
-0.073628 0.172650 0.517533
-0.270950 -0.173055 0.066768
0.206042 -0.081346 0.870464
-0.034339 0.067260 0.764636
0.013618 -0.375798 0.895054
0.301910 -0.109587 0.711384
-0.244287 -0.343450 0.579122
0.273515 0.093680 -0.373251
0.071701 -0.456619 0.694456
-0.309565 -0.152259 0.669453
0.007608 0.266707 -0.315822
0.202115 -0.053628 -0.126153
0.204292 0.152902 0.408074
0.105534 -0.432527 0.372851
-0.242099 -0.034158 0.324002
0.018531 0.203430 0.078923
0.122186 0.168356 0.620337
0.007906 -0.352174 -0.119657
-0.127543 -0.410617 0.317642
-0.225117 0.005616 0.390122
0.185860 0.041306 0.786315
0.060395 0.204871 -0.072667
-0.244859 -0.061202 0.367090
-0.073247 0.262766 -0.453392
0.199433 0.020070 -0.092794
0.042781 -0.472516 0.494063
-0.106311 0.178953 -0.566389
0.029943 0.196833 0.191576
0.265473 -0.129291 0.025818
0.364804 -0.096881 -0.322011
-0.064397 0.172144 0.368479
0.067493 -0.466908 0.509954
0.036966 0.166567 0.495683
0.284530 -0.112493 0.084069
-0.077928 -0.443275 0.381354
-0.273609 0.104892 0.024241
-0.015035 0.229917 -0.137923
0.252403 -0.149145 0.356640
0.245072 -0.080155 0.410369
0.283331 0.089306 0.625041
0.149927 -0.321229 0.867446
0.073198 0.162937 0.503331
-0.156467 0.189721 -0.063750
0.243063 0.176237 -0.274024
0.079272 -0.174558 0.945053
-0.094124 0.043119 0.804443
0.138249 0.179370 -0.139815
0.267359 0.166380 -0.038080
0.245370 -0.204300 0.300667
0.136575 -0.248812 -0.162841
-0.037677 -0.477206 0.629584
0.145153 -0.350752 0.836625
-0.246731 -0.030647 0.245164
0.124209 -0.430487 0.413787
-0.093289 -0.244481 -0.265362
-0.009598 0.235835 -0.162423
-0.267900 0.190772 -0.052520
-0.187307 -0.357368 0.766177
-0.059106 0.171245 0.459325
-0.008089 0.119787 -0.579869
0.157685 -0.386188 0.760936
-0.040270 0.190875 0.218803
0.243113 -0.219524 0.192357
-0.266661 0.074794 0.692584
0.279653 0.079105 0.049004
-0.046690 0.181547 0.355326
0.129930 -0.290852 -0.105646
0.206549 0.200219 -0.072601
0.278086 -0.261361 0.526699
-0.297222 -0.015761 0.624847
-0.197721 -0.123274 -0.095129
