-0.278092 -0.329538 0.057984
-0.251890 0.014634 0.288441
-0.122535 0.614719 0.179915
0.173109 0.258120 0.006656
0.359744 -0.636280 -0.201208
0.487645 -0.343170 -0.110860
-0.009267 0.795803 0.157224
0.226764 0.599381 0.235870
-0.411631 -0.514373 -0.302963
-0.235310 -0.005469 0.217275
-0.371782 -0.330284 0.074711
0.412374 -0.439335 -0.424226
-0.366543 -0.568996 -0.332455
0.247401 -0.441908 -0.172582
0.212908 -0.630301 -0.327807
-0.150301 0.625899 0.235408
0.442159 -0.615970 -0.475477
-0.404033 -0.487156 -0.150024
0.247262 -0.222073 -0.307242
-0.403646 -0.427815 -0.270465
0.264927 0.099119 0.057844
0.441044 -0.552114 -0.469956
0.233186 0.133211 0.109687
-0.167943 0.067444 0.166356
-0.294571 -0.006607 0.218304
-0.202262 0.127696 -0.085520
0.466479 -0.162622 -0.190629
0.089907 -0.091995 0.096946
0.200073 -0.253006 -0.311051
0.152794 -0.209970 -0.178424
-0.189032 0.762269 0.437762
0.241194 -0.014819 0.103149
-0.173750 -0.386261 -0.047912
0.119632 0.817752 0.317811
-0.195305 -0.441441 -0.135612
-0.141481 0.077147 -0.116278
0.201087 0.125196 0.088917
0.107393 -0.361561 -0.301940
-0.259791 -0.096975 -0.164538
-0.395725 -0.002005 0.100523
0.220546 -0.439423 -0.162599
-0.313091 -0.715291 -0.241278
-0.176831 0.485746 0.395078
-0.146665 0.451425 0.322894
-0.268889 -0.424912 -0.208699
0.220223 -0.523949 -0.422469
-0.075632 -0.245163 -0.054909
-0.350786 -0.099132 -0.147106
-0.031144 -0.237301 -0.072214
-0.295287 -0.432986 -0.203533
-0.048729 0.256962 -0.051828
-0.148742 0.574431 0.207264
-0.408320 -0.679632 -0.255562
-0.014792 0.692415 0.120222
-0.202500 0.705803 0.511546
0.487366 -0.459224 -0.159228
0.044168 0.642527 0.272329
0.409771 0.070419 -0.220926
0.228212 -0.488018 -0.378564
-0.126445 0.097835 0.123598
0.474527 -0.246512 -0.167919
0.007431 0.701250 0.307185
0.427384 0.034004 0.075236
0.200406 0.378481 0.094919
0.390357 -0.331303 -0.377158
-0.257013 -0.578547 -0.331480
-0.173637 -0.093771 0.144549
-0.313301 -0.034097 0.347347
0.390136 -0.040994 0.063304
0.306071 -0.070630 0.065817
0.272715 -0.439733 -0.398796
0.154580 0.244780 -0.017367
-0.103812 0.768849 0.425075
0.202396 -0.331315 -0.052227
0.078734 0.606213 0.253996
-0.118283 0.872062 0.353601
-0.202889 -0.394973 -0.243480
0.318435 -0.275098 -0.341521
-0.189400 -0.401510 -0.222222
-0.160056 0.799908 0.427448
-0.235491 -0.718690 -0.160449
0.043632 0.903952 0.208200
-0.190332 0.557391 0.314316
0.253244 -0.199813 -0.289694
-0.282279 -0.146647 -0.180503
-0.203894 0.179784 0.118197
-0.067766 0.939653 0.317463
-0.422471 -0.339201 -0.203422
-0.145420 0.635819 0.418838
0.154285 0.417599 0.060865
-0.186776 -0.364706 0.021658
-0.196163 0.246442 0.297385
0.365610 -0.604072 -0.479764
0.005505 -0.100891 0.107403
-0.101964 -0.246058 -0.055051
0.089728 0.318395 0.135378
-0.045247 0.466916 0.229897
-0.193194 0.223688 0.116749
0.045294 -0.098714 -0.199692
-0.009962 0.593684 0.267553
-0.387834 -0.421180 -0.022682
-0.167278 -0.267276 -0.023195
0.233350 -0.645847 -0.190745
-0.095564 0.444273 0.258008
-0.213518 0.377768 0.291419
0.315455 -0.435593 -0.101786
-0.059226 -0.212851 -0.132705
-0.172448 -0.367892 -0.100782
-0.190809 0.327679 0.174249
-0.282452 -0.073463 -0.130534
0.035974 0.125044 0.055667
-0.097053 0.207448 -0.041938
0.100277 0.200511 0.087992
-0.108680 -0.281345 0.028418
0.064403 0.867387 0.330753
0.029249 0.217933 -0.086683
0.455040 -0.620685 -0.424304
-0.175220 0.328632 0.303870
0.416227 -0.632557 -0.440262
-0.338384 -0.039051 0.297937
-0.294172 -0.746293 -0.161053
0.399141 -0.178461 -0.300177
-0.242896 -0.606882 -0.258941
-0.007473 -0.178530 -0.216984
0.457834 -0.461792 -0.350824
-0.177495 0.121173 0.197043
0.119877 0.828420 0.292786
-0.128525 0.244741 0.196100
-0.224052 -0.226375 -0.176062
0.435356 -0.075316 -0.281899
0.210480 -0.569283 -0.294366
-0.282158 0.118359 0.001953
-0.189431 -0.247159 -0.085478
0.221467 -0.263563 -0.319184
0.169570 0.791130 0.345255
0.074248 0.764465 0.319995
0.260504 0.038191 0.123321
0.283492 -0.371552 -0.373673
0.494772 -0.057693 0.030661
-0.293298 0.005910 0.320300
0.089700 0.834330 0.180352
-0.173076 0.260036 0.091661
0.111305 -0.371025 -0.274982
-0.212005 0.039357 0.211359
0.093184 0.012261 0.143226
-0.380663 -0.731366 -0.197337
-0.202876 -0.467808 -0.018924
0.387061 0.050436 0.041902
0.023998 0.048915 0.132168
0.283781 -0.462945 -0.139724
-0.350413 -0.009408 0.355438
0.282878 -0.490958 -0.201077
-0.234400 -0.606326 -0.195468
-0.370355 0.079648 -0.016350
-0.099047 0.757759 0.207644
0.166596 0.660175 0.175673
0.408932 -0.680819 -0.230676
-0.175181 0.198138 0.060750
-0.194781 -0.283048 -0.022147
-0.285114 -0.534249 -0.333875
-0.250696 -0.555996 -0.259340
-0.213491 0.093716 0.244915
-0.130540 -0.143437 -0.206760
-0.329613 -0.468760 0.004480
-0.417065 -0.143498 -0.089639
0.075048 0.921681 0.329723
0.246160 -0.338584 -0.044720
0.023418 -0.216064 -0.125188
-0.226483 -0.318723 -0.259535
-0.157440 0.645215 0.260857
0.352598 -0.688336 -0.223493
-0.120931 0.389119 0.257961
-0.223079 0.428470 0.409156
-0.169064 0.552660 0.243123
0.238621 0.440550 0.184190
0.277605 -0.027660 0.090511
-0.413181 -0.478404 -0.203071
-0.123480 -0.183922 -0.206684
-0.235059 0.127264 0.189692
-0.364803 -0.743588 -0.168268
-0.399703 -0.647331 -0.188963
0.042919 0.878607 0.199790
0.247900 0.454841 0.209050
-0.035618 -0.056338 -0.159234
-0.317108 0.086131 -0.026139
-0.087093 -0.127858 -0.208372
0.015891 0.809363 0.157091
0.213945 0.107660 -0.018863
0.177774 0.519543 0.238304
-0.018541 0.926431 0.339821
0.083198 -0.070001 -0.185657
-0.410222 -0.532482 -0.206936
0.144668 0.648609 0.148951
0.483425 -0.333412 -0.140771
-0.276665 0.086854 0.112841
0.382778 0.049461 -0.224016
-0.401262 0.048358 0.060560
0.202709 -0.562453 -0.339470
0.000495 0.327331 -0.035624
-0.418302 -0.466766 -0.230004
0.186159 -0.259013 -0.093691
-0.245121 -0.580140 -0.248949
-0.271705 -0.437371 -0.182153
0.409829 -0.222160 -0.021907
-0.224939 -0.492126 -0.036524
-0.177533 -0.300617 0.052199
0.131480 0.046699 0.116423
0.289194 0.071141 -0.198326
0.200854 -0.538431 -0.346137
0.053077 0.263678 0.112309
0.123054 0.669443 0.283724
0.197911 0.754841 0.253285
-0.151549 -0.103010 -0.186608
-0.053445 0.503943 0.061642
-0.175770 0.094818 0.180986
-0.382047 -0.304549 0.061009
-0.045874 0.368113 -0.002427
0.272032 -0.707388 -0.219736
-0.189847 0.713534 0.410886
0.209856 -0.615132 -0.425286
0.065695 0.099362 0.048096
0.186954 0.184534 -0.013506
0.349825 -0.275380 -0.342769
-0.020555 -0.089353 -0.187243
-0.077391 0.910535 0.393683
-0.395317 0.067148 -0.073145
-0.165044 0.313572 0.278955
-0.313974 -0.414415 -0.256350
0.096964 0.884723 0.270688
-0.204955 0.683311 0.522288
-0.267883 -0.473961 -0.098268
0.064523 -0.195281 -0.180059
-0.305395 -0.037303 -0.104355
-0.071678 0.706572 0.158832
-0.202882 0.362002 0.380319
0.280936 -0.453926 -0.162938
0.422803 -0.190270 -0.315307
-0.379571 -0.087980 -0.118011
0.380294 -0.557717 -0.169413
-0.187874 0.439198 0.391634
0.480494 -0.362957 -0.170005
0.369218 -0.041893 -0.256757
-0.305602 -0.012028 -0.101855
-0.286811 0.052087 0.210432
0.336440 -0.413045 -0.095498
-0.194343 0.077402 -0.106394
-0.166868 0.780681 0.473915
-0.386972 -0.289563 0.036675
-0.197615 0.307237 0.335458
0.432908 -0.663735 -0.362805
-0.020021 -0.145563 -0.227717
-0.190759 0.585905 0.333816
-0.255821 -0.325250 -0.256787
0.001876 0.391790 0.175808
0.386635 0.025537 -0.233962
0.379072 -0.255581 -0.047508
-0.198530 0.284979 0.324371
0.068034 0.157115 0.067622
-0.147974 0.206559 0.200166
-0.310649 -0.509226 -0.228139
0.458636 -0.267201 -0.051361
-0.317454 0.067957 0.163979
-0.162175 0.640349 0.453724
0.208726 0.584427 0.278657
0.145472 0.834970 0.270002
0.406483 0.101568 -0.208298
0.408485 -0.704935 -0.243680
0.308482 -0.379307 -0.381331
0.461592 -0.103745 -0.201645
0.328962 -0.568107 -0.459812
0.406051 -0.241111 -0.311478
-0.098123 -0.080981 0.137338
0.332146 -0.649575 -0.202053
-0.076014 0.732348 0.375556
0.286244 0.102377 -0.070393
0.148292 -0.215012 0.020706
0.157557 0.390071 0.051676
-0.055122 0.444274 0.225874
-0.395235 -0.536224 -0.115692
0.153629 0.528979 0.233748
0.236245 0.099169 -0.029656
-0.034352 0.220136 0.115190
0.261539 -0.465813 -0.108429
0.093923 0.875259 0.312702
-0.421622 -0.661127 -0.330178
0.334167 -0.380161 -0.386368
0.468379 -0.633427 -0.342596
0.143123 0.827424 0.215088
0.181144 -0.443188 -0.127480
0.216832 0.269188 0.065598
0.007891 0.331522 0.148240
0.375344 0.101139 -0.202699
0.203044 -0.311064 -0.038103
-0.126569 0.364630 0.252418
0.038175 0.099677 0.050688
0.267702 -0.473174 -0.290561
-0.201105 0.122145 0.236949
-0.381180 -0.029227 0.179378
-0.188475 -0.225421 0.088389
0.061569 -0.108745 0.093498
0.181364 -0.127962 0.063530
0.023879 -0.182972 -0.207458
0.238912 0.119128 -0.102756
0.264679 0.083493 0.005440
-0.391899 -0.501358 -0.080746
-0.051473 -0.110056 0.099182
0.094059 0.933881 0.293678
-0.201228 -0.321281 -0.064215
-0.318994 0.098778 -0.073392
0.440860 -0.241352 -0.319345
0.485197 -0.403370 -0.153726
0.341740 -0.354592 -0.377568
-0.425824 -0.213317 -0.175716
0.037928 0.487905 0.208198
0.481938 -0.689047 -0.250221
-0.416967 0.024721 -0.019991
-0.275502 -0.273526 -0.232599
-0.392305 -0.605063 -0.125825
0.095544 0.345333 0.147019
-0.219932 0.463368 0.420801
0.266414 0.012945 -0.216565
-0.424608 -0.398306 -0.245722
0.173559 -0.237775 -0.178042
0.459952 -0.107623 0.020174
0.369601 -0.179082 0.005058
0.195109 -0.220047 -0.296911
0.205565 -0.085852 0.077911
0.027664 0.931905 0.314647
0.014642 -0.036370 -0.163331
-0.344441 -0.643164 -0.071895
-0.404642 -0.270276 -0.064778
-0.021887 0.390414 0.184106
-0.239053 0.086554 0.125853
0.249233 -0.202844 -0.004643
-0.044533 -0.070472 0.131966
0.173872 0.316821 0.034642
0.062177 0.562322 0.236426
-0.027992 0.306898 -0.037771
0.433619 -0.249138 -0.038521
0.472233 -0.653442 -0.324692
-0.119241 0.362507 0.057410
0.004088 0.515901 0.045148
0.112969 -0.181109 0.034236
-0.396711 -0.679138 -0.328103
-0.332574 0.011395 0.309518
-0.213997 -0.436944 -0.154848
0.459893 -0.652589 -0.383824
-0.228918 0.372359 0.398837
-0.400284 -0.670764 -0.202181
0.452859 -0.097840 -0.255987
-0.235886 -0.595338 -0.132570
-0.195867 0.341636 0.351758
0.127311 -0.399501 -0.169796
0.062590 0.924402 0.219099
0.071428 0.475046 0.034186
-0.335473 -0.755943 -0.126313
-0.254324 -0.556171 -0.289698
0.293894 0.120162 -0.180280
-0.176777 0.690292 0.340476
0.440334 0.066190 -0.227805
-0.165276 0.788661 0.351459
0.175521 -0.271530 -0.017973
-0.417586 -0.323777 -0.166856
0.216470 -0.460299 -0.097528
0.359788 -0.403963 -0.095767
0.112840 0.060294 0.089470
-0.173019 0.775111 0.371584
-0.258069 -0.009478 0.290374
-0.037374 0.123259 0.074175
-0.080563 0.071227 0.109855
-0.111189 -0.009370 -0.133593
0.373685 -0.667207 -0.358399
0.390965 -0.455971 -0.426907
-0.218487 -0.272767 -0.149686
0.262757 0.239014 0.128742
0.091625 -0.179600 -0.223742
-0.251072 -0.027259 0.269979
-0.394800 -0.512823 -0.103411
-0.090397 0.512303 0.285291
-0.238087 0.039011 0.267712
0.005899 -0.261446 -0.012838
-0.233280 0.025095 -0.118916
0.171765 0.534846 0.129495
-0.093725 0.191161 0.138380
-0.421259 -0.151514 -0.118886
0.053076 -0.230828 0.040505
-0.296297 -0.008702 0.349121
-0.291828 0.113885 0.027725
-0.297447 -0.621194 -0.070761
-0.178649 0.796599 0.406545
-0.144794 0.532469 0.179535
0.200211 0.235773 0.133280
-0.006759 0.559976 0.065503
0.127308 0.076251 0.066555
0.246642 0.227796 0.092607
0.016078 0.411770 0.180374
0.226913 0.315692 0.103623
0.299975 -0.244476 -0.030892
0.123028 0.097696 0.049874
-0.294841 -0.553695 -0.145963
0.269548 -0.530546 -0.260700
0.150509 -0.295459 -0.319002
-0.033137 0.712072 0.135079
-0.191258 0.513675 0.445303
-0.296344 -0.470395 -0.135049
0.050848 0.033382 0.158075
0.377823 0.086718 -0.052457
-0.141116 -0.413190 -0.112282
-0.176620 0.629823 0.307076
0.283819 -0.014513 -0.230382
-0.116987 -0.270039 0.054692
0.471156 -0.517435 -0.284199
0.251855 -0.480184 -0.380312
0.377071 0.024578 0.095162
-0.409019 -0.273097 -0.093028
0.182301 0.158248 -0.031448
0.016400 0.472552 0.206151
0.391009 -0.626548 -0.456625
-0.151456 0.810218 0.322269
0.265854 -0.052747 0.081440
0.265312 0.285843 0.178986
0.225097 -0.646398 -0.362675
0.454708 -0.490728 -0.153001
-0.306018 -0.544514 -0.209775
-0.281684 -0.105897 0.157327
0.222978 0.667357 0.258694
-0.075219 0.901590 0.267091
0.374081 -0.114424 0.033299
-0.255488 -0.300754 -0.247101
0.190113 0.401231 0.092213
-0.186568 0.651797 0.356631
-0.207667 0.644704 0.510248
0.337973 -0.705356 -0.261231
-0.216504 -0.409874 -0.216750
0.279974 -0.513848 -0.233067
0.194017 -0.366377 -0.345510
0.135501 -0.229767 -0.104834
0.254657 0.217224 0.157423
-0.065257 0.621960 0.119428
-0.397857 -0.101618 0.046441
-0.383811 -0.700126 -0.112266
-0.165996 -0.350312 -0.160637
-0.125034 0.591772 0.363963
-0.174717 0.742235 0.360508
-0.151073 0.662095 0.443705
0.249683 -0.050572 -0.237977
0.183955 -0.369414 -0.088715
-0.311153 -0.533110 -0.238347
-0.053283 0.425651 0.027424
-0.227032 0.261814 0.265176
0.232815 0.097205 0.094938
0.305809 -0.342625 -0.366220
0.034936 -0.145159 -0.237559
-0.227739 0.233978 0.356026
-0.159148 0.370508 0.124145
-0.224798 0.238906 0.234765
-0.229024 -0.672480 -0.187455
0.494869 0.007202 0.063150
-0.415019 -0.515337 -0.229586
-0.197200 -0.085886 -0.171392
0.106430 -0.214947 0.036392
-0.080865 0.662379 0.347112
-0.082850 -0.238911 0.062401
0.425001 0.044726 0.047262
-0.174367 0.407649 0.177619
-0.401591 -0.251642 -0.200941
-0.417174 -0.632695 -0.291094
0.485980 -0.358098 -0.132878
0.194384 -0.053924 -0.218561
0.235837 -0.179104 0.013982
-0.205809 0.325810 0.220985
0.188382 0.359552 0.070850
-0.305364 -0.060537 -0.114753
0.126445 0.451938 0.052869
-0.199746 0.752397 0.537601
-0.133468 0.817452 0.285408
-0.398106 -0.488610 -0.295369
0.153522 -0.300581 -0.258056
0.270586 -0.306812 -0.345476
0.117208 -0.263710 -0.014333
0.266479 0.208973 0.120282
0.153516 0.657445 0.285906
0.126989 0.592785 0.111927
-0.146582 -0.293765 0.031850
0.466507 -0.276441 -0.230153
-0.080785 0.289682 0.173732
-0.087625 0.824929 0.220121
0.452923 -0.593945 -0.428645
0.474876 -0.394619 -0.217329
-0.242088 -0.114143 -0.174686
-0.056591 0.135975 -0.109293
0.311230 -0.500384 -0.130400
-0.165686 0.244396 0.068307
-0.360491 0.054074 0.200623
-0.004770 0.087268 -0.137682
-0.245469 -0.225429 0.099104
0.077552 0.214033 -0.078664
0.463555 0.084692 -0.123238
-0.071818 0.842863 0.210575
-0.183246 0.285015 0.129080
-0.218684 -0.093186 0.154344
-0.210066 0.613671 0.503567
-0.389863 -0.174290 0.066096
-0.398874 -0.706174 -0.258695
-0.368439 -0.024171 0.214228
-0.364351 -0.028467 -0.095785
0.383734 0.120897 -0.145151
0.468374 -0.301784 -0.226939
-0.201701 -0.205693 0.099831
-0.207774 0.072730 0.221989
-0.411724 -0.581098 -0.236188
-0.167549 -0.014725 0.180227
0.064676 0.845629 0.174812
-0.127780 0.058015 -0.126198
0.489604 -0.007125 0.012964
0.179118 0.231769 0.000527
-0.191879 -0.337309 0.038003
-0.363031 -0.056575 -0.101422
0.303703 -0.637581 -0.430911
0.426660 -0.327459 -0.092644
0.104831 0.562448 0.237403
-0.126265 0.256452 0.013646
-0.284391 -0.328153 -0.252741
0.220479 0.556126 0.205666
-0.223101 0.454080 0.451853
-0.177221 0.770924 0.500153
-0.157951 0.136417 -0.007985
-0.154932 0.184488 0.016973
-0.266746 -0.580538 -0.355203
0.045962 0.141401 -0.126185
-0.316336 -0.032722 0.282701
-0.149713 0.603028 0.223059
-0.333452 -0.316727 0.074210
-0.400663 -0.205158 -0.013423
0.000294 0.722167 0.319110
-0.396991 -0.232546 -0.001933
-0.426014 0.033514 -0.074180
0.209656 0.631500 0.298101
-0.370054 -0.328029 -0.237097
0.081008 0.844048 0.315488
0.295819 -0.398961 -0.081465
0.009039 -0.031763 0.139282
-0.395853 -0.375394 -0.053521
0.170868 0.476636 0.103543
-0.258511 -0.618147 -0.339737
-0.103905 0.277402 0.187078
0.118001 0.185650 -0.072077
0.235341 -0.570038 -0.443363
-0.014608 -0.173352 0.065021
-0.089672 0.882562 0.276922
0.156736 0.131166 0.073017
-0.029457 0.446967 0.024977
0.453366 0.102805 -0.182723
-0.138979 -0.273426 0.003637
0.132580 0.551868 0.237639
0.442550 -0.554199 -0.179524
-0.389503 -0.472912 -0.054243
0.074878 0.277925 0.117847
0.281600 -0.218433 -0.302108
0.212918 0.401291 0.123190
0.154322 -0.121487 0.071540
-0.138519 0.340977 0.255284
-0.374934 0.092780 -0.051926
0.396060 0.065296 -0.000070
-0.195796 -0.034827 0.176508
-0.369625 -0.013648 0.257244
-0.106442 0.621558 0.160484
-0.107120 0.598478 0.151319
-0.231428 -0.256748 -0.217065
0.411437 -0.532462 -0.163807
0.255839 0.194428 0.091845
0.352103 -0.221095 -0.294298
0.012613 0.940737 0.295441
-0.373232 -0.123722 0.161711
0.408395 0.116357 -0.139459
-0.260837 0.059574 0.284860
-0.177881 -0.447366 -0.014346
-0.356833 0.005327 0.321635
-0.353176 -0.134583 0.142766
-0.081850 0.734122 0.179095
-0.340332 0.043547 -0.092431
-0.420179 -0.118029 -0.098460
-0.248093 0.074975 -0.097379
-0.209355 -0.273308 -0.099338
0.132335 0.346446 0.010823
-0.162660 0.247657 0.240835
-0.290078 -0.169278 -0.188194
0.292973 -0.645806 -0.409891
-0.256550 -0.037632 0.186697
0.355414 -0.512010 -0.442562
-0.137623 0.142158 -0.052999
0.240266 0.638342 0.297601
-0.372975 0.041535 -0.087164
-0.283610 -0.352584 0.048560
-0.346026 -0.013303 0.237184
0.101804 0.083731 0.062548
-0.117553 0.349132 0.234839
0.197683 0.184319 0.111229
0.198549 0.236265 0.025116
-0.185122 0.588544 0.476500
0.050814 0.008797 0.149654
0.083105 0.739859 0.309410
-0.347491 -0.025492 0.266011
-0.288782 -0.409239 -0.253572
0.005812 0.202496 -0.093166
0.205158 -0.612799 -0.398576
-0.206515 -0.418586 -0.192331
-0.163264 -0.340751 -0.197869
-0.172596 0.288734 0.277915
-0.263398 -0.360357 -0.269355
0.350948 -0.481924 -0.429858
0.231823 -0.663823 -0.222578
0.134921 0.167548 -0.069282
0.388656 0.080954 -0.212952
-0.037395 0.162105 -0.102757
0.089194 0.399033 0.168615
-0.133197 -0.443769 -0.060412
0.270342 0.249271 0.150065
0.046906 0.606001 0.256385
0.335495 -0.041017 -0.250177
0.324201 -0.695276 -0.286726
0.224374 -0.580168 -0.218250
-0.079573 0.924530 0.284738
0.463083 -0.016492 -0.161577
0.120056 0.134401 -0.142567
-0.025694 0.572560 0.265856
-0.381585 -0.144577 0.129526
0.428254 -0.502009 -0.153146
-0.094354 0.934597 0.314169
0.212883 -0.349046 -0.351793
-0.220988 -0.128024 -0.184119
-0.205132 0.589064 0.415660
-0.220710 0.155858 0.297309
0.412422 -0.157695 -0.309439
-0.176939 -0.099122 -0.180427
0.050586 0.021746 -0.173213
0.390475 -0.397748 -0.098717
0.128834 -0.373935 -0.135143
0.036220 0.040479 -0.163325
-0.324303 -0.136772 -0.168904
-0.150624 0.337917 0.091283
-0.041184 -0.256520 0.046571
0.209279 0.806017 0.310865
-0.256875 -0.075756 -0.139133
-0.199198 0.188881 0.270728
-0.195452 -0.321230 -0.025793
0.355072 -0.188497 -0.282792
0.463553 -0.328084 -0.098852
-0.212075 -0.327673 -0.134991
-0.419503 -0.031805 -0.058888
0.006418 0.120870 -0.126787
-0.392722 -0.114961 0.072750
0.037123 0.186295 -0.100552
-0.104734 0.857795 0.288858
0.196459 0.731700 0.242075
0.278227 -0.652353 -0.390835
0.236501 0.685979 0.292311
0.143359 -0.265989 -0.013351
0.237408 -0.399328 -0.283937
0.197126 0.816532 0.284127
0.158773 -0.222501 -0.288355
0.233557 0.504807 0.260056
0.450636 -0.388790 -0.371840
0.488012 0.035446 0.055246
0.259121 -0.020756 -0.228219
0.028885 0.396793 -0.006942
0.233297 -0.479021 -0.403749
0.462875 -0.324655 -0.270432
0.312933 -0.712324 -0.238901
0.290940 -0.661132 -0.371150
-0.027443 0.303126 0.148383
-0.129814 0.536221 0.155211
-0.404246 -0.119090 -0.000274
-0.413713 -0.586809 -0.330680
0.102806 0.660181 0.122790
0.381760 -0.523693 -0.154245
-0.164994 -0.212137 0.090002
0.235418 0.482444 0.198198
0.176841 -0.047034 0.100786
-0.112314 0.479619 0.292287
0.144101 0.037365 -0.184498
0.130282 -0.372242 -0.291555
0.002732 -0.196631 0.065496
-0.100888 -0.224984 0.072114
-0.121038 0.689991 0.210503
-0.200572 0.615810 0.531988
-0.390388 -0.683909 -0.146321
0.159433 -0.372080 -0.310290
0.135031 0.427493 0.048738
0.166180 -0.222068 -0.157584
0.438797 -0.098499 -0.291509
0.360601 0.126712 -0.154638
0.446167 -0.511645 -0.443566
-0.319571 0.077131 -0.002539
0.216711 -0.560486 -0.257569
-0.136570 0.777226 0.472299
0.241844 -0.687907 -0.226262
-0.071773 -0.017621 0.160874
-0.422141 0.039953 -0.045767
0.360797 -0.046069 0.066551
0.171343 -0.055957 -0.207751
-0.214363 0.537712 0.452310
-0.234871 0.272857 0.328667
0.490050 -0.102308 -0.017364
0.029172 -0.196062 0.059373
0.030369 0.354621 0.153097
-0.025552 0.273722 -0.053703
-0.048059 0.363053 0.185180
-0.259592 -0.002959 0.207652
0.172660 0.265445 0.133383
0.455998 0.041630 -0.187062
0.492742 -0.175031 -0.025267
-0.372849 -0.181979 0.122856
0.209968 -0.625157 -0.355591
-0.145452 0.397393 0.293331
-0.248106 -0.002613 0.266943
0.177841 -0.088463 -0.211875
0.226453 0.353980 0.121526
-0.412951 -0.251129 -0.108352
0.454149 -0.475740 -0.379488
0.048827 0.242202 -0.073396
0.223761 -0.206040 0.000529
-0.104720 0.856426 0.371365
0.121972 0.776146 0.179000
0.059292 0.434451 0.013476
0.199060 -0.568405 -0.365355
0.279780 -0.466375 -0.207496
0.022959 0.077485 0.071970
0.251135 -0.632438 -0.179038
-0.271371 -0.674105 -0.099681
-0.104031 0.445376 0.078717
0.022005 0.809919 0.347678
-0.251893 -0.636377 -0.304446
0.001086 0.538422 0.054796
0.100376 0.863483 0.284692
-0.362609 0.050997 0.060963
-0.266210 -0.737326 -0.168501
0.027127 0.211984 0.093413
0.188731 0.206450 -0.000994
-0.233052 -0.461743 -0.108595
0.053580 0.834253 0.322220
0.474216 -0.051533 -0.101908
-0.323662 -0.022003 0.257463
0.480514 -0.119070 0.011150
0.134252 0.292974 -0.011737
-0.189304 0.365971 0.351789
-0.202814 0.639381 0.442193
-0.391507 -0.253269 0.023502
0.099237 0.468283 0.043061
0.468332 0.044696 0.036068
0.059700 0.729092 0.306391
-0.389361 -0.097397 0.100763
-0.331733 -0.213157 -0.198237
0.234105 0.291972 0.103637
-0.402020 -0.616403 -0.190614
-0.051794 0.045685 -0.145022
0.208165 -0.136142 0.054799
0.144204 0.783263 0.334597
-0.388356 -0.446911 -0.036470
0.116470 0.676523 0.137721
0.031597 -0.100482 0.103816
0.489942 -0.045011 0.001928
-0.274256 -0.444068 0.005276
0.409495 -0.508879 -0.451252
-0.188144 0.386368 0.202096
0.388345 -0.015438 0.075138
-0.240688 0.254411 0.365701
-0.002649 -0.240112 -0.065134
-0.200276 0.487632 0.310208
0.380705 -0.248615 -0.311326
-0.330022 -0.566989 -0.338378
-0.005725 0.753974 0.140795
0.058798 0.046312 0.130829
-0.414950 -0.042739 -0.035193
0.045806 0.645608 0.097083
0.267095 0.061299 0.104027
-0.203993 -0.104739 0.132840
0.122110 0.146839 0.069742
0.360861 -0.623949 -0.464243
-0.393651 -0.330724 -0.021562
0.416665 0.068682 -0.014461
0.363204 -0.011199 0.081783
0.231220 -0.363495 -0.360509
0.387286 -0.534715 -0.457376
-0.299545 -0.555076 -0.174174
0.064151 0.299891 0.127028
0.033456 0.066420 0.092293
0.205510 -0.585582 -0.443975
0.408157 -0.658107 -0.220221
0.111404 0.727297 0.153596
-0.195050 0.098190 0.213014
-0.212294 0.487293 0.376500
-0.196988 -0.412789 0.004942
-0.270046 -0.562385 -0.199934
0.191901 -0.531631 -0.415379
0.328241 -0.386529 -0.081920
-0.399393 -0.293060 -0.217848
0.325377 -0.238247 -0.309671
-0.180393 0.118511 -0.093113
0.178274 -0.242950 -0.113972
0.386474 -0.307011 -0.366738
-0.029857 0.495051 0.045967
-0.252249 -0.687129 -0.109190
0.254137 0.495832 0.244357
-0.079797 0.053677 -0.136754
0.173227 0.668178 0.296823
-0.047449 0.833654 0.188397
-0.307215 -0.022914 0.202866
0.178321 0.379590 0.181813
-0.309513 -0.671186 -0.342197
0.153531 0.226191 0.110572
-0.194781 0.055130 0.193106
0.200653 -0.441132 -0.145398
-0.290585 -0.243016 0.099606
0.245820 0.152062 0.051962
0.311790 -0.636352 -0.192222
0.294757 -0.108509 -0.253793
0.454510 0.020002 -0.204216
0.174504 -0.302892 -0.207326
-0.138355 0.002038 -0.128043
0.492797 -0.029872 0.025647
0.469772 -0.289709 -0.063755
0.474124 -0.635536 -0.306231
0.300981 -0.113863 0.047328
-0.141750 0.831083 0.335595
0.265227 -0.670353 -0.339376
0.431814 -0.689160 -0.238765
0.207425 0.187544 0.012668
-0.409301 -0.331042 -0.118557
-0.050973 0.884109 0.235227
-0.421371 -0.398570 -0.220977
0.454643 -0.381004 -0.343247
-0.076083 0.759328 0.183365
-0.253248 0.108547 -0.064759
-0.143958 -0.391846 -0.063237
0.166474 -0.352548 -0.135909
-0.256195 0.075771 0.151341
0.245096 0.490602 0.220667
0.053471 0.672580 0.108783
0.110922 -0.196357 -0.184725
0.061593 0.499244 0.041440
0.035407 -0.225681 -0.101821
-0.412858 -0.091957 -0.111857
0.046932 0.183885 0.079398
-0.053604 0.558963 0.085054
0.173400 0.043095 0.117921
0.300970 -0.294257 -0.346003
-0.420442 -0.367241 -0.202369
0.482419 -0.414796 -0.175677
-0.169632 0.135503 -0.033867
0.187491 -0.331128 -0.138127
-0.422316 -0.609946 -0.313586
0.203314 -0.285351 -0.012907
0.163627 -0.070762 0.092603
-0.348908 -0.156342 -0.172315
-0.397509 0.042488 -0.082255
0.235795 0.660356 0.279803
0.436651 -0.443372 -0.430129
-0.059082 0.777319 0.175820
0.359063 -0.377450 -0.389842
0.332515 -0.536025 -0.447833
-0.235807 0.122282 0.004971
-0.381778 -0.367169 0.036973
-0.290892 -0.680777 -0.310665
0.193485 -0.276659 -0.067389
0.105006 0.856600 0.202711
0.484097 -0.626181 -0.238561
0.051716 0.215937 0.092483
0.025501 0.731613 0.314262
-0.403294 -0.081192 0.021170
0.228719 0.190663 0.044293
0.472953 -0.142974 -0.141959
-0.377308 -0.443990 0.022194
0.219336 -0.419939 -0.215664
0.471408 -0.426506 -0.250852
0.253676 -0.689889 -0.268665
0.262647 -0.608614 -0.170389
-0.337916 0.052582 0.063512
0.090311 0.901719 0.334323
-0.050571 -0.093323 -0.199060
0.083785 -0.068761 0.108552
0.486920 0.043816 0.014723
0.450698 -0.705105 -0.257789
0.134714 0.036041 0.141688
-0.080954 0.837505 0.377318
-0.045518 0.673597 0.126933
-0.069800 0.237497 0.142285
0.444746 -0.423836 -0.414443
0.039206 0.618367 0.085618
0.466022 -0.206265 -0.025342
0.340940 0.061001 -0.211818
0.221765 0.580689 0.218871
-0.353985 -0.719006 -0.104525
-0.143002 -0.165687 -0.213479
0.483613 -0.501177 -0.163559
0.102531 -0.336992 -0.296803
0.198613 -0.309787 -0.065259
-0.174386 0.750029 0.543899
0.060340 0.695368 0.118941
-0.272151 -0.033949 0.318747
-0.386101 -0.032369 0.147624
0.195562 0.259839 0.140799
0.163537 -0.278432 -0.267045
-0.081815 0.559575 0.107179
0.044808 0.483029 0.031271
-0.149427 0.754542 0.292812
-0.089716 0.220243 0.148693
-0.141692 -0.467878 -0.030771
-0.411425 0.024739 0.014321
0.140666 -0.420638 -0.164378
0.288414 -0.135493 -0.252167
-0.355158 -0.158406 0.127782
0.448776 -0.600031 -0.457551
-0.084841 0.479584 0.074869
0.397376 -0.702824 -0.267522
-0.100995 0.037789 0.183732
-0.160882 0.438309 0.338655
-0.335517 -0.491247 -0.004617
-0.246889 0.137367 -0.054903
-0.042410 0.820205 0.356462
0.357744 0.039143 0.079653
0.105955 0.705309 0.141966
0.263986 0.279995 0.153051
-0.054005 0.048607 0.150637
-0.156020 -0.466049 -0.061217
-0.052659 0.279923 -0.039143
0.066369 0.660916 0.277290
-0.409558 -0.211246 -0.070977
0.470593 -0.095835 -0.140759
0.454294 -0.281137 -0.310665
-0.105303 0.333700 0.214976
-0.344719 -0.181664 0.119486
-0.200747 0.435025 0.276196
0.272970 -0.433172 -0.218684
0.373756 -0.018220 -0.248463
0.267359 -0.684968 -0.205933
0.086221 -0.178447 0.041116
-0.241272 0.129768 0.223302
-0.055864 0.508547 0.255486
0.199097 -0.314765 -0.335586
0.482471 0.003206 -0.029499
-0.056402 -0.136471 0.083547
0.473573 -0.276174 -0.184425
-0.078657 0.685425 0.355933
0.046556 0.062120 -0.156888
0.157463 -0.228824 -0.122522
-0.419187 -0.476693 -0.284309
-0.216670 -0.332403 0.045132
0.112034 0.856021 0.229733
0.097874 -0.145809 -0.249275
0.059936 0.400045 -0.001163
-0.146879 0.556950 0.378909
0.320670 -0.608468 -0.181235
-0.117680 0.148151 -0.069563
-0.310978 -0.183711 0.114984
-0.259593 -0.136648 -0.180591
-0.181859 0.173920 0.231656
0.225205 -0.107308 -0.228336
0.258454 -0.453184 -0.148369
0.303867 -0.170473 0.021319
0.151643 0.223622 -0.029748
0.385746 -0.269780 -0.325115
0.253470 0.382084 0.184067
-0.194129 0.585530 0.500083
0.453754 -0.193457 -0.283567
-0.313757 -0.690885 -0.299775
-0.199217 0.738086 0.502178
-0.258956 -0.486120 -0.066646
0.362729 -0.705315 -0.261999
0.434986 -0.474242 -0.141809
-0.419708 -0.424422 -0.221296
0.072934 0.420945 0.177145
-0.418606 -0.296461 -0.161960
-0.196065 -0.068064 -0.143719
0.460388 0.066499 -0.020013
-0.368466 -0.306529 0.085429
-0.231815 -0.277977 0.072685
-0.388253 0.013361 -0.095208
0.124263 -0.014503 0.125329
0.007992 0.597521 0.077849
0.475760 -0.168737 -0.132823
0.475149 -0.319739 -0.189447
-0.293955 0.093995 0.089580
0.452797 -0.569487 -0.420926
0.400432 -0.497501 -0.145867
0.211779 -0.409379 -0.240093
0.038440 0.000431 -0.176215
-0.131656 0.729627 0.245246
-0.144835 0.101401 0.144724
0.204619 0.454741 0.135772
-0.298334 -0.450119 0.007058
0.160464 -0.217119 -0.262582
-0.307493 -0.585592 -0.052711
0.120408 0.728370 0.307374
0.040725 0.952868 0.257387
0.252303 -0.168341 0.029677
-0.076459 0.402234 0.221952
-0.416382 -0.276339 -0.139934
0.250920 0.312863 0.143931
0.067542 -0.007780 0.139044
-0.339230 -0.543403 -0.027593
-0.383375 -0.592663 -0.065431
0.349758 -0.059605 -0.259990
0.413446 0.019450 -0.241275
-0.412196 -0.127444 -0.052916
0.469501 -0.116627 -0.155066
-0.396022 -0.577616 -0.137566
0.145432 0.616758 0.267109
0.139302 0.673671 0.154111
0.254625 -0.355346 -0.361934
0.477644 -0.279062 -0.159146
0.095044 -0.017071 0.129681
-0.193107 -0.301513 -0.003332
0.462170 -0.347692 -0.283019
-0.374057 -0.719663 -0.229190
-0.210486 0.518467 0.392203
-0.304901 -0.756156 -0.135867
0.461467 0.042305 -0.151508
-0.370719 -0.355705 0.063281
-0.128695 -0.050381 0.156865
-0.173760 0.624350 0.470205
0.235283 0.529775 0.220085
0.472318 -0.488922 -0.266751
-0.317176 -0.473206 -0.257538
-0.231685 0.118073 0.300603
0.346541 -0.583249 -0.468991
-0.039537 0.611333 0.098556
-0.254810 -0.554829 -0.231149
0.318221 0.118694 -0.122232
0.290237 -0.615713 -0.178800
-0.387914 -0.201942 0.066812
-0.072348 0.528734 0.277018
-0.139555 0.684065 0.434852
0.132357 0.643070 0.274706
-0.386605 -0.541711 -0.064543
0.143008 -0.435715 -0.086837
-0.392227 -0.562995 -0.108058
0.025980 0.852250 0.171845
0.279865 -0.078961 0.067008
-0.407178 -0.435542 -0.148304
-0.191015 -0.367325 -0.022454
-0.080118 0.126606 -0.108553
-0.150022 0.129815 -0.094374
-0.354654 -0.462985 -0.293243
0.109139 0.765140 0.321003
-0.203933 -0.266283 -0.074594
-0.379621 -0.260909 -0.208631
-0.411231 -0.668695 -0.351346
-0.267581 0.039052 0.263783
0.031001 -0.117927 0.081233
-0.022759 -0.119155 0.086936
-0.155040 0.271241 0.063704
-0.280186 -0.003484 -0.105125
-0.193427 0.385002 0.371913
-0.345241 -0.494936 -0.307502
0.338084 -0.655168 -0.389095
-0.228168 -0.428927 0.003481
0.470795 -0.174130 -0.166768
0.068805 0.618716 0.091681
-0.057431 0.525557 0.073339
0.177184 -0.022782 0.111631
-0.096095 0.408487 0.241562
-0.342768 -0.293083 0.086695
-0.043180 -0.271979 0.011789
-0.080810 0.159772 -0.084368
-0.165107 -0.432658 -0.140510
0.457256 -0.555787 -0.387348
0.058399 -0.014879 -0.174595
0.482581 -0.288692 -0.130617
-0.204698 0.696649 0.547015
0.062324 -0.059275 0.116861
-0.202285 0.724725 0.536416
0.163782 -0.445580 -0.077789
-0.109002 0.674567 0.186479
-0.366290 -0.708988 -0.257815
-0.285088 -0.659419 -0.346799
-0.280434 -0.394044 -0.274693
-0.159400 -0.162169 0.095816
0.452050 0.057331 -0.207079
0.178314 -0.420328 -0.188851
-0.005576 -0.220502 -0.113337
-0.131831 0.174818 0.165838
-0.112701 0.817249 0.374774
0.242266 0.442672 0.238501
-0.231490 -0.070739 -0.139378
0.463508 -0.201396 -0.223339
-0.195706 0.427835 0.252105
-0.073926 0.299099 -0.016785
-0.079317 -0.230013 -0.091879
0.479283 -0.085201 -0.080929
-0.236341 0.283475 0.355461
-0.143886 0.055360 0.165508
0.234393 0.035735 -0.201843
-0.325764 -0.097323 -0.152716
-0.310967 -0.456279 -0.216438
-0.239050 -0.016633 0.243709
-0.058247 -0.235889 0.059145
0.428545 0.090178 -0.216777
0.420096 -0.621764 -0.465930
-0.186601 0.622895 0.503021
0.438173 0.041277 -0.237431
-0.205531 -0.326870 -0.093937
-0.272460 -0.503364 -0.021977
0.174244 0.395427 0.071032
-0.151260 -0.372797 -0.164165
0.407029 -0.557809 -0.470106
0.179054 -0.454056 -0.096160
0.156728 -0.433102 -0.140022
0.151687 0.811304 0.323512
-0.257728 -0.112094 0.138568
0.278881 -0.555576 -0.445686
-0.200900 0.021014 0.194654
-0.029428 0.210170 -0.081766
0.476675 -0.419482 -0.214386
0.438963 -0.124633 -0.301542
-0.056650 0.389692 0.202336
0.001650 0.646444 0.285734
-0.407426 -0.632325 -0.230607
0.186473 -0.429039 -0.074552
-0.355114 0.060694 0.105824
-0.157171 -0.285826 0.055083
0.035653 0.330861 0.142323
-0.174307 0.644877 0.484232
0.454896 -0.047051 -0.225112
0.228507 0.511546 0.199522
0.340792 -0.007243 -0.238124
0.022778 0.065874 -0.151037
0.033489 0.396674 0.170369
-0.148283 0.551875 0.195376
-0.228254 0.198347 0.340399
0.466526 -0.406534 -0.275417
0.246446 0.606567 0.280347
-0.351310 -0.403276 -0.270325
-0.368295 -0.354563 -0.247945
-0.107522 0.253023 -0.009441
-0.293208 -0.693209 -0.285660
0.117041 0.310265 -0.015744
0.016300 0.572047 0.066647
0.428395 -0.424412 -0.117951
0.174603 -0.113951 -0.219185
0.265773 -0.116805 -0.242300
0.475877 -0.363051 -0.199867
0.248802 0.549275 0.266934
-0.057754 -0.235423 -0.077598
0.075894 0.656218 0.108813
0.462787 -0.293925 -0.260276
0.284399 -0.525262 -0.210490
0.252364 0.244761 0.166988
-0.072551 0.208779 -0.060622
-0.050190 0.890447 0.385894
-0.167760 0.073073 -0.112986
0.319827 -0.350630 -0.064042
0.266970 -0.243868 -0.319596
0.175500 -0.007673 -0.207690
-0.217591 0.489960 0.427311
0.154349 -0.092786 0.084445
0.075888 0.366817 0.154751
-0.130289 0.068497 0.142291
-0.098349 0.895562 0.296901
0.185534 0.639120 0.289982
0.261638 0.090168 -0.025322
-0.390470 -0.657532 -0.136003
-0.176758 0.567098 0.273062
0.067508 -0.204775 -0.156577
0.360975 0.010699 -0.234937
0.478621 -0.565867 -0.252888
-0.011118 -0.230812 -0.087967
-0.417905 -0.392119 -0.196881
-0.253607 -0.254120 0.087612
0.380157 -0.477389 -0.433415
-0.263624 -0.526540 -0.322961
-0.202830 0.660427 0.462418
-0.125326 0.755487 0.245054
0.480147 -0.455922 -0.204676
0.075971 0.521215 0.218819
-0.033124 -0.232103 0.056138
-0.036345 0.744037 0.148882
0.013590 0.307106 -0.046212
0.352587 -0.197401 0.000028
-0.126482 0.391760 0.081276
0.388754 -0.651190 -0.396954
-0.142214 0.382251 0.100038
-0.155821 -0.188089 -0.200443
0.474047 0.032876 -0.073549
-0.206521 0.324490 0.366144
-0.023082 0.816892 0.169511
-0.305288 0.015739 -0.108411
0.484072 -0.042191 -0.035000
0.398649 -0.203639 -0.300922
0.182501 0.493525 0.229699
-0.099834 0.141012 -0.099344
0.156776 -0.011468 0.120567
-0.160421 0.473143 0.180938
0.460306 -0.304503 -0.081872
0.389229 -0.443816 -0.119393
0.163563 0.630336 0.278052
-0.349564 -0.126712 -0.160267
-0.164437 0.030669 -0.129964
-0.231641 -0.640766 -0.197543
-0.052678 0.572135 0.282027
0.372727 -0.708240 -0.238061
-0.026715 0.045983 -0.149550
0.419783 -0.578179 -0.480467
-0.262837 -0.463049 -0.120255
-0.106496 -0.146809 -0.212493
0.147029 -0.048131 0.105912
0.118584 0.787762 0.331506
-0.233474 0.020403 0.245120
0.181224 0.611698 0.277072
0.231537 0.055688 0.105120
-0.099894 0.311567 0.199506
0.220124 -0.586208 -0.242340
0.450355 -0.527397 -0.422012
-0.254335 -0.497160 -0.039656
-0.403342 -0.357983 -0.092729
0.363000 -0.655769 -0.387112
0.469309 0.011941 -0.111452
-0.141929 0.781827 0.288179
-0.038351 0.531050 0.254479
-0.128058 -0.245745 -0.059181
-0.186824 0.542165 0.292060
0.226975 -0.658754 -0.316742
0.197096 -0.591583 -0.421253
-0.398118 0.092202 -0.061880
-0.106039 -0.120381 0.099860
-0.396377 -0.647272 -0.356868
-0.353386 -0.620398 -0.354643
-0.124348 0.710906 0.224699
-0.225458 -0.657428 -0.167697
-0.398795 -0.491161 -0.119247
-0.424457 -0.376169 -0.230883
0.397814 -0.293483 -0.340811
-0.116719 0.188057 -0.031958
-0.392480 -0.374797 -0.251553
0.241693 0.138381 -0.157844
0.466874 0.057026 -0.111454
0.448098 -0.174840 -0.007828
-0.224927 -0.007311 0.194377
0.301782 -0.176431 -0.266918
0.237976 0.754195 0.328402
-0.115266 0.887251 0.333917
0.248748 0.273853 0.120060
-0.157243 0.728214 0.494396
-0.211885 0.180284 0.291833
0.174580 -0.325079 -0.191972
0.410832 -0.304143 -0.080355
-0.203667 0.410193 0.270760
0.185225 0.721395 0.222347
0.194319 -0.315789 -0.094640
0.196137 -0.531522 -0.373953
-0.010600 -0.240436 0.048120
-0.237946 -0.420030 -0.204488
-0.188589 -0.340845 0.013284
-0.021592 0.415155 0.008400
-0.158777 0.702836 0.482883
0.079375 -0.271401 0.015027
-0.194930 0.413926 0.392767
-0.128561 0.420995 0.098435
0.171811 0.342590 0.044409
-0.056733 0.171750 -0.087992
0.193363 -0.567563 -0.411140
0.485131 -0.311246 -0.080558
0.090240 0.121014 0.054166
0.329129 -0.519975 -0.142659
0.121645 0.529694 0.226270
0.048477 0.056368 0.110621
-0.364513 0.066909 0.018361
-0.005981 0.418992 0.190277
0.258605 0.431999 0.221926
-0.175425 0.669370 0.324646
0.197023 0.658846 0.303095
0.016539 0.559799 0.243422
-0.075617 -0.190615 -0.187518
0.131001 0.617806 0.125086
-0.001440 0.387482 -0.008820
-0.304182 -0.508041 -0.189550
-0.172518 0.466129 0.205417
-0.412527 -0.150480 -0.064419
0.450827 -0.138505 -0.283293
-0.386366 -0.514966 -0.052083
0.189703 -0.313027 -0.120874
0.398289 -0.615147 -0.198865
-0.233568 -0.665621 -0.212063
-0.324462 -0.751667 -0.151225
-0.154493 0.336664 0.274963
-0.033421 0.408295 0.197363
0.195885 0.333491 0.170904
0.380207 -0.478538 -0.133457
-0.190389 0.779166 0.466125
-0.405109 -0.388434 -0.116165
0.176654 -0.304945 -0.327560
0.450478 -0.677458 -0.327248
0.059924 -0.176283 0.047716
-0.163127 0.298117 0.092848
0.386749 -0.367310 -0.390873
0.274770 -0.333432 -0.047762
0.334279 -0.146085 -0.269721
-0.121112 0.813541 0.261637
-0.303487 -0.283371 -0.231443
0.110198 0.156570 -0.090361
-0.405223 -0.139902 -0.014863
0.466899 -0.503228 -0.306735
0.454910 -0.257840 -0.298558
-0.129664 0.203802 -0.008887
-0.221104 0.269469 0.369254
-0.168559 -0.205584 -0.161327
0.280588 -0.645440 -0.190479
0.207017 0.154677 0.103834
-0.200746 0.118571 0.024296
-0.405635 -0.505892 -0.167630
-0.373828 -0.621294 -0.056713
0.118162 0.082131 -0.162422
-0.213665 0.311373 0.241359
0.013342 -0.216663 0.054408
-0.165733 -0.417582 -0.174607
-0.221207 -0.637732 -0.121767
-0.182814 0.770010 0.409198
0.308526 -0.020677 -0.237335
0.170131 -0.400055 -0.239722
-0.124467 -0.215880 0.080682
0.030880 0.960794 0.234423
-0.383423 -0.067429 0.149809
0.187869 0.435985 0.105101
0.120254 0.110968 -0.151682
-0.160985 0.096246 -0.105298
0.236022 0.266553 0.094046
-0.381970 -0.279918 0.071591
0.271462 -0.471218 -0.264793
0.412155 0.105324 -0.111013
0.145482 -0.021198 -0.206733
0.421480 -0.601567 -0.197062
-0.113059 0.051587 0.159301
-0.165124 0.651995 0.283984
0.117826 -0.234841 0.026506
-0.307106 -0.519598 -0.324137
0.086912 0.351704 -0.013227
0.328881 -0.444470 -0.410968
-0.209856 0.477696 0.352666
0.096521 0.825877 0.305571
0.191095 -0.170794 0.023176
-0.090524 0.760250 0.404391
0.384927 -0.638721 -0.207052
-0.010479 -0.202473 -0.157733
-0.365247 -0.274469 0.099373
-0.060293 0.811603 0.189618
-0.001995 0.351581 -0.024557
0.382324 -0.199157 -0.006364
-0.332526 -0.222112 0.116982
-0.211141 0.274263 0.346611
0.265899 0.109467 -0.084011
0.317628 -0.072229 -0.258913
0.102778 0.892580 0.296528
0.470872 -0.226416 -0.184514
0.215503 -0.035562 0.098660
0.120198 -0.390969 -0.219802
0.134803 0.845928 0.238230
-0.342789 -0.650810 -0.365438
0.457941 -0.525594 -0.372389
-0.384592 0.038665 0.149030
0.120395 -0.127907 -0.227853
-0.251935 -0.423878 0.010243
-0.002693 0.063978 -0.147053
-0.001697 -0.191129 -0.185981
0.169423 -0.411873 -0.063554
-0.231556 0.116392 0.166017
0.293032 -0.422809 -0.091766
-0.022233 0.788414 0.359639
-0.187333 0.699940 0.389950
-0.133866 0.224589 0.007295
-0.387768 -0.711369 -0.141373
0.065391 -0.119412 -0.224694
0.360975 -0.375331 -0.082993
-0.232993 0.092287 0.152704
0.166730 -0.031597 -0.214487
-0.379437 -0.008439 0.198697
0.113998 -0.369173 -0.241063
-0.214259 0.236183 0.189000
-0.257306 -0.394724 0.024486
0.040870 0.575384 0.244452
-0.122932 0.589314 0.168938
0.319982 -0.569573 -0.163451
-0.001960 0.816276 0.350529
-0.343605 -0.716342 -0.241132
-0.093394 0.167796 0.127396
0.464716 -0.074331 -0.171213
-0.235682 -0.203772 0.107094
-0.061497 -0.055480 -0.154591
-0.115442 0.161383 0.143113
-0.166999 -0.242072 -0.076260
-0.328753 0.076035 0.064005
0.036791 0.831181 0.164723
-0.406231 -0.593714 -0.207365
0.066501 -0.172182 -0.238583
-0.402497 0.084589 -0.033997
-0.350244 -0.240597 0.111924
-0.206089 0.497604 0.475182
-0.383401 -0.677197 -0.100318
0.450573 -0.444571 -0.391711
-0.248375 0.142978 0.284369
-0.320912 -0.061820 0.187947
-0.422881 -0.242985 -0.190840
-0.160327 0.399832 0.142029
0.217693 0.298093 0.081001
0.023548 0.090627 -0.141628
0.038299 -0.030114 -0.168487
0.475545 -0.516447 -0.255513
-0.226634 -0.304640 0.059607
-0.098337 -0.201618 -0.162031
-0.107859 -0.080465 -0.172273
0.184307 0.543431 0.250727
0.464438 -0.563390 -0.187813
0.227900 0.472834 0.244017
-0.398937 -0.157735 0.016724
-0.179345 0.005517 0.191556
-0.421240 -0.478206 -0.252852
0.482035 -0.491168 -0.204779
-0.157777 0.729536 0.302268
-0.315966 0.039778 -0.098396
0.152007 0.202564 0.100478
0.492568 -0.138310 -0.001169
0.276317 -0.205830 -0.008543
-0.385296 0.033604 0.179688
0.458898 -0.192201 -0.249902
-0.163363 -0.443945 -0.114357
0.180834 0.676676 0.198998
0.270677 -0.522168 -0.431023
-0.016329 0.325108 0.153447
-0.125859 0.805466 0.405614
0.148553 -0.401242 -0.222906
-0.261567 0.098190 -0.085927
-0.252195 -0.397870 -0.261135
0.466298 -0.377405 -0.266723
-0.408367 -0.074980 -0.007682
-0.315847 -0.079401 -0.127776
0.250941 -0.443241 -0.383572
0.454541 -0.123939 -0.254230
0.163136 0.564997 0.132869
-0.131455 0.449757 0.300843
-0.201990 -0.290164 -0.058810
0.148945 -0.084624 -0.203434
0.161872 -0.246566 -0.269028
0.021458 0.144604 0.065935
-0.412916 -0.071301 -0.034326
-0.129706 -0.171127 0.089378
0.003901 0.041894 -0.156796
-0.215037 0.455826 0.366856
-0.416401 -0.227283 -0.119919
0.309290 -0.489874 -0.425358
0.050750 0.561502 0.064405
0.237825 0.635042 0.272703
-0.100431 0.783867 0.219625
0.159866 0.034626 0.137704
0.291900 -0.454320 -0.105856
0.028868 -0.193835 -0.180708
0.122574 0.258407 0.115487
0.221056 -0.228600 -0.305083
-0.419335 -0.194885 -0.124779
0.009487 0.953772 0.262535
0.105993 0.846486 0.254590
-0.213460 0.334862 0.258242
0.314760 0.006459 -0.228018
0.129888 0.378630 0.166289
-0.209781 0.010734 -0.116137
0.131214 -0.310148 -0.249608
-0.316132 -0.000547 0.336157
-0.402882 -0.165740 -0.010982
-0.203545 0.389071 0.255755
-0.186223 0.741423 0.409155
-0.231965 0.318923 0.358775
-0.131120 -0.115670 -0.195442
-0.414352 0.051068 0.007010
-0.073732 0.151136 0.105908
-0.392632 -0.039775 -0.093662
0.156826 -0.193600 -0.270300
-0.180374 0.528159 0.427782
-0.070154 0.645326 0.132965
0.418316 -0.693224 -0.290495
-0.138452 0.600941 0.200139
0.080291 0.706633 0.129796
-0.136214 -0.236336 -0.082636
-0.182676 0.647266 0.507816
-0.421885 -0.315413 -0.190034
-0.365847 0.070636 0.154463
-0.250985 -0.454258 -0.003726
-0.299715 -0.526579 -0.167861
-0.168445 0.376389 0.146659
-0.050690 0.547694 0.269605
-0.412786 -0.056790 -0.093561
0.197494 -0.582777 -0.390538
0.129216 0.848600 0.213582
0.437462 -0.226393 -0.029014
-0.057359 -0.040462 0.147883
-0.352332 -0.434944 0.024099
0.099201 0.662984 0.278165
-0.191897 -0.328327 -0.269659
0.241219 0.201462 0.142247
0.438735 -0.292002 -0.073401
-0.424276 -0.422147 -0.255516
-0.003223 -0.133688 0.073618
0.435593 0.009813 -0.249094
-0.391607 -0.381352 -0.029670
-0.210079 0.406406 0.296625
0.486290 -0.085064 -0.035631
0.422178 -0.196979 -0.012902
-0.387606 -0.639981 -0.111071
-0.136261 0.574803 0.184022
0.479101 -0.501347 -0.227276
-0.108313 -0.105358 -0.195411
0.017948 0.501516 0.218117
-0.203568 0.309709 0.201983
-0.248317 -0.607531 -0.292251
0.202871 -0.603158 -0.371917
0.219591 0.371551 0.198339
0.072548 0.953235 0.248851
0.237608 -0.661554 -0.339154
0.428430 -0.447788 -0.128569
-0.236539 0.062514 0.278164
-0.402803 -0.151759 -0.160698
-0.294413 0.091262 0.005904
-0.108445 0.207301 0.158309
0.068303 0.191447 -0.092075
0.240984 -0.494179 -0.357653
-0.033582 0.724728 0.338101
0.222897 0.737136 0.338890
-0.323823 -0.656425 -0.081792
-0.273835 -0.035195 0.288006
0.034791 0.115693 -0.134037
0.061228 0.904461 0.346780
0.192761 0.078903 0.069634
0.149956 -0.367781 -0.111652
0.007553 -0.144747 -0.232405
0.489973 -0.074270 -0.008077
-0.146562 -0.377431 -0.101951
0.073346 -0.147944 0.053299
0.104754 0.808048 0.336452
0.202723 -0.451735 -0.117406
0.152817 0.472171 0.210348
0.461558 0.013417 -0.160992
-0.111150 0.875403 0.311880
-0.170175 0.563753 0.426304
0.144092 -0.359988 -0.332590
-0.189699 -0.313117 0.022269
-0.236851 -0.192756 -0.207298
-0.307321 -0.704217 -0.106588
-0.159177 0.555154 0.220154
0.335656 -0.483775 -0.127455
-0.055691 0.839117 0.368500
-0.219561 -0.684934 -0.133517
-0.098656 -0.169511 0.086670
0.423195 -0.681541 -0.319478
-0.183812 0.689096 0.367328
-0.182395 0.725504 0.381894
0.432817 0.110127 -0.129197
0.257927 -0.578153 -0.450698
0.380049 0.059590 0.019313
0.465895 0.034816 -0.125522
-0.408143 -0.151996 -0.037904
0.191045 -0.380279 -0.053280
0.449541 -0.415000 -0.388058
0.272814 -0.404663 -0.384896
-0.073531 0.710248 0.362728
-0.416458 -0.449956 -0.211662
-0.268938 -0.219324 -0.212121
-0.107629 0.585838 0.338874
-0.257842 -0.745668 -0.138624
-0.030278 0.388929 -0.000093
-0.208672 0.253115 0.327878
0.277155 -0.680636 -0.316218
-0.146589 0.723353 0.272448
-0.292521 -0.521504 -0.123967
0.296255 -0.518173 -0.434139
-0.091773 0.791144 0.418789
0.175589 0.128930 -0.111555
0.208003 -0.185493 0.011078
-0.235362 0.219152 0.274134
0.104037 0.376672 0.160941
0.254361 -0.627094 -0.447039
-0.403377 -0.006922 0.051143
0.250195 0.247765 0.109274
0.094757 -0.253064 0.022573
0.152908 0.368625 0.168344
-0.224373 -0.251198 -0.177218
0.201785 -0.001585 -0.210207
-0.046715 -0.010149 0.159512
-0.187130 0.493162 0.422353
-0.049035 -0.074081 -0.170118
0.176061 0.114033 0.073218
0.160572 0.449613 0.203666
-0.400194 -0.293751 -0.046882
0.207998 -0.589387 -0.315233
0.290583 -0.273679 -0.032336
-0.061748 0.016775 -0.151379
0.473529 -0.603565 -0.298921
0.302056 -0.376395 -0.072395
-0.412584 -0.548762 -0.228235
0.304992 -0.561201 -0.452691
-0.061117 0.034338 0.179151
0.330586 -0.246506 -0.039110
0.333691 -0.122106 -0.276995
-0.383293 -0.447127 -0.005215
-0.270104 -0.225959 0.103496
0.134199 0.453391 0.197694
-0.058120 0.867398 0.380257
-0.220215 0.142791 -0.062151
0.134085 0.139350 -0.083546
-0.385645 -0.374275 0.010133
-0.239842 0.139112 0.311233
0.105250 -0.149656 0.046787
0.043383 0.453107 0.018382
0.116747 -0.245678 -0.059825
0.056993 -0.219019 -0.119848
0.271276 -0.448359 -0.253082
-0.280817 -0.551590 -0.222288
-0.145996 -0.262895 0.063390
-0.322755 -0.446559 0.013267
-0.177196 -0.181100 -0.211149
-0.040151 0.955830 0.263904
0.334697 -0.326766 -0.365167
0.181754 -0.196127 0.013650
-0.021026 0.886381 0.208836
0.300730 0.093328 -0.191900
-0.032641 0.341444 0.167542
0.450607 0.039594 0.054287
0.074950 -0.264114 -0.008865
-0.191674 -0.343001 -0.011331
-0.093395 0.580008 0.127485
0.013915 -0.170807 -0.235738
-0.242586 0.220835 0.332853
-0.410191 -0.238710 -0.086169
0.249179 -0.557348 -0.212720
0.144624 -0.394028 -0.060205
0.294462 -0.050381 0.077113
-0.102955 0.807219 0.396548
0.174825 0.798108 0.238478
-0.120037 0.764300 0.445641
-0.047023 -0.225506 -0.101417
0.269668 0.162148 0.137805
-0.424373 -0.119249 -0.124904
-0.384045 0.008226 0.177016
0.059181 0.322413 0.136460
0.157338 0.496795 0.221801
0.059008 0.788038 0.152855
0.256463 -0.660311 -0.192692
-0.255149 -0.713783 -0.120743
-0.351781 -0.075422 -0.115150
0.239019 0.008156 0.113894
0.192934 0.762271 0.343061
0.391835 -0.693735 -0.290940
-0.214059 0.417356 0.326684
0.125536 0.499843 0.214875
0.460953 -0.044643 -0.185158
-0.239676 -0.351923 0.040598
-0.417270 -0.659656 -0.302759
-0.086627 0.029813 -0.144699
0.270296 -0.689072 -0.288896
-0.061224 0.112787 -0.117383
0.484408 -0.255685 -0.107304
0.454533 -0.434405 -0.362588
0.470735 0.056498 -0.086703
-0.120121 0.657882 0.391015
0.241672 0.012784 -0.212047
0.149736 0.010916 0.131963
-0.405036 -0.119864 -0.147449
0.457874 -0.493207 -0.361526
0.462402 -0.415645 -0.305227
-0.095043 0.727593 0.393623
-0.181466 0.400906 0.355804
0.478578 -0.037143 -0.068713
-0.222832 -0.182005 0.113216
0.375795 -0.199956 -0.291952
-0.075530 -0.061486 0.141850
0.076669 -0.186958 -0.202533
-0.228842 -0.237980 -0.198141
-0.166855 0.674940 0.300628
0.448899 0.101672 -0.110829
0.258832 -0.402624 -0.298736
-0.137665 0.660191 0.418812
-0.202599 0.139128 0.088307
0.173971 -0.270831 -0.201328
-0.117983 0.848863 0.319624
