-0.601177 -0.140635 -0.694598
0.481313 0.850708 -0.055452
-0.339864 -0.325015 0.389939
0.380555 0.453942 -0.783664
-0.150900 0.799688 0.050706
0.031927 0.467410 0.381167
-0.144351 0.783650 0.315140
0.036276 0.314661 -0.927247
-0.060555 0.965459 0.075385
-0.130848 0.745518 -0.498856
0.550897 -0.828195 0.088889
-0.221638 -0.565901 0.111245
-0.114250 0.842191 0.468478
0.367579 -0.473414 0.192343
-0.398889 -0.654025 -0.125240
0.183117 0.651038 -0.706675
-0.178532 0.938600 0.161506
-0.655236 -0.101191 -0.714910
-0.293754 0.220371 -0.864959
0.902411 -0.410537 -0.121439
-0.157869 -0.941312 0.259676
0.535979 0.230892 -0.796898
0.505377 0.343475 0.090392
0.274712 0.827971 0.271960
-0.119194 0.507916 0.716461
-0.326093 0.020670 -0.922181
-0.584013 -0.148273 -0.003019
0.521404 0.318816 -0.096074
0.167823 0.055113 -0.590805
0.578113 0.228022 0.006946
0.490895 0.801526 0.141342
-0.741868 0.132999 -0.326481
-0.874857 0.009869 0.417857
-0.507902 -0.235678 -0.232958
0.207146 0.610597 0.360901
0.079588 0.468902 -0.377503
-0.120821 -0.079996 -0.595714
-0.251000 -0.679031 0.668166
-0.567917 0.113762 0.513554
-0.208013 0.054128 0.953410
0.244067 -0.657018 0.306298
-0.164488 -0.834865 0.502803
0.481690 0.379022 -0.071430
0.622512 -0.015991 0.070379
0.476431 -0.508108 0.145638
0.073129 -0.154277 -0.754772
0.577485 0.785622 -0.108594
0.277687 -0.057282 -0.552737
0.639942 0.017364 -0.756973
0.313553 -0.150769 -0.925573
0.919135 0.045948 -0.375690
-0.358904 -0.134684 -0.633627
0.924409 0.355062 -0.030162
0.496777 0.336708 -0.147125
-0.968631 0.014260 0.002212
-0.507428 -0.698718 -0.129880
-0.572266 -0.621018 0.498282
0.481618 -0.570985 -0.128083
0.217910 -0.475872 0.343007
-0.021909 0.587065 0.130889
-0.214366 -0.811117 0.520520
-0.906773 -0.354025 0.004028
0.954040 0.058984 -0.273798
0.484001 0.688742 -0.504705
-0.889781 0.133374 0.356597
-0.519121 -0.281004 -0.141913
-0.676019 -0.581293 0.403841
-0.000862 0.630250 -0.744857
-0.465171 -0.170498 0.841755
0.201623 0.160821 0.857510
-0.409570 -0.136072 -0.655888
-0.710747 -0.674023 -0.030576
0.337768 -0.677563 0.218099
0.484067 -0.134790 -0.608939
-0.734806 0.130742 -0.394058
-0.334342 -0.626342 0.681036
-0.006225 -0.141849 -0.703141
0.494621 -0.316351 -0.233777
-0.213326 0.138883 -0.944757
0.716325 0.514087 0.130095
-0.487258 0.023139 -0.845959
0.163271 -0.427950 0.771360
-0.158988 0.389073 0.726949
0.067702 -0.263945 -0.949157
-0.377901 -0.399250 0.267551
-0.365775 0.171991 -0.793090
0.551022 -0.177173 -0.243832
-0.465046 -0.339646 0.197428
-0.182529 0.859826 -0.192539
0.613077 -0.787313 0.042169
0.691602 0.396351 -0.583719
0.007370 -0.960316 -0.253424
0.441068 -0.889608 0.099879
0.290435 0.218573 -0.497550
-0.076770 0.428905 -0.874693
-0.017766 -0.160405 0.968882
0.072446 -0.224308 0.570954
0.372952 0.575349 -0.701956
-0.148837 0.411028 0.778079
0.812231 0.536293 0.158042
-0.413121 0.149159 -0.747289
0.133155 0.119156 -0.588219
-0.390011 -0.452861 -0.136566
0.901801 0.202102 -0.361008
-0.110383 0.588798 -0.756296
-0.182130 -0.897477 0.372033
-0.811459 -0.396882 -0.180978
0.885173 -0.197818 0.194889
-0.803016 -0.097590 0.537674
0.189821 -0.597755 0.024095
-0.027409 0.215189 0.568030
-0.418774 -0.153299 -0.871748
-0.023943 -0.038644 -0.982546
-0.240041 -0.916249 0.283520
-0.515766 -0.826100 -0.142437
0.224122 -0.353378 0.895003
-0.349683 -0.037546 0.910844
-0.443627 -0.849817 0.227168
0.028562 -0.041446 -0.613610
0.056402 0.558301 -0.225966
0.379604 0.896375 -0.088776
0.114029 0.114813 0.590509
0.392415 0.033867 -0.906186
0.209096 0.856282 0.356237
-0.154239 -0.911511 -0.217479
-0.100558 -0.906970 -0.213799
0.370491 -0.165006 -0.902969
-0.598525 0.112307 -0.492030
-0.805088 0.157016 -0.141910
0.051272 0.361554 -0.908752
-0.656097 0.110943 -0.709893
0.868615 0.469308 -0.056818
-0.064633 0.300095 0.926973
0.943694 0.223821 0.208550
-0.642164 -0.153639 -0.478937
0.278168 0.726239 0.267708
-0.110925 0.577262 -0.401718
-0.892828 -0.387335 -0.035088
-0.222135 -0.573907 0.058469
-0.322519 0.087898 0.502485
0.285476 0.355065 -0.410996
0.770307 -0.196060 0.143658
0.274154 0.917659 -0.184380
0.550262 -0.430084 0.129148
-0.328659 0.017134 -0.509826
-0.763626 -0.591558 0.153230
-0.961056 0.041152 -0.111716
0.483680 -0.861512 0.143297
-0.486835 -0.695365 0.495200
-0.466676 0.131257 0.436331
-0.075056 0.943692 0.211875
-0.948424 -0.092453 -0.181021
-0.899203 0.213069 -0.278949
0.002626 0.778623 -0.585247
-0.207423 -0.174499 0.941618
0.847735 0.064115 -0.513500
0.511431 -0.854239 0.071733
0.602110 0.099858 -0.131618
-0.111417 -0.149343 0.582861
0.163546 -0.487011 0.355179
-0.180204 0.350523 0.517762
0.855043 0.298473 0.178323
-0.003538 -0.797828 0.586542
-0.471541 0.129837 -0.590361
0.188954 0.954537 -0.029026
-0.375085 0.014044 -0.474517
0.876643 -0.300790 0.191641
0.014703 0.797664 0.555702
0.154026 -0.760848 0.484341
-0.146128 0.096028 0.961423
-0.493099 -0.174877 0.302927
-0.782672 -0.543669 0.215303
-0.400382 -0.405722 0.221076
-0.850491 -0.470182 0.082797
-0.065368 0.376947 -0.470412
-0.109590 -0.959035 0.223256
-0.124122 -0.024352 0.971145
-0.964264 -0.103938 -0.006819
0.004115 0.156454 0.588530
-0.137869 0.440073 0.732102
-0.151112 0.281982 -0.924125
0.033053 0.957862 0.158042
0.293124 0.926398 0.086396
-0.520750 -0.078659 0.291921
-0.058701 0.388060 -0.895733
-0.734166 0.131050 -0.276186
0.077444 0.130081 -0.594256
-0.087301 0.445846 -0.397898
0.746450 0.455202 -0.459139
-0.158834 0.816925 0.219064
0.265581 0.512741 0.193325
0.799725 0.465420 0.152989
0.753251 0.581267 -0.259575
0.670870 -0.387566 0.123755
-0.117270 0.518689 0.440592
-0.147513 0.183591 0.558469
0.695259 0.694172 0.045672
0.209421 -0.952801 0.197951
0.620089 -0.714604 -0.133030
-0.611668 -0.615216 0.455854
0.140804 0.624733 -0.739070
-0.898000 -0.371561 0.058839
-0.804929 -0.379738 0.397341
-0.958828 0.088652 0.097774
0.198693 -0.156186 -0.759045
-0.476897 -0.535234 0.669031
-0.861149 0.187333 -0.102201
0.764861 -0.535324 0.142257
0.279480 0.490583 -0.232971
0.203783 0.406800 -0.869318
-0.721487 -0.098292 0.644658
-0.224684 0.287325 0.779614
-0.201670 0.313199 -0.475614
0.026873 0.553019 0.802665
0.430010 -0.137010 -0.663492
-0.264428 0.247717 0.634151
-0.133631 -0.885387 0.420105
0.074286 0.590476 0.102384
-0.900367 0.204479 0.287832
0.160421 -0.305280 0.763778
-0.493081 -0.080599 0.837342
0.749565 -0.146608 0.137870
-0.379799 0.164713 -0.693626
-0.027512 -0.984130 -0.126464
0.655168 -0.704652 0.122702
0.680269 -0.210787 0.125344
0.239966 0.743287 -0.587856
0.789712 0.585113 0.081718
-0.366842 -0.912631 0.082706
-0.611722 0.112735 0.535471
-0.682478 0.118831 0.430623
0.422539 0.444909 0.032274
-0.439909 0.139706 -0.628306
0.170042 0.377839 -0.889476
-0.432258 -0.041045 -0.875927
-0.898200 0.212640 -0.080657
0.607515 -0.034606 -0.152276
-0.109732 0.591284 0.505223
0.124706 -0.986669 0.018761
0.181724 0.140575 -0.956652
0.505460 0.738147 -0.402245
0.160773 0.583780 -0.030676
0.952650 -0.112072 0.245006
-0.116169 0.526249 -0.493301
-0.280173 0.027545 -0.937332
-0.790238 -0.494267 -0.142051
-0.332390 0.192331 0.477191
0.506537 0.105509 -0.842801
0.571217 0.222196 -0.101785
0.613112 0.519594 -0.569562
0.658430 0.642509 -0.349177
-0.548662 0.115869 -0.483320
-0.271293 0.239408 0.809015
-0.759952 -0.545558 0.282332
0.606370 0.142061 -0.040009
-0.784979 -0.141198 0.555885
-0.128145 0.470399 0.356915
0.724045 0.134926 0.131928
0.654792 -0.166627 -0.440520
-0.899844 -0.363533 -0.077552
0.899235 0.402099 0.093016
-0.130646 0.744985 -0.030843
-0.122261 -0.095156 0.967900
0.572277 0.372958 0.124954
-0.878945 -0.415058 0.069753
0.505774 -0.151585 -0.338132
-0.900702 -0.312749 0.195378
-0.570988 -0.125790 -0.146222
-0.435793 -0.857910 -0.182930
0.123101 -0.592996 0.156626
0.049974 0.578117 0.166433
-0.077499 -0.192901 -0.848219
0.127593 0.723982 -0.642420
-0.266510 -0.214731 -0.884323
0.703784 -0.245605 -0.304543
-0.374046 0.168218 0.876610
-0.829188 0.168954 0.105308
-0.431281 -0.886669 0.009672
0.050511 0.061114 -0.979853
-0.140240 0.926576 -0.250284
0.984022 -0.006663 0.148944
0.211922 0.280367 -0.917519
-0.474424 0.129023 -0.681037
-0.701769 -0.241930 -0.309265
-0.244622 0.134356 0.535768
-0.256877 -0.189855 -0.841071
0.960926 -0.266788 0.026429
-0.780668 -0.061477 0.574411
0.540371 -0.165611 -0.815392
0.482305 0.769934 -0.368112
0.932810 -0.316448 0.160372
0.666294 -0.096709 -0.730054
0.062184 -0.705011 -0.131454
-0.425497 -0.415794 0.137764
0.157765 -0.208745 -0.952413
0.137437 -0.003938 0.643986
0.345887 -0.154788 -0.756104
0.010585 -0.409027 0.896657
-0.075795 0.323179 -0.507567
-0.321600 0.199250 -0.767998
-0.565595 0.113665 -0.636198
0.392920 -0.758154 0.182209
0.743238 -0.174908 -0.419390
-0.405852 -0.195870 0.867334
-0.064552 -0.055279 0.605459
-0.093796 0.830274 -0.496910
-0.041399 0.464734 -0.384185
-0.026908 -0.894962 0.425099
0.425666 -0.890100 0.146747
0.353275 0.283429 -0.874160
0.534626 -0.550954 -0.131520
0.096897 0.595730 0.029084
0.445198 -0.101875 -0.426968
-0.346948 0.121453 -0.905476
0.306709 0.675421 -0.639101
0.515632 0.245333 -0.241262
-0.620489 -0.697708 0.300777
0.200969 0.245052 0.855448
-0.146843 0.416331 0.688635
0.656004 0.417676 0.122795
-0.306229 0.210309 0.826207
-0.267104 0.242862 -0.767396
-0.350621 0.181872 -0.588573
-0.575735 -0.172514 0.055956
0.980769 -0.178888 -0.012031
-0.524893 0.102536 0.269770
0.005382 0.410641 -0.446067
-0.339946 -0.151963 -0.484085
0.800556 0.544571 -0.191682
-0.939173 0.228789 -0.001754
0.395843 -0.914821 -0.039402
0.327025 0.467052 -0.223148
-0.851789 -0.475451 0.020786
0.735898 0.161313 -0.643637
0.498594 0.364989 -0.768084
-0.191430 0.194219 0.937431
-0.383494 0.064900 -0.462728
0.363436 0.840715 -0.342146
0.312420 0.468016 -0.804202
0.668718 0.720106 -0.019528
-0.914889 -0.151362 -0.289129
-0.157969 0.390631 0.541485
-0.041672 -0.313590 0.529153
-0.697847 0.121921 -0.067789
-0.237350 0.933417 -0.026603
0.151222 0.582356 0.497699
0.056363 0.179291 -0.582200
0.850911 -0.516992 -0.083896
-0.276782 -0.702001 0.633286
-0.919756 0.226147 0.193814
0.589481 0.129433 -0.784022
0.144936 0.747841 0.524732
-0.461008 -0.371489 -0.147238
-0.655116 0.000911 -0.720944
0.935296 0.212476 -0.255186
0.268050 0.916497 0.198042
0.292114 -0.757669 -0.142768
0.665797 -0.674400 -0.127563
-0.121722 0.709094 -0.069559
-0.594868 -0.690305 0.364193
0.051413 0.006008 0.980030
-0.829016 -0.491874 0.153010
0.376217 0.840728 0.191064
0.563587 0.256037 0.043836
-0.540191 -0.218034 0.783134
0.137623 0.159354 0.578067
0.384726 -0.868765 0.186450
0.182034 0.942333 -0.165450
-0.018160 0.699616 0.676035
-0.446602 -0.324402 0.807655
0.413687 -0.164201 -0.446121
0.516735 0.827147 0.092392
-0.727133 0.057349 -0.643201
0.703244 0.687335 -0.039705
-0.229088 -0.346794 0.889310
-0.286124 0.146355 0.920824
-0.509526 0.121092 -0.364242
-0.129370 0.744830 -0.612246
0.767920 -0.307954 -0.241080
0.137105 0.868834 0.417491
0.935472 -0.249854 -0.240134
0.209075 -0.878321 0.356139
0.106598 -0.355166 0.497883
0.136748 -0.745212 0.606787
-0.459269 0.088800 -0.379958
0.145404 -0.363124 0.703476
0.426121 -0.770902 -0.147660
0.082015 0.955370 0.159074
-0.779343 -0.443021 0.384666
0.212465 0.125861 -0.564632
0.084004 0.650842 -0.723331
0.496790 0.424006 -0.737548
0.560468 -0.081772 -0.813577
0.546662 -0.713404 -0.133252
0.000736 0.492703 -0.350593
0.057326 0.281890 0.935175
0.942779 -0.076979 -0.310751
0.562941 0.660854 -0.460430
0.299511 0.924158 -0.088253
0.254109 0.910648 -0.239225
0.393651 0.286629 -0.378508
-0.126346 0.727806 0.514859
-0.554193 0.097550 -0.795445
-0.376345 0.166142 0.721202
0.971785 0.003654 -0.216441
-0.144715 0.422833 -0.478548
-0.584285 -0.108484 -0.098415
0.094795 -0.745152 0.646429
-0.116882 0.683505 -0.227721
0.821032 -0.292240 -0.255298
-0.031632 -0.102466 0.603950
0.136998 -0.143012 0.585497
-0.092730 0.537853 -0.253781
-0.562580 -0.199505 -0.372373
0.784886 -0.497729 -0.141642
0.262951 0.938501 0.019562
-0.223206 0.289126 -0.658153
0.685904 0.690038 -0.148064
0.227843 -0.114316 0.898704
-0.229970 0.925123 -0.146936
-0.483949 0.127330 -0.534160
-0.153493 -0.415199 0.428827
0.509222 -0.324608 -0.181142
0.157962 0.938069 -0.210314
-0.628548 0.112824 0.106989
0.435676 0.873803 -0.060612
-0.772225 0.143678 -0.524032
0.046718 0.447426 -0.406686
0.441780 -0.891409 -0.077501
0.471335 0.345635 -0.197408
0.196411 -0.011269 -0.586597
0.137325 0.193058 0.635423
-0.912940 0.082449 -0.314235
0.238352 0.776291 -0.544023
0.053407 -0.360809 0.500883
0.800909 0.142367 -0.567545
0.170246 -0.639109 -0.124954
-0.108986 0.865090 0.425825
0.858365 -0.234823 -0.317345
-0.758251 -0.248895 -0.300144
0.097369 -0.882903 -0.198455
0.172986 -0.676081 0.426981
-0.549479 -0.033013 0.803136
0.109928 0.372495 -0.469639
0.797820 0.367706 -0.454762
-0.110372 0.624901 0.309146
-0.094103 0.912744 0.314662
-0.866421 -0.157621 -0.412707
-0.121811 0.711082 0.466633
-0.082679 -0.988063 -0.026519
0.972433 0.176153 -0.100115
0.600459 -0.167387 -0.440617
0.370299 0.486829 -0.030045
-0.213673 -0.205394 -0.869529
0.697817 0.046631 0.127470
0.018755 -0.989401 -0.087673
-0.694727 0.121553 -0.366541
0.460248 0.408972 -0.007896
-0.303631 -0.830082 0.438342
-0.121747 -0.968020 0.171841
0.178846 0.377270 0.812794
-0.614478 -0.756060 0.121044
-0.743477 0.059678 0.620608
-0.074555 -0.976660 -0.156225
0.488658 0.792358 -0.306659
0.264285 -0.825261 -0.167759
-0.480550 -0.371519 0.041325
-0.893494 -0.328430 -0.205464
-0.793242 0.004903 0.558692
0.159494 -0.550228 0.761574
-0.017784 0.934425 0.262173
0.317786 -0.527715 -0.134021
-0.560674 0.113660 0.189879
-0.334716 -0.219212 -0.891625
-0.680844 -0.196027 0.668071
0.436625 0.875032 0.003706
-0.196351 0.032977 0.573131
0.792167 0.573387 -0.129168
-0.176582 -0.269522 0.927285
0.334563 0.783878 0.219040
-0.592554 -0.056462 -0.086959
-0.520351 -0.131457 0.275710
0.975752 0.049024 0.185013
-0.119999 0.502513 -0.443813
0.277316 0.887287 0.268569
0.492086 0.839022 -0.112589
0.553067 0.242232 -0.143727
0.525345 0.823057 -0.080876
0.173472 0.154970 -0.569407
0.043769 -0.171145 -0.801329
-0.789428 0.150187 0.010591
0.896297 0.418034 -0.031190
0.085983 0.829652 0.501216
-0.459982 -0.814465 -0.162557
0.334187 0.771042 -0.501131
-0.643363 -0.117889 0.721160
-0.832123 -0.009436 0.498360
0.026570 0.462824 0.858838
0.291140 0.172750 -0.925032
-0.512204 -0.311610 -0.097226
-0.023323 0.059767 0.977714
0.828816 0.397688 0.164901
-0.744330 0.133716 -0.041663
-0.066294 -0.968981 0.199828
0.330328 0.371436 -0.361693
0.318670 0.518510 -0.054469
-0.124197 0.718366 -0.124277
-0.158984 0.390354 -0.645869
0.200882 0.091437 0.856447
0.075794 0.454135 0.861497
0.297550 -0.545406 0.095520
0.204257 0.414051 0.863650
0.616713 -0.095404 0.122154
-0.945759 0.181450 -0.093084
0.941455 -0.064959 0.236227
0.457599 -0.013368 -0.877445
0.315041 0.802273 -0.462189
-0.571980 -0.759834 0.247895
0.136615 0.070377 0.600573
0.157345 0.925156 -0.261424
-0.080860 -0.984895 -0.087756
0.584787 0.664993 0.124128
-0.610165 -0.766044 -0.075197
0.896246 0.310549 0.202315
-0.208683 0.308058 0.849240
-0.180722 0.078232 -0.576056
-0.102993 0.403046 -0.438705
-0.683406 0.119860 0.207144
0.147277 -0.310923 0.714094
0.371665 0.263268 -0.416468
0.082629 -0.212805 -0.959801
-0.963331 0.034113 0.092294
-0.292216 0.157910 -0.505714
-0.566110 -0.265896 0.749486
-0.074686 0.929777 0.266534
-0.515420 -0.597255 -0.125353
0.410071 -0.024362 -0.899908
-0.605098 -0.773975 -0.014231
0.667831 -0.738539 0.083204
-0.492059 -0.299292 0.189927
-0.114877 0.672322 0.146793
0.138058 0.321075 0.650177
-0.294749 -0.541282 -0.020028
-0.010506 -0.926789 0.352921
0.691914 -0.162264 0.126809
-0.334398 -0.516433 0.001535
-0.651830 0.077377 0.715853
0.443199 -0.767660 0.158386
0.289498 -0.664491 0.257349
0.106084 0.930495 -0.265560
0.603679 -0.175849 -0.030472
0.793288 0.467572 -0.358308
-0.333254 -0.677563 0.631697
0.358428 0.641975 -0.648424
-0.016796 -0.985375 0.117376
-0.816422 -0.495510 0.201719
-0.444857 -0.719833 0.500934
0.883835 -0.437325 -0.159939
-0.178267 0.353077 -0.761945
0.207583 0.568626 -0.053206
-0.117948 0.690885 0.287455
-0.780006 -0.589957 -0.013848
0.218427 -0.182975 -0.828462
-0.018342 -0.490516 0.379289
-0.153028 -0.200261 -0.950640
0.570293 0.137196 -0.209835
0.062649 -0.945437 0.296138
0.187120 0.582057 -0.764397
0.038646 0.599028 -0.058408
-0.639197 0.113413 -0.657247
0.628577 0.748066 0.098262
-0.418829 0.148304 -0.540482
0.338417 0.556765 -0.733267
-0.207199 0.166109 0.542781
-0.669200 0.116983 0.139601
0.236634 -0.264672 0.921047
0.430024 -0.827199 -0.169531
0.613859 0.087873 0.078300
0.208628 -0.272468 0.869481
0.031115 0.246404 -0.556616
-0.421432 0.146323 -0.835365
0.858671 -0.106304 0.180106
0.227106 0.103169 -0.952812
0.759606 0.293601 -0.562739
-0.904647 -0.208520 0.286866
0.297312 0.777064 0.249376
-0.934660 0.166138 0.184326
0.713893 0.253045 -0.636657
-0.611260 -0.051995 0.755343
-0.868412 0.007246 -0.433644
-0.037888 -0.763412 0.627949
0.100390 0.600956 0.762029
-0.876276 -0.222403 0.357492
-0.404738 -0.688409 0.573987
0.374650 0.464461 -0.138062
-0.145200 0.419829 -0.777214
-0.198496 0.113893 0.949538
0.558745 0.690070 -0.419732
-0.233282 -0.137779 -0.674403
-0.733501 -0.367842 0.527265
0.855114 -0.517330 -0.018854
0.780912 0.600838 -0.038706
-0.335287 -0.094809 -0.498721
-0.229957 -0.573591 -0.029698
0.472668 -0.129640 -0.389647
-0.934644 -0.260221 -0.054459
0.055563 0.761847 -0.605729
0.427717 0.543877 -0.697556
-0.096867 0.190598 0.567120
0.372189 0.737258 0.193927
-0.332906 -0.919545 0.137539
0.572953 -0.261882 0.001421
0.040069 -0.982035 -0.145679
-0.810105 0.159197 -0.493173
-0.255288 0.041523 0.941915
-0.353115 -0.385870 0.315922
0.326859 -0.185264 -0.832398
-0.267534 -0.175695 0.924568
0.128567 0.523972 -0.816572
-0.549745 0.114794 0.406712
-0.120448 -0.542512 0.274128
0.104315 -0.440432 0.427099
0.731388 -0.497496 0.133475
0.760583 -0.639085 0.106887
0.154517 -0.474028 0.483600
0.338181 0.504352 0.217146
0.220571 0.031738 -0.576709
0.847282 0.198832 0.175099
0.323341 0.860529 0.227643
0.181621 0.076722 -0.964682
0.624878 0.697210 0.122496
-0.326516 -0.901708 0.234103
0.495220 0.395348 0.140575
-0.003147 -0.348654 0.510714
-0.204757 -0.841497 0.475992
-0.202330 0.186796 -0.938776
-0.214003 -0.771977 -0.146904
0.393754 -0.046053 -0.481166
0.496192 0.695021 0.139836
0.111882 0.420015 -0.427013
-0.104502 0.571765 -0.151589
-0.100346 -0.242402 0.554978
0.887091 -0.403604 0.196268
0.236306 0.334881 -0.892391
-0.275746 -0.376092 0.397812
-0.159411 -0.107729 -0.581653
0.073232 0.565743 0.791336
-0.669648 -0.137250 -0.564763
0.079215 0.106115 -0.974090
-0.907987 0.031550 -0.338646
0.409765 0.496062 0.173056
0.163413 0.841972 -0.464639
0.315317 0.860832 -0.337134
0.354027 0.434877 -0.248959
0.314402 -0.083947 -0.530352
0.152655 0.478884 -0.840733
0.148020 -0.520105 0.312542
0.248651 0.506123 0.300728
0.061931 -0.233474 -0.911298
-0.195296 -0.038712 0.574231
-0.888578 -0.398670 0.014098
0.044964 -0.491626 0.377605
-0.222581 0.920972 -0.202548
-0.881403 -0.289989 -0.256830
0.827515 -0.461638 -0.152474
-0.392302 -0.882185 -0.196687
-0.948162 0.185273 -0.044538
0.108771 0.177011 -0.960479
-0.124588 -0.981837 -0.053693
0.153575 0.194242 0.740555
-0.865327 -0.333500 0.295287
-0.695293 0.017406 0.678314
-0.834177 -0.351253 0.359664
-0.263280 0.247391 -0.618515
0.468900 -0.400411 -0.179325
-0.177899 -0.514801 0.289129
0.121921 0.420275 0.421999
-0.607989 -0.267183 0.714803
-0.072086 0.880088 -0.406115
0.331765 -0.541631 0.222306
0.538503 0.394366 -0.725642
0.375468 -0.922763 0.037069
0.071218 0.236775 0.947738
-0.175781 0.849444 0.106395
0.419851 -0.467412 -0.052480
-0.338506 -0.711240 -0.132491
0.476350 -0.392290 0.145979
0.413486 0.317624 -0.329849
-0.166717 0.832320 0.327481
-0.275041 0.235578 0.857657
0.915523 -0.240115 -0.311115
0.404968 -0.591534 0.175747
0.976067 -0.183599 0.088128
-0.290177 -0.470165 0.268893
-0.403808 0.010641 0.447917
0.685439 0.638361 -0.303527
0.185095 -0.321530 0.914390
-0.137156 0.763288 -0.202105
0.170291 -0.603557 -0.020220
0.657097 0.272081 -0.686707
0.862069 -0.313771 -0.235644
0.206757 0.800243 0.360166
-0.108021 0.345247 -0.908355
0.177859 0.188529 0.808933
-0.247089 -0.952521 -0.102700
-0.230933 -0.881832 0.381229
-0.809607 0.158690 0.392470
0.402533 -0.909551 0.076357
0.543030 -0.336118 -0.219696
0.022329 -0.897416 0.421228
0.547496 -0.304296 0.128879
0.148829 0.241896 0.720094
0.688662 -0.719756 -0.080015
0.137070 -0.290987 0.592184
0.125469 0.535268 -0.255933
0.985236 -0.137481 -0.058598
-0.392263 -0.609414 0.663446
-0.293197 -0.530095 0.111024
0.905709 -0.049714 -0.409340
-0.823111 -0.170310 0.488195
-0.060350 0.212638 0.951936
-0.692515 -0.156524 -0.470371
0.352447 0.491004 -0.092483
0.449403 -0.434243 0.155812
0.016741 -0.130533 0.600555
0.729972 0.579147 -0.321453
-0.088340 -0.865576 -0.188165
-0.484098 -0.801747 0.302258
0.658118 0.254966 0.122870
0.255928 -0.174389 -0.938650
0.196451 0.952829 0.035514
0.146730 0.335098 -0.488866
-0.340880 0.186490 0.766661
-0.722300 -0.598708 0.277401
-0.128950 0.469732 -0.589781
0.132320 -0.062682 0.598601
0.985466 -0.063990 -0.129079
0.694542 -0.437306 -0.162539
0.591446 0.074071 -0.186000
0.627238 0.233268 -0.727807
-0.462507 -0.305388 0.250447
0.459949 0.139920 -0.394398
-0.883249 -0.279608 0.296346
0.614024 -0.666404 -0.126915
0.570853 0.193209 -0.153937
0.181241 -0.732988 0.408430
0.002155 -0.303202 0.936327
0.316585 -0.617557 -0.124584
-0.001037 0.004693 -0.983295
0.657023 0.093322 0.122774
-0.679476 -0.292906 -0.254079
-0.549607 -0.665421 -0.125961
0.614920 -0.156867 -0.763151
0.858330 -0.368540 -0.196571
0.448840 0.307707 -0.293525
-0.711849 0.125339 0.505445
-0.043586 0.766764 -0.598080
-0.114019 0.664569 -0.675699
0.805097 -0.583550 0.098688
0.171722 0.773101 0.429736
0.133431 -0.150675 -0.741317
0.252322 0.089022 0.929211
0.256887 0.932098 -0.126348
0.594949 0.777921 -0.061806
0.406188 0.107360 -0.893564
-0.155396 0.398481 -0.579090
-0.922368 -0.029606 0.296403
0.422112 0.788418 -0.399157
0.123988 -0.139677 -0.688645
-0.630398 -0.500588 0.556510
-0.424102 0.146037 0.536429
-0.685575 -0.373033 0.585943
-0.559686 -0.221852 -0.058222
-0.410052 -0.639094 0.623794
-0.942150 -0.065143 -0.221005
-0.687044 0.120190 -0.236391
-0.146187 0.788442 -0.297850
0.910939 -0.159378 0.212285
-0.528952 0.117773 -0.709179
0.787751 -0.098327 -0.599171
0.544445 -0.257092 -0.182966
0.202913 0.011667 0.859545
-0.849785 0.180254 0.170049
-0.800773 -0.544558 0.128773
0.142192 -0.167913 -0.794428
0.605875 0.611767 -0.475925
-0.493042 0.124694 -0.472506
-0.167378 0.373334 -0.445789
-0.065172 0.370647 0.900731
0.697894 0.164032 -0.683298
-0.347571 -0.710443 0.585925
0.585969 0.144860 -0.157202
-0.668074 -0.652675 0.295737
-0.284849 0.227474 0.540172
-0.963276 -0.009778 -0.104055
0.604593 0.707550 -0.315217
0.442238 0.801010 -0.349126
-0.062599 0.603636 0.761122
-0.950868 -0.193548 0.034004
0.465414 0.390699 0.100507
0.298597 -0.943549 -0.119752
0.458292 -0.419114 0.105792
-0.155516 0.810244 -0.397113
0.235829 -0.136638 -0.665273
0.150413 0.073870 0.727150
0.268516 0.017126 -0.949217
0.159269 0.146139 0.760924
-0.307429 0.210051 0.662753
0.150727 0.700389 0.496302
-0.612074 0.112755 0.485147
-0.336756 -0.762926 0.524491
0.072450 -0.657133 0.736121
-0.608406 -0.000017 -0.761539
-0.200405 0.321303 0.617089
-0.058002 0.931680 -0.268001
0.330434 0.425522 -0.293076
0.026601 -0.620427 0.768668
0.132459 -0.113970 -0.970623
-0.108414 0.747686 0.610527
0.545166 0.005726 -0.306730
-0.103148 -0.826416 0.533181
-0.201852 -0.129176 -0.563161
0.487218 -0.163055 -0.450022
0.234532 -0.543458 0.319887
-0.774665 -0.193252 0.555602
0.096718 -0.180581 -0.822729
-0.362990 -0.159521 0.893439
-0.384692 -0.166610 0.439474
0.171565 -0.429735 0.418211
-0.210065 0.305729 -0.901704
-0.404512 -0.369053 0.811919
0.824758 -0.417377 0.164398
0.942549 -0.269000 0.185307
-0.227388 -0.498731 0.816871
-0.934338 -0.237452 -0.122336
-0.765068 -0.087555 -0.595298
0.950924 -0.226468 -0.198266
0.006627 -0.519161 0.340848
-0.109679 0.600757 0.723881
-0.114689 0.285041 0.519665
0.472550 -0.193874 -0.364943
-0.820699 -0.168978 -0.434338
-0.056609 0.563065 -0.206251
-0.845606 0.008293 -0.476452
-0.581792 0.112973 0.443575
-0.688364 -0.368212 -0.197357
0.398014 0.882151 0.137266
0.196106 0.463282 -0.344322
-0.748079 -0.282143 -0.264712
-0.281504 0.103082 0.523808
-0.547619 0.115008 0.751335
-0.570927 -0.134928 -0.595112
0.577547 -0.246594 -0.048444
-0.494903 -0.767754 -0.145229
0.893182 0.080503 -0.427368
-0.105104 -0.437314 0.423596
-0.767760 0.141257 -0.573804
-0.912877 -0.231202 0.239833
0.159053 -0.422152 0.466764
0.199367 -0.507767 0.306769
-0.199971 0.887166 -0.151319
0.458422 0.389497 -0.779666
0.159637 -0.534234 0.816942
-0.910269 -0.202352 -0.274404
-0.946490 -0.140712 0.161933
-0.900940 -0.348801 0.115481
0.055546 -0.838229 0.526317
-0.099179 0.182573 0.954953
-0.217891 -0.523603 0.243850
0.427485 0.172939 -0.413791
-0.121917 0.494098 -0.707924
-0.149334 -0.134304 -0.624520
-0.078531 -0.577533 0.214287
-0.499443 -0.132831 0.827989
-0.364956 -0.538109 -0.132331
-0.114601 0.533131 -0.639953
0.427727 -0.498180 -0.141523
0.626618 -0.594628 -0.125921
-0.268858 -0.919573 0.243534
-0.581077 0.047999 -0.140048
0.072150 0.536178 -0.271972
0.237895 -0.939626 -0.228551
-0.110258 0.618840 0.202630
-0.124196 0.351535 0.474332
-0.762877 0.009791 0.600237
-0.216819 0.298747 -0.587346
-0.689385 -0.467004 -0.150926
-0.150115 0.211353 -0.943432
-0.327353 -0.517880 -0.054051
-0.411442 0.149948 0.764554
-0.133811 -0.729555 0.651792
-0.477185 0.128554 0.486072
-0.205491 -0.663331 0.699454
0.434691 0.379409 -0.214743
0.866969 -0.250840 0.184230
0.518261 -0.535911 0.135001
0.047634 -0.923831 0.358891
0.305123 0.526406 0.043663
0.394149 -0.157346 -0.764034
-0.856825 0.184052 -0.249887
0.270621 0.140676 -0.536410
-0.299527 0.160523 0.498210
0.493725 -0.138749 -0.554785
0.150718 0.054978 0.969159
0.982157 0.142283 -0.053549
-0.957469 0.138168 -0.014166
0.079767 0.064456 0.603901
-0.563936 0.035188 -0.203196
0.168921 0.445961 0.789286
0.545704 -0.454849 -0.156214
0.107460 0.521741 0.286836
0.521530 0.785678 -0.268871
0.842716 -0.515631 0.147464
0.183768 0.572681 0.076942
-0.486832 0.125549 0.328141
0.690775 0.101399 -0.703247
-0.770662 -0.250681 0.539372
0.152972 0.432153 -0.866147
0.792537 0.039757 0.150228
0.184711 0.520302 -0.809296
-0.502556 -0.468474 -0.150104
0.620634 0.071244 -0.027674
0.409827 -0.605757 -0.125067
0.549220 -0.030406 -0.823867
0.217563 -0.135256 -0.583652
-0.269963 0.240784 0.686299
-0.329057 -0.912292 0.185308
0.320471 -0.540187 0.039131
0.223002 0.915119 0.250958
-0.240813 -0.036976 -0.559316
0.988783 0.020739 0.108102
0.219985 0.530456 0.200012
-0.335924 0.152486 0.901949
-0.413583 -0.796816 0.405148
-0.166252 -0.636760 -0.124451
0.468539 -0.881660 -0.006760
-0.559021 -0.807832 -0.050174
-0.060320 0.597885 0.001213
-0.236269 -0.653754 -0.125508
0.649173 0.143409 0.122151
0.108067 -0.988259 -0.031904
0.472114 0.752861 0.147508
0.306144 0.470928 0.240247
-0.440420 0.139165 -0.447696
-0.224835 -0.842346 -0.175409
0.129157 0.128679 -0.966380
0.501127 0.810505 -0.229418
0.574974 -0.151199 -0.204940
-0.665362 0.116720 0.681407
0.238861 -0.037108 -0.956563
0.149280 0.497014 -0.316350
0.513442 -0.179726 -0.408369
0.017046 -0.388984 0.481259
-0.845082 -0.338255 -0.216955
-0.743323 -0.151579 -0.485565
0.432831 0.426912 0.089126
-0.361922 -0.781179 0.478600
-0.493995 -0.324960 -0.142005
-0.804013 -0.482636 0.270334
-0.361446 -0.915210 -0.083443
-0.922145 -0.258286 0.166510
0.039534 0.609475 -0.761873
-0.151123 0.799254 0.171132
0.095409 0.281074 0.531880
-0.069952 0.520175 0.293757
0.290811 -0.552592 -0.082823
0.685110 -0.600753 -0.125688
-0.177986 -0.737069 -0.137905
0.181043 -0.483635 0.843375
-0.113060 0.556190 0.471480
0.158803 0.578413 -0.090871
-0.525573 -0.157362 -0.765131
0.594055 -0.060166 -0.192267
-0.120551 0.705306 0.241141
-0.050576 0.413301 -0.439152
-0.419130 -0.553058 -0.129984
0.991199 -0.030113 0.090215
-0.123642 -0.597700 -0.116448
0.145434 0.313844 0.704111
0.145921 0.492696 0.708688
-0.160369 0.819294 -0.177156
0.444419 0.612346 -0.625507
-0.665087 -0.708707 0.130010
-0.144734 -0.600321 0.058643
-0.135140 0.347389 -0.476303
-0.558600 0.041041 0.213852
0.415650 -0.886329 -0.192400
0.035954 0.601195 0.031468
-0.556857 -0.234057 0.027609
-0.054296 -0.916351 0.373286
0.626079 -0.033654 0.010258
-0.016903 0.314821 -0.927249
-0.468864 -0.151565 0.350464
-0.065692 0.009376 0.977311
0.925430 0.315493 0.160937
0.485240 -0.572520 0.142890
0.153237 0.360600 0.739338
0.431738 0.113342 -0.431939
-0.591434 0.052547 -0.081947
0.955839 0.009530 -0.275198
-0.678243 -0.706648 -0.047178
0.555082 0.806026 0.059670
-0.421712 0.146098 -0.677151
-0.416043 0.042603 -0.883005
0.026101 -0.189943 -0.966733
0.733270 0.406400 -0.522557
0.027868 0.684681 -0.694641
0.540224 -0.140914 -0.533241
0.310960 -0.837413 -0.172896
-0.815008 0.161581 -0.029048
0.575425 0.218982 0.084856
0.087952 0.601549 -0.765554
-0.297638 -0.437986 0.309581
-0.395921 -0.320514 0.836070
-0.023329 -0.205625 -0.963510
0.092283 -0.497562 0.362997
0.020258 0.541673 -0.266653
0.560795 -0.052583 -0.272881
-0.460814 -0.139563 -0.851540
-0.104700 0.499137 0.829849
0.975888 0.130628 0.135062
-0.118958 0.697290 -0.486452
-0.128817 0.469669 0.405359
-0.842372 0.151639 -0.455042
0.240897 0.554318 0.068738
0.798241 0.579123 0.012444
0.589030 -0.318164 -0.233279
0.721242 0.522168 -0.424571
0.272257 0.889218 -0.294887
0.613018 -0.140148 -0.692281
-0.113938 0.665962 0.527802
-0.145661 0.422621 0.587127
0.655832 0.126284 -0.731535
0.148253 0.894503 -0.357373
-0.126479 -0.506070 0.333215
0.029893 0.971131 0.022248
0.244194 -0.573699 0.072225
0.151252 0.693440 -0.671820
0.140251 0.499023 0.556551
-0.089827 -0.854916 0.490367
0.269044 -0.707350 -0.131470
-0.184086 -0.589648 -0.125630
0.251999 0.407967 -0.380060
-0.765728 -0.020564 -0.598715
0.380303 -0.678173 0.189536
0.330381 0.509189 -0.771067
0.025396 0.593029 -0.106876
-0.129280 0.466106 0.777669
-0.110407 0.628066 -0.180230
0.120864 0.236304 0.943124
0.517641 0.738363 0.135163
0.918265 -0.367368 0.134640
0.942684 0.273917 0.138264
-0.305470 0.154164 -0.915666
0.896427 0.359711 0.202095
-0.475156 -0.488110 0.704842
-0.168316 0.371566 0.468198
-0.683433 0.119099 0.380812
0.536231 -0.301093 -0.134988
-0.537139 0.007994 0.268382
-0.588433 -0.698636 -0.129698
-0.926176 0.127937 -0.251405
0.542830 -0.381497 0.130021
0.961786 -0.020224 0.252907
-0.398540 -0.206067 0.409455
-0.502710 -0.032429 -0.332028
0.951833 -0.255983 -0.157823
0.825527 -0.559136 -0.070677
-0.937780 0.070272 -0.231815
-0.713391 -0.204032 0.630694
0.322820 0.601842 -0.703054
-0.275762 -0.156252 -0.761526
-0.014555 -0.545170 0.297549
0.207115 0.392110 -0.420959
-0.024853 0.688429 -0.689461
-0.764674 0.034081 -0.598339
-0.520005 0.056443 0.820920
0.870287 0.241013 -0.408450
0.136198 -0.198143 0.570366
0.124684 -0.274959 0.938483
-0.141270 0.430347 -0.669272
-0.915442 -0.240046 -0.222935
0.287915 -0.543140 0.259186
0.138965 -0.714217 -0.132798
0.543852 0.573329 0.130034
-0.768893 -0.602692 0.049213
0.904908 -0.200541 -0.368196
0.231120 0.248331 0.920694
0.813082 0.272435 0.158566
0.628877 0.420183 -0.633208
0.292806 -0.790340 0.254484
-0.112958 0.653293 -0.350512
-0.582648 0.056738 0.776899
-0.407550 -0.758745 0.476293
0.846764 0.241164 -0.455335
0.074933 0.236632 0.556241
-0.289305 0.223349 -0.806148
0.179322 -0.196166 -0.853950
0.496430 -0.622146 -0.124407
-0.945674 0.197721 0.039062
-0.014156 0.430647 0.875645
0.158075 0.341492 0.903945
0.178208 0.012070 0.810895
-0.002495 0.906448 0.348244
0.877459 -0.465557 -0.105801
0.625820 0.006998 -0.031078
0.100315 -0.838988 -0.173635
0.699715 0.216721 -0.665683
0.530885 -0.339166 0.009003
-0.184290 0.343247 -0.809689
0.449543 0.638711 0.155350
0.155740 0.384704 -0.447667
-0.617852 0.112563 0.620272
0.192479 -0.975991 0.023933
0.803590 -0.137038 -0.564244
-0.138444 0.863046 -0.422653
-0.910930 0.222989 0.142806
-0.202287 0.030383 -0.574350
0.592470 0.170494 0.086239
-0.264664 -0.952474 -0.041117
0.136097 0.875977 -0.404602
0.410140 0.828965 -0.319430
0.351642 -0.515302 0.083244
0.394708 0.397499 -0.252469
-0.833083 -0.507961 -0.035142
-0.090431 -0.747685 0.639933
-0.750711 -0.066161 0.613590
0.337895 -0.937560 -0.029991
-0.216070 -0.589891 0.758173
0.176942 0.491449 0.310368
-0.926938 -0.076369 -0.276419
-0.556438 -0.054613 -0.224782
0.233456 -0.854426 0.320349
0.154182 -0.162622 0.743933
0.201162 -0.326301 0.856882
0.025974 0.119161 -0.600171
0.201038 -0.538844 0.247328
0.916001 -0.151967 -0.361744
0.541502 0.291901 0.071301
0.160622 0.956291 -0.085008
0.591547 0.451164 -0.646977
-0.214586 0.906022 0.214242
0.852200 0.113511 -0.496552
0.984916 0.122550 0.048887
-0.546371 -0.258512 -0.021166
-0.071957 -0.988986 0.026965
0.746378 0.553008 0.136938
-0.578176 0.038007 -0.783630
-0.830013 -0.206074 -0.359664
-0.775773 0.144600 0.140289
0.093816 0.050435 -0.606045
-0.633906 -0.653612 0.362646
0.382689 0.755891 -0.491238
-0.110280 0.581845 -0.280030
0.088884 -0.137172 0.594179
0.554208 -0.128770 -0.263526
-0.209744 0.283906 0.488369
-0.368371 -0.450863 0.789753
-0.843484 -0.484544 -0.079264
0.099449 -0.978894 -0.143708
-0.647750 0.050538 -0.724781
0.548093 -0.664289 -0.125919
-0.121837 -0.125298 -0.967151
-0.947618 -0.205110 -0.064063
-0.074583 -0.895740 0.415469
-0.237544 -0.068134 0.555866
0.318235 0.900614 0.200278
0.913913 -0.340370 -0.213676
0.799335 -0.135358 0.153448
0.940598 -0.334237 -0.018790
0.006287 -0.957277 0.260119
-0.182856 0.860367 -0.110837
-0.564419 -0.489992 0.631896
-0.790547 0.079860 -0.558028
0.566705 -0.243500 -0.123430
-0.928481 0.119829 0.245195
0.504134 -0.376975 -0.016908
-0.025480 -0.206818 -0.871748
0.261463 -0.138405 0.940915
-0.791697 -0.354921 0.443126
0.022881 -0.969827 0.211870
-0.010937 -0.836713 -0.172505
0.603376 0.642935 -0.435447
0.186483 0.552480 0.165760
0.036265 -0.450083 0.876873
0.857787 -0.506577 0.076761
0.374616 -0.143720 -0.710237
-0.557295 -0.472543 -0.148825
0.729457 0.210209 0.133209
0.090579 -0.425903 0.885812
0.504736 0.355216 0.032363
0.034831 -0.984524 0.123778
0.165675 -0.601134 -0.074683
0.724390 0.293786 -0.606355
-0.359115 -0.095223 -0.905987
0.502715 0.653888 -0.533008
0.110457 0.645752 0.722543
-0.717383 0.126314 0.640013
-0.597053 -0.063551 -0.033849
-0.479520 0.127638 -0.416772
-0.063053 0.948418 -0.199480
0.136450 -0.649296 0.623272
-0.179841 -0.568576 0.163877
0.387345 0.361308 -0.828984
0.425536 0.878155 0.060625
-0.034407 -0.617027 -0.082446
-0.870518 -0.438753 -0.010495
0.047153 -0.602633 0.153709
0.718267 -0.637621 -0.124453
0.108462 0.489335 0.838457
0.554954 0.250190 0.119491
0.184638 0.728736 -0.623899
0.138847 -0.597600 0.661860
-0.859363 0.185499 -0.406341
-0.244362 0.265519 0.738214
-0.310555 -0.528821 0.054019
-0.603432 -0.536340 -0.132588
0.720970 -0.684047 -0.106078
0.562474 -0.180055 -0.408344
-0.539695 -0.187251 -0.198764
-0.945657 0.143505 -0.145442
-0.047131 -0.513850 0.343728
0.798000 -0.599405 0.047666
0.178104 0.117757 0.811301
-0.562816 0.090393 -0.185154
0.164460 0.565735 -0.144699
-0.366546 -0.039223 0.479061
0.361520 0.458035 -0.189917
0.152440 0.942193 0.192730
0.505145 0.354267 -0.029294
0.614590 0.615782 0.122400
-0.114229 0.666122 0.644413
0.234145 0.542502 0.145871
-0.074779 0.532930 0.811923
-0.056144 -0.838436 0.523006
-0.427460 -0.269961 0.336625
0.750934 -0.293879 0.138478
-0.240119 0.244097 0.495618
0.168381 0.241797 0.785045
-0.726877 -0.047236 -0.645178
0.601210 -0.182423 0.032163
0.154577 0.816690 -0.510361
-0.948164 -0.095042 0.180831
-0.379750 0.164705 0.562699
-0.005575 0.002601 -0.614205
-0.381946 -0.730630 0.538052
0.990337 -0.070385 -0.080384
-0.803673 -0.266835 0.479978
-0.800984 -0.558015 0.044668
-0.028810 0.599461 0.039468
0.164660 0.690763 0.449904
-0.058312 -0.116845 -0.601214
0.005760 0.669867 0.706705
-0.941862 -0.191370 -0.139850
0.980436 -0.054389 0.164225
-0.903389 -0.167720 0.314598
-0.164183 0.937458 -0.184041
-0.135435 -0.767289 -0.145478
-0.519815 -0.275824 0.141342
0.075049 -0.545260 0.820731
0.471090 0.517800 -0.690760
0.320072 -0.936819 0.115709
-0.184672 0.864105 -0.243468
0.438825 0.038529 -0.885440
0.089776 0.898349 -0.364270
-0.071230 -0.952568 0.262887
0.772848 -0.633327 0.016226
0.901452 -0.393310 -0.173266
-0.774638 -0.592923 -0.071751
-0.223901 0.917427 0.112737
0.470368 0.142998 -0.856754
-0.378942 -0.896510 0.161899
-0.328061 -0.570159 -0.127651
0.776869 0.536380 -0.287352
0.105907 0.754396 -0.609502
-0.014905 0.959179 0.150489
-0.162662 0.955154 -0.018185
0.078996 -0.010114 -0.611011
0.524690 0.043886 -0.334738
-0.825022 -0.513407 0.095238
-0.375931 0.159167 0.441169
0.178697 -0.372442 0.810812
0.274541 0.295160 -0.896568
0.017825 0.595619 0.087716
-0.221362 -0.962746 -0.062653
-0.071718 -0.822510 -0.166263
0.977620 -0.179968 -0.081145
-0.330626 0.084150 -0.499470
0.502667 0.474070 0.138701
-0.071571 0.954524 0.158406
-0.514830 -0.028636 0.309706
-0.144172 0.423650 0.416781
0.604287 -0.007846 -0.785550
-0.110850 0.575338 0.173847
-0.108177 0.577553 0.124473
0.316076 0.135967 -0.513959
0.223139 -0.565279 0.157139
-0.639517 -0.616743 0.412251
0.139866 0.262399 0.558209
0.212101 -0.588775 -0.052846
-0.114849 0.672312 -0.157643
-0.250238 -0.855838 0.425226
0.108113 0.790560 -0.560753
0.023852 0.453227 -0.867066
-0.420816 -0.436379 0.078928
0.268097 0.523322 -0.160239
0.477150 -0.406608 0.061948
0.455745 -0.434526 0.022078
0.062192 0.631125 0.740195
-0.956967 -0.149097 -0.064927
0.490476 -0.710591 0.141724
-0.477285 -0.614876 0.598396
-0.081993 -0.708427 -0.131820
-0.595595 -0.402445 0.662242
-0.323950 -0.028006 0.509671
-0.317928 0.024514 0.922938
-0.128859 0.469895 0.517543
-0.685312 0.119489 0.263725
0.564127 -0.198108 -0.194058
0.695278 -0.263761 0.126713
0.024454 0.902020 -0.363181
0.555935 -0.290568 -0.256910
-0.533716 -0.102306 0.809366
-0.049915 0.020137 -0.980967
0.744471 0.346832 -0.550302
-0.642153 -0.332058 -0.222084
0.136913 -0.156446 0.636738
0.147702 0.465824 0.360804
-0.501557 0.098515 -0.830289
-0.348111 -0.466972 0.190751
0.899536 0.022670 -0.423444
0.316705 0.037694 -0.531899
-0.951302 -0.141364 -0.133090
0.607641 0.567790 0.122642
-0.560900 -0.577862 0.558413
-0.391079 -0.828341 -0.168047
0.393992 0.157240 -0.452109
0.819750 -0.538797 -0.132294
-0.332423 0.192009 0.534741
0.960557 0.237957 0.071040
0.581552 -0.147246 -0.506996
-0.615487 -0.753723 -0.133489
-0.518847 -0.314580 -0.025562
0.166159 0.396233 0.431201
-0.540493 0.087036 -0.245357
-0.292572 -0.084968 -0.527406
0.992858 0.029858 0.059594
-0.166289 -0.087043 0.580433
0.699713 0.572257 0.127631
-0.957305 -0.082367 -0.130210
-0.147328 -0.804017 0.555110
-0.588148 0.112284 -0.081851
0.010900 -0.876530 0.463801
-0.228005 -0.117369 0.944096
0.415005 0.746029 0.170772
-0.292650 -0.253422 0.471663
-0.426409 -0.176383 -0.814239
-0.308662 -0.204744 0.483452
-0.624931 -0.302628 0.685754
-0.529823 0.006159 -0.819271
0.260622 -0.959207 -0.069394
-0.096274 -0.605460 0.102166
0.656371 -0.146666 -0.724856
0.168556 -0.501850 0.440128
0.136649 0.247774 0.604467
-0.927363 -0.234554 -0.172160
0.096847 -0.099887 -0.602423
-0.246888 -0.490366 0.279302
-0.798338 -0.297025 -0.250273
-0.043063 -0.284432 0.940336
0.420535 -0.818413 0.167686
-0.322150 0.199166 -0.677079
0.718693 -0.116671 -0.676457
-0.673309 -0.076206 0.697950
0.440940 0.692771 0.158605
0.140483 0.632788 0.671881
-0.090696 -0.701979 0.688897
0.965703 -0.200358 -0.150503
0.136151 0.764468 0.588998
-0.086611 0.564159 -0.790989
-0.013437 -0.544649 0.822676
0.156559 -0.229861 0.945295
-0.229866 -0.713669 0.640519
-0.412953 -0.202189 -0.865250
-0.105002 0.009869 -0.602436
0.007784 0.623123 0.748940
-0.422204 0.072059 -0.424805
-0.840496 0.173902 0.447716
0.940141 -0.301512 -0.145144
0.061204 -0.048961 0.979026
0.214886 -0.815676 -0.163122
-0.136417 -0.603051 -0.060329
0.648805 -0.756157 -0.076528
0.674310 -0.491769 -0.143308
-0.249113 -0.079625 -0.945399
0.126307 -0.164307 -0.964571
-0.614485 0.112504 0.669512
-0.791453 -0.133637 -0.550682
-0.476556 -0.862430 0.001977
0.803836 0.567418 -0.076600
0.821385 0.333342 0.162062
-0.329305 -0.922871 -0.124671
-0.014429 0.368525 -0.906419
0.255849 -0.560688 -0.127422
-0.574268 -0.243115 -0.308571
-0.128858 0.388916 -0.886828
-0.129982 0.463725 -0.362339
-0.052315 0.034301 -0.609211
0.737491 0.210639 -0.626466
-0.794320 0.152296 -0.378626
0.210225 0.691940 -0.658012
-0.238013 0.272590 0.541630
0.553473 0.809092 -0.020169
0.919498 -0.011417 -0.379615
0.571255 0.782045 -0.156914
-0.521815 -0.188181 0.239836
-0.579207 0.112950 -0.684612
-0.015537 -0.623131 -0.023546
0.633441 -0.135596 -0.645685
-0.701402 0.122503 -0.017111
-0.227910 0.285307 0.594500
0.258662 -0.961954 -0.020086
-0.345027 -0.094995 0.488698
0.611254 0.183373 -0.755700
0.944556 -0.321655 0.036233
-0.384325 -0.267630 0.388972
0.430098 -0.542006 0.163464
-0.669826 -0.485286 0.520831
0.096718 -0.077420 -0.977521
-0.129482 0.739794 -0.372944
-0.113129 0.661768 0.465483
0.028015 0.078132 0.977026
0.109200 -0.937645 0.309605
0.924990 -0.375796 0.004801
0.895960 0.356691 -0.225962
0.344580 -0.768131 -0.146220
-0.612315 0.067503 -0.754129
0.488099 -0.135930 -0.658825
0.046815 -0.458702 0.416629
-0.258799 -0.881106 -0.195999
-0.125907 0.088031 0.587536
0.067302 0.873291 0.422623
0.100238 -0.533853 0.306244
-0.118239 0.691751 0.347892
-0.810876 0.107432 -0.521793
0.651098 0.367792 0.122740
0.031011 -0.521248 0.837710
-0.711231 -0.043891 0.660720
-0.140505 0.202922 -0.555196
0.982059 -0.168931 0.039569
0.981801 0.152476 -0.000383
0.208650 -0.154491 0.868568
0.487157 0.238123 -0.302168
0.878027 -0.475799 0.005083
0.171628 0.787329 -0.550907
0.960327 0.213460 0.129521
-0.068688 -0.134454 0.969644
-0.508811 -0.100158 -0.827860
-0.483667 -0.654125 -0.124971
-0.277868 -0.948853 0.007929
-0.392951 -0.142934 -0.707441
-0.017777 -0.992568 -0.004890
0.653462 -0.755070 0.026329
0.183732 0.151205 0.952288
-0.383918 0.162814 0.505781
0.156993 0.600827 0.753872
-0.466249 0.131294 0.643755
-0.275523 0.230117 0.906010
-0.828707 -0.514177 0.045377
-0.115881 0.962200 0.025032
0.211976 -0.606178 -0.125149
-0.460920 -0.523615 -0.135111
-0.391466 -0.467843 0.055260
0.150339 0.282114 0.926103
0.016659 -0.618611 -0.083345
0.148889 -0.810348 0.504786
-0.037440 0.106659 0.972641
-0.594882 0.112424 -0.746704
-0.110138 0.594715 -0.639632
-0.110630 0.572265 -0.577601
0.386970 0.885918 -0.143288
0.215672 0.557167 -0.112133
-0.081541 0.095376 -0.597397
0.821477 0.547678 -0.019221
-0.191802 0.913540 -0.261339
0.616244 -0.068907 -0.099496
0.156183 0.531413 0.245735
0.072623 0.920946 -0.305873
0.039999 -0.142975 0.971689
0.571023 -0.594547 -0.125764
-0.032885 0.461602 -0.860776
-0.475447 -0.038638 0.367802
-0.163516 0.145190 -0.567258
0.392411 0.466526 -0.069085
-0.301039 -0.131761 -0.513642
0.954042 0.266442 -0.050731
0.138692 0.470405 0.656909
0.370024 -0.918901 0.111681
0.157076 0.308082 0.751364
0.704304 -0.161886 -0.453435
-0.914551 0.216172 -0.229583
-0.687138 -0.694796 0.076421
-0.867846 -0.440147 -0.061637
-0.008720 -0.134892 -0.638687
-0.467165 -0.082468 -0.854572
-0.225785 0.286255 0.664613
0.334182 0.567826 0.220069
-0.150551 0.410235 0.640227
0.217589 -0.216891 -0.888409
-0.068471 0.320006 -0.922099
-0.112874 0.655461 -0.514750
0.311781 0.513664 -0.105947
0.640568 -0.337155 0.122813
-0.468611 0.130461 -0.799085
0.038551 -0.882650 -0.198082
0.498933 -0.369178 0.107575
0.541644 -0.087716 -0.301880
0.139474 -0.388970 0.557274
-0.309735 0.207691 0.591147
-0.549820 -0.010354 -0.243972
-0.642104 -0.392604 0.622295
-0.770746 0.142383 -0.466373
0.044063 -0.653258 -0.125592
-0.576584 0.112795 -0.441995
-0.879611 -0.239735 -0.310775
-0.117980 0.514184 0.765328
0.067609 0.738560 0.630969
0.862956 0.394992 -0.281601
0.831299 0.523567 -0.099098
-0.093249 0.223304 -0.557152
-0.582935 0.033913 0.134994
-0.052908 0.657249 -0.717790
0.602746 -0.061145 -0.785197
-0.565773 -0.687934 0.412679
0.323461 0.490730 0.168068
-0.571118 -0.194393 -0.018543
0.413997 0.652218 -0.604416
-0.934243 -0.178222 0.194339
0.199001 0.441826 0.368910
0.860442 0.331998 -0.360891
0.506605 -0.269388 -0.258610
0.689655 -0.324754 0.125986
0.906667 0.356612 -0.178533
0.532559 0.279750 -0.782594
0.719673 0.450052 -0.503455
-0.638750 -0.351778 0.649055
0.993566 0.021061 -0.053792
-0.466998 -0.861249 0.101982
-0.198489 0.321434 -0.853654
0.464789 0.082084 -0.405273
0.416702 0.349378 -0.289622
-0.207517 0.309768 0.553546
0.067830 -0.986560 -0.099313
-0.895152 -0.083058 0.364928
-0.072085 -0.547561 0.281744
-0.283275 -0.633471 -0.124793
0.593905 -0.206787 -0.360806
-0.507401 -0.332891 0.018162
0.360383 0.891582 0.170356
-0.759138 0.087034 -0.600083
0.954042 0.159659 -0.225049
0.734268 -0.347841 0.134161
-0.593643 0.112228 -0.028747
0.092302 0.359623 0.480886
-0.410251 -0.004628 0.884661
-0.614684 0.112507 0.247908
-0.305461 -0.508492 0.162914
-0.225374 -0.406446 0.865418
0.290328 0.832739 -0.420761
0.036558 -0.623727 -0.011324
-0.640984 -0.564492 0.477984
-0.723805 -0.656347 0.065576
-0.731660 -0.559415 0.327828
-0.911465 0.163887 -0.282346
-0.085009 0.328877 0.499230
0.225350 0.561290 0.331070
-0.118341 0.694901 0.404472
-0.009102 -0.484038 0.859026
-0.531973 -0.289154 0.015568
0.408465 -0.099921 -0.461923
0.962667 0.039735 0.245991
0.151976 0.636369 0.489660
-0.656482 -0.722527 -0.098094
-0.884588 -0.084994 -0.391842
-0.814323 0.160915 -0.270333
-0.024900 0.179381 -0.581697
-0.875188 -0.409889 0.123081
0.759954 -0.392136 0.140637
-0.113311 0.544621 -0.720237
-0.181917 0.859439 0.281935
-0.731970 -0.005519 0.638312
0.811546 -0.085095 0.158130
-0.532262 -0.656291 0.500061
-0.617494 0.110895 0.741858
-0.348015 -0.654966 -0.125633
0.253593 -0.714294 0.295624
0.360395 -0.018702 -0.506672
0.348327 -0.740799 0.209685
0.708218 -0.536364 -0.133006
0.532234 0.314849 0.027760
0.356715 -0.210363 -0.877402
0.367264 0.469819 0.138790
-0.433870 -0.351482 0.243847
0.952789 -0.149122 -0.252219
0.053287 -0.418248 0.455308
0.872673 0.014493 -0.476225
-0.164596 0.150317 0.950730
-0.939879 -0.241374 0.031364
0.145356 0.897095 0.348796
-0.676742 -0.709705 0.016544
-0.430111 0.142801 -0.396772
0.092304 -0.618343 0.033093
0.301655 0.529662 -0.007866
-0.677357 -0.024321 0.696957
-0.275526 -0.572973 -0.127539
0.233973 0.610294 0.320030
-0.016047 -0.600553 0.783671
-0.627796 -0.542222 0.519601
0.469059 -0.402130 -0.124796
-0.564314 -0.064242 -0.793810
-0.137450 -0.915275 0.349830
-0.143376 -0.690663 0.689980
-0.013979 0.969687 0.048922
-0.465072 -0.791611 0.354201
0.717032 0.638640 -0.218139
0.981702 0.111231 -0.111146
-0.070831 -0.633065 0.754337
-0.149521 -0.084265 -0.967025
-0.297709 -0.914417 -0.218461
0.039712 0.361324 0.485841
0.609915 0.066021 -0.777607
-0.625411 -0.134684 -0.599482
0.290130 0.235565 -0.910766
0.090841 0.469904 -0.854128
-0.198771 0.324571 -0.632079
-0.170794 -0.774435 0.588808
-0.159182 0.949574 0.108781
0.548541 0.052854 -0.292882
0.144593 -0.484988 0.699279
0.673311 -0.138970 -0.676197
0.716428 -0.280352 -0.266409
0.136475 0.432243 0.866650
0.145350 0.437245 0.703744
-0.115033 0.530692 0.540080
0.117215 -0.054698 -0.603974
0.224848 -0.218585 -0.937370
-0.434765 -0.062103 -0.416052
-0.534129 0.057116 -0.813907
0.787411 -0.187804 -0.393113
0.373977 -0.910336 0.159274
-0.117741 0.516121 -0.572341
-0.015587 0.189077 -0.962103
0.037498 -0.581722 0.797726
-0.841307 0.099567 -0.472240
0.142492 0.461723 -0.370207
0.870073 0.444870 -0.151191
-0.571853 0.108394 0.138701
-0.025935 -0.880158 -0.196561
-0.857109 0.184821 0.306439
-0.047843 -0.730133 0.664765
0.515603 0.179102 -0.298226
0.145448 -0.215483 0.701859
0.182708 -0.585123 0.129690
0.136940 -0.105712 0.622201
0.466157 0.093437 -0.866690
0.652368 0.022402 0.123047
0.219036 0.543283 -0.163748
0.686035 0.466488 0.125374
0.840475 0.499141 0.141148
-0.647413 -0.711872 0.191223
-0.693936 0.121492 -0.315875
-0.045591 -0.254821 0.558422
0.993280 0.054056 0.007545
0.018520 0.874189 0.423817
-0.001204 0.563720 -0.214528
0.420993 0.188331 -0.872048
0.278104 -0.237784 -0.917351
-0.822128 0.165058 0.272838
0.326296 0.890662 -0.230804
0.145190 0.394332 0.523759
-0.251254 0.071973 0.545840
-0.756793 -0.381028 -0.189503
0.546571 0.804265 0.124857
0.386149 0.442601 0.176330
-0.035315 -0.231635 0.954649
