0.399226 0.400837 -0.333969
-0.134699 0.241442 -0.764541
-0.646696 -0.336157 -0.105154
-0.056232 0.563797 -0.402549
-0.430207 -0.270695 0.426144
0.036743 -0.264969 -0.777491
-0.318680 -0.695288 0.009739
0.950987 0.005212 0.115019
0.322210 -0.193076 -0.611683
-0.264723 0.233568 0.648119
-0.614137 0.294396 -0.233455
-0.397695 0.171181 0.527668
-0.058381 0.525901 0.429930
0.363233 0.310611 -0.460422
0.145250 0.676102 -0.299110
-0.873211 -0.020704 -0.198175
0.773689 -0.263196 0.053991
-0.226897 -0.769038 0.157430
-0.087184 0.314100 -0.682807
-0.045829 -0.605049 0.373131
-0.289901 0.267442 0.583820
-0.280444 0.358916 -0.494969
-0.570959 0.006655 -0.402137
0.392333 -0.400004 0.342941
-0.159435 0.578364 0.361585
-0.436077 0.378879 0.318911
0.922973 0.002588 -0.150145
0.498972 -0.426772 -0.161723
-0.425835 0.309936 0.396905
0.587673 0.326943 -0.213343
-0.228660 0.039184 0.827074
0.226291 0.831657 -0.001249
-0.386583 -0.502219 -0.236569
0.342230 -0.609583 0.153684
-0.425091 0.537563 0.040040
0.477898 0.233394 -0.405996
0.166455 0.243371 0.734905
-0.482825 -0.374646 -0.277147
0.105794 -0.171449 -0.870897
0.284558 -0.540124 0.313530
0.267171 0.703642 0.165535
-0.347664 -0.489811 0.300464
-0.290611 0.504601 0.339948
0.371343 0.606983 -0.034748
-0.602421 0.358838 -0.123710
0.066657 0.273673 0.749263
-0.150666 0.539920 -0.396767
-0.559449 0.285266 -0.297713
0.382238 -0.050353 0.589487
0.451267 0.321392 0.359793
0.445880 -0.514256 0.013401
-0.150149 -0.587742 0.360287
-0.988390 -0.054451 -0.019355
-0.623937 0.311334 -0.196305
0.143153 -0.681924 0.295426
-0.527934 0.087483 0.425301
-0.750325 -0.054602 -0.280021
-0.842475 0.219304 -0.009456
-0.080733 -0.250939 -0.785797
-0.777155 0.226335 0.143776
0.034844 0.276667 -0.755305
0.436495 -0.514775 -0.088881
-0.090338 0.913226 0.131131
-0.465993 0.224020 -0.425503
-0.383586 0.037936 -0.594567
0.196611 -0.664699 -0.281646
0.542156 -0.265963 -0.330330
-0.285458 -0.044044 -0.744537
-0.125141 0.317078 -0.661580
0.105655 0.431239 0.512808
0.290380 0.029259 -0.734670
0.693352 0.097606 -0.304913
-0.199724 -0.795195 0.164034
-0.512215 -0.396775 -0.205372
0.097334 -0.462894 0.483176
-0.657949 0.295590 -0.179677
0.256169 0.389374 -0.478167
-0.572407 0.333186 -0.226036
0.035296 0.990022 0.016291
0.282925 -0.747089 -0.028085
0.135584 -0.935822 0.015584
-0.095966 -0.963640 -0.040252
-0.068675 -0.593120 -0.381080
-0.553894 0.411814 -0.042005
-0.068981 0.676885 -0.322629
0.341081 0.209155 -0.573071
-0.163684 -0.449780 -0.475709
-0.253112 0.058690 -0.789560
-0.415032 -0.052712 -0.550955
-0.093077 0.247177 -0.780948
0.091715 0.257087 -0.766327
0.531894 -0.383058 0.194662
-0.318203 0.270482 0.548393
-0.482353 -0.405892 -0.233358
-0.817859 0.225043 0.080124
0.035405 -0.718654 0.299940
-0.109613 -0.882174 0.157645
0.300577 0.716057 -0.027147
0.206315 0.486717 -0.414504
-0.923308 -0.146588 0.041701
-0.723844 0.190934 0.236697
0.824705 -0.216403 0.091333
0.564102 -0.028548 0.402433
0.877243 -0.190569 -0.029628
0.549777 0.068269 0.408477
0.217975 -0.559329 0.347421
0.914793 0.038646 -0.153979
-0.543689 -0.158354 0.391130
-0.317341 -0.308660 0.514391
-0.212772 -0.280633 -0.654337
-0.032090 0.231171 0.822232
-0.796743 -0.150063 -0.210464
-0.469307 -0.486631 -0.065323
-0.382693 -0.598156 -0.002968
0.144479 0.593141 -0.358154
-0.036138 -0.611994 -0.371551
0.518802 0.017259 0.439400
-0.445265 0.350660 0.340209
-0.234493 -0.287884 0.622195
0.337041 -0.519746 0.278951
-0.460793 0.489854 0.079461
-0.451366 -0.193398 -0.458748
-0.520564 -0.300490 0.319401
-0.231367 -0.141956 0.774642
0.202657 -0.256171 -0.691898
0.130022 0.247849 -0.757959
0.400738 0.483126 -0.233447
-0.195394 -0.829731 0.128034
0.027982 0.910963 0.157931
0.353512 0.046526 -0.632968
0.109494 0.279039 0.722956
0.332726 -0.669717 0.001547
0.721086 -0.070430 -0.294506
0.371132 0.196955 -0.543541
0.347089 0.621597 0.109797
-0.026890 0.367321 -0.615977
-0.152708 0.481745 -0.446209
-0.323990 0.656851 0.114383
-0.403502 0.016563 -0.568616
0.190409 -0.334750 0.596191
0.626747 -0.063016 0.354392
0.354566 -0.388375 -0.395546
-0.363421 -0.579152 0.161834
0.314633 -0.052867 -0.692354
-0.358924 0.099930 -0.614350
0.333765 0.008407 -0.667212
0.696546 0.000392 -0.316432
-0.666767 0.317171 0.112408
-0.505609 0.001588 -0.456033
-0.401635 -0.470025 -0.255725
-0.300156 0.401161 -0.431967
0.727580 0.035717 0.293105
0.619179 0.353984 -0.093499
0.232704 -0.199539 -0.722645
0.386909 0.267204 -0.472539
-0.003725 -0.506552 0.452720
-0.412223 -0.322115 -0.403987
0.680852 -0.173911 0.280571
-0.173967 -0.897036 -0.037884
-0.479591 -0.189765 -0.434169
-0.213097 0.826055 0.095131
-0.254383 0.454987 -0.414725
-0.318426 0.692602 -0.021023
-0.146165 0.648348 -0.319016
0.114952 -0.324202 0.656860
-0.032803 -0.172100 -0.899433
0.085697 0.393995 0.564160
0.286668 0.672575 0.171411
0.678258 0.147541 0.294603
-0.002903 -0.334655 -0.670580
0.697824 -0.302294 0.097464
-0.049060 0.621570 0.359691
-0.697408 0.101350 0.300320
-0.380405 -0.595071 0.063150
0.428755 0.173265 0.487507
-0.403354 0.374681 0.358379
0.762238 0.040018 -0.272583
-0.052089 0.695604 0.311157
0.145264 0.336278 0.620267
0.202022 0.230136 0.718279
-0.009009 -0.997965 0.013974
-0.490297 0.244469 0.386727
-0.497546 -0.414370 0.193819
0.642408 0.166090 -0.313627
0.521870 -0.423770 -0.116949
-0.291164 0.572471 -0.279439
0.016645 -0.408721 0.560051
-0.038476 0.536807 -0.425901
-0.176338 -0.289005 -0.673671
-0.444625 -0.016641 -0.518161
0.188164 0.801114 0.165598
0.187932 0.740088 0.223761
0.270659 -0.192676 0.678780
-0.278015 -0.207138 -0.662277
0.069207 0.685291 -0.316849
-0.083441 -0.532684 0.422796
-0.066073 0.739699 0.280636
0.483831 -0.472134 0.037987
0.090812 0.926696 0.112138
-0.169898 -0.733891 -0.247333
0.176563 0.696261 0.266124
0.021933 -0.239666 -0.817772
0.531601 0.428358 -0.027597
0.303236 0.363119 -0.467400
-0.189339 0.025733 -0.882587
-0.317913 -0.213677 -0.605305
0.749778 -0.242513 0.152384
0.359854 0.414094 -0.362533
0.363337 -0.492703 -0.277745
0.558365 -0.232535 -0.340659
-0.025267 -0.707853 0.307346
0.642821 -0.108210 0.333874
0.495840 -0.019759 0.460314
-0.412075 0.271814 0.442040
0.473049 0.455191 -0.144876
0.233787 -0.788524 0.113497
0.604512 -0.010775 -0.376328
0.613553 0.299791 -0.224253
0.366637 0.570815 0.157176
-0.286793 0.440907 -0.403539
-0.368578 -0.323771 0.445190
0.375452 -0.088173 0.590172
-0.146598 0.670678 0.300984
-0.192018 0.417726 0.490216
-0.553716 0.368164 0.188274
-0.124779 0.296687 -0.692488
-0.341845 0.271875 0.520017
-0.268109 -0.266789 0.612739
0.073166 -0.358412 -0.623768
-0.069785 0.361645 0.614600
0.512833 -0.380581 0.226279
0.259561 -0.604564 -0.281852
-0.825802 0.138378 0.189279
0.188764 0.866149 0.064549
-0.384602 -0.560238 -0.147188
-0.573429 0.083043 -0.392793
0.850948 0.209945 -0.024923
0.017325 0.399689 0.568338
0.834040 -0.181222 -0.142920
-0.840034 -0.219334 0.050080
-0.126653 -0.275959 0.723300
-0.176582 0.146332 -0.835170
-0.726451 0.060222 -0.293683
0.241856 0.243739 0.661300
0.849386 -0.133210 0.171060
0.658448 0.337226 0.025391
0.618165 0.322568 0.178042
0.505132 0.403592 -0.195049
-0.116492 -0.536138 -0.413831
-0.511496 0.211985 0.389255
0.264789 -0.575931 0.299307
-0.335853 -0.233532 0.563598
-0.262039 0.776691 -0.053514
-0.199114 -0.869177 -0.037497
0.181136 0.855260 0.105431
-0.661971 -0.103496 -0.326571
0.832120 -0.006282 -0.228120
0.194755 -0.707274 0.247047
-0.055612 -0.262553 0.775349
0.452449 -0.328523 0.354923
-0.034764 0.004440 -0.994367
-0.149849 0.028126 0.921112
-0.131150 -0.450051 0.487041
-0.446773 0.495423 0.115213
-0.421209 -0.546375 0.030582
-0.303242 0.167623 -0.657477
0.230731 -0.262537 -0.656912
-0.234459 0.723413 0.194882
0.259913 0.748534 -0.116862
-0.447780 0.499759 -0.096948
0.132756 -0.509504 -0.430017
0.328331 0.558619 0.243805
0.501833 -0.344035 0.289802
0.224075 -0.119917 -0.799024
-0.032604 0.471861 -0.484950
-0.335647 0.349796 0.450817
-0.294604 0.026672 0.729555
-0.186831 0.079503 -0.868218
-0.498645 -0.311178 -0.331847
-0.486188 0.149820 0.442612
-0.814743 0.189988 0.150557
0.366857 -0.465878 -0.303190
-0.630414 0.024100 0.357545
-0.203221 0.185729 -0.770204
0.162303 -0.171476 -0.827718
0.228471 -0.509247 0.381635
-0.820178 0.220452 -0.090165
-0.260392 0.694972 0.190234
0.382361 -0.196134 0.530038
0.027963 -0.949206 0.117865
-0.615440 0.179407 -0.328359
0.991458 0.016644 -0.031871
0.583344 0.378002 -0.098216
0.695245 0.314353 0.019679
-0.403436 -0.232779 0.482339
-0.248530 -0.579329 0.311789
-0.375108 0.204192 0.534497
-0.063877 -0.827432 -0.225557
-0.441139 -0.381491 -0.316358
-0.532542 -0.354598 -0.245699
-0.013846 -0.459320 -0.502891
0.374239 -0.193667 -0.543415
-0.367481 -0.561935 -0.184390
0.099422 -0.104110 -0.931848
0.642602 0.273628 -0.228146
-0.414559 -0.110429 0.535286
0.826912 0.126211 -0.196082
0.383425 0.586102 0.059524
-0.446271 -0.329137 -0.364624
0.823462 0.015701 0.232144
0.230204 -0.640340 -0.276408
0.541898 0.218936 -0.360733
0.194235 -0.247772 0.707381
-0.169684 -0.836360 0.154416
-0.111409 0.019266 0.954497
0.452380 -0.487316 0.120295
-0.728854 0.154108 -0.259056
-0.707325 -0.184318 0.256571
-0.166568 -0.370271 -0.569372
-0.428189 0.529087 -0.072211
-0.087724 -0.565143 -0.398304
0.953124 0.110567 0.017970
-0.061420 -0.700029 0.308627
0.380646 0.138879 0.562445
0.191159 0.427228 -0.481878
-0.260126 0.778673 0.051101
0.113822 0.618764 -0.350401
-0.952069 -0.070974 -0.098138
0.849522 0.114058 0.181649
-0.649163 -0.319212 0.146925
-0.123205 -0.066505 0.933257
0.232626 -0.776826 -0.135764
-0.101865 0.735729 0.274046
-0.075182 -0.191806 -0.865303
0.111422 -0.576608 -0.383665
-0.610428 -0.206586 0.315920
-0.326991 0.371484 -0.438266
0.073398 0.854689 -0.198779
-0.250799 -0.498727 -0.380402
0.733358 -0.252584 -0.159788
-0.254048 -0.709564 0.186005
0.046163 0.912301 -0.154970
0.076265 0.865140 0.186058
0.675016 0.065800 -0.324191
-0.191754 -0.256908 -0.703043
-0.275791 0.648835 0.219696
-0.667101 0.097347 0.321519
-0.361093 -0.593224 -0.143810
-0.063757 0.333774 -0.659816
0.540993 0.033909 -0.422786
0.081756 -0.149260 0.903969
-0.152018 0.570908 -0.372494
0.106738 -0.809033 -0.223779
0.070563 -0.568752 0.395803
0.955881 0.105074 -0.025674
-0.714372 0.296668 0.071347
-0.111313 -0.066701 -0.944907
0.038475 0.364666 0.614400
-0.712475 0.223288 0.216745
-0.259441 0.034831 0.783861
-0.306044 0.144031 0.667088
0.948783 0.005531 -0.120744
-0.407804 0.134445 0.533716
0.148197 -0.851396 -0.158666
-0.760123 -0.153337 -0.237759
0.342230 0.362746 -0.430616
0.748864 0.007687 0.281278
0.494570 -0.122812 -0.445445
0.232732 0.317302 0.581594
0.453324 0.058058 -0.501766
0.582320 0.128778 0.369645
0.058732 -0.956170 0.095797
0.576169 0.369770 0.140918
-0.183082 -0.097939 0.861725
0.442306 0.462003 0.194054
-0.769760 0.190193 -0.199898
-0.313972 -0.281722 0.545370
0.036471 0.066787 -0.978019
0.909436 -0.149017 -0.071674
-0.442908 0.275393 0.408552
-0.255475 -0.660517 0.235563
-0.186369 -0.391098 0.529183
0.568239 -0.103348 0.388154
-0.912162 0.111029 0.118553
-0.367767 -0.618673 -0.029302
0.163705 -0.225474 -0.765721
0.425369 -0.428083 -0.274788
0.276741 0.445970 0.402055
-0.452998 0.505724 -0.029493
0.356804 0.253794 0.516182
-0.016566 0.886447 -0.184183
-0.444093 -0.515027 -0.062135
0.272848 -0.646409 -0.227956
0.614567 0.062662 -0.364984
-0.698876 -0.000749 -0.316199
0.123720 -0.076895 -0.929487
-0.579028 0.361990 0.159386
0.518301 0.249201 0.357952
0.610801 -0.265220 -0.271379
-0.419915 0.523599 -0.124650
0.011732 -0.785396 0.260236
-0.115583 -0.917768 0.107906
-0.233466 -0.375972 -0.517016
0.563549 0.400198 -0.058540
-0.359832 -0.614604 0.096782
0.723935 0.193462 -0.234741
-0.083207 0.379574 0.585244
0.451375 -0.077324 0.498899
0.406290 0.546290 0.094949
0.804328 -0.245840 -0.036122
0.080328 0.459897 0.487748
0.980822 -0.052895 -0.046578
0.343225 -0.575056 0.204039
0.124941 -0.778023 -0.238127
0.242271 0.745906 -0.156013
0.242872 0.149765 0.748187
-0.062346 0.592398 0.378079
-0.443151 0.481970 0.157830
-0.565259 0.312739 -0.261997
-0.649623 0.310375 0.158890
0.157184 0.054208 -0.907537
0.660603 -0.061353 0.331990
-0.311262 0.627312 -0.193451
-0.935897 0.134844 0.016884
0.777377 0.170308 0.206233
-0.217281 -0.158597 -0.780798
0.067808 -0.958160 -0.087859
0.234987 0.274019 -0.635573
0.378379 -0.345993 -0.413595
0.058944 -0.192422 0.867728
0.862796 0.078962 0.186777
0.279703 0.486852 0.362002
-0.073952 -0.235460 0.807827
0.057876 0.133951 -0.927567
0.303168 0.329638 0.501602
0.492539 -0.056252 0.460178
0.527978 -0.096984 -0.424069
0.385363 0.475159 0.262696
0.164921 -0.041909 0.900974
-0.468286 -0.026270 0.489749
0.316727 0.584548 -0.233419
0.750460 0.278891 -0.030509
-0.280134 -0.757345 0.002286
0.369834 -0.249093 -0.509279
0.442849 0.515259 0.006843
0.862436 0.100240 -0.179958
-0.400224 0.554051 -0.105390
-0.817309 -0.068810 -0.231582
-0.425692 -0.519554 0.122030
0.445848 -0.433489 -0.239786
-0.597474 -0.074201 0.374430
0.237650 -0.701981 0.212329
-0.144869 -0.503523 -0.432153
-0.034431 -0.667311 0.332615
0.051353 -0.450187 -0.508616
0.129448 -0.241484 -0.771190
-0.140260 0.168105 0.846333
0.245882 0.631918 0.265451
-0.867195 0.143761 -0.144775
0.067150 0.976792 0.033629
-0.367808 -0.293754 0.473676
-0.452009 0.301497 -0.381599
-0.440612 -0.518535 0.057689
0.142155 0.822814 0.187241
-0.488966 0.301052 -0.347099
-0.366285 -0.365485 -0.409612
0.379405 0.044048 0.594063
0.725773 0.295393 0.005881
0.164595 0.894597 0.058849
0.048650 0.230208 -0.821751
0.798684 0.065630 0.241291
0.234069 0.213221 0.702461
0.349449 0.637372 0.041862
-0.001710 -0.699992 -0.315711
0.247610 0.018891 -0.803122
0.531072 0.375122 -0.207582
-0.179923 -0.717861 0.251074
0.232052 0.610933 -0.296817
0.043001 0.160891 -0.907382
-0.087212 -0.866251 0.184758
0.283256 -0.511049 0.340926
0.073918 0.977136 -0.005183
0.230582 -0.058122 0.817033
-0.868246 -0.148816 0.139881
0.295070 0.290436 -0.553262
0.320722 -0.235539 0.577490
-0.343348 0.290369 -0.503911
0.182028 -0.744677 -0.229141
-0.066511 -0.158342 0.902228
0.323546 0.165500 0.625564
0.010757 0.025045 0.993110
0.044139 -0.511434 0.446149
0.476996 -0.436906 0.181618
0.953537 -0.075847 0.084935
-0.416825 -0.553003 -0.014929
0.192278 -0.877464 0.000687
0.254032 0.065444 -0.782584
-0.061477 -0.453939 0.501386
-0.196514 0.443414 -0.462306
0.041467 -0.266931 0.771600
-0.079189 0.498441 0.450418
0.675296 -0.116566 0.309054
0.231189 0.779550 0.128355
0.129952 0.469519 -0.465610
-0.317093 -0.059666 0.688554
-0.010078 -0.136043 0.935669
0.174303 0.117211 0.855539
0.128129 0.151718 -0.871769
0.625904 0.216379 -0.296132
-0.087277 0.837606 -0.208362
0.494479 -0.108474 0.447867
-0.075932 0.420604 0.534309
0.881065 -0.177457 -0.072155
0.285031 -0.014325 -0.745197
0.363518 0.172764 0.566248
-0.852221 -0.194970 0.093314
-0.208854 0.810801 0.128958
0.767057 -0.010836 -0.271999
-0.206971 -0.755313 0.196705
-0.008795 0.697235 0.313384
-0.542201 -0.409352 0.114499
-0.327165 0.402115 -0.406701
0.237463 0.664233 0.244509
0.991803 0.025743 0.017725
-0.975539 -0.019074 -0.082072
-0.568411 0.299448 0.272044
0.821757 -0.235853 0.013306
0.699388 0.116374 0.292599
0.307352 0.197625 -0.626057
-0.130583 0.704608 0.284544
0.357080 -0.607028 -0.120217
-0.013162 -0.637498 -0.355664
-0.038268 -0.406683 0.562618
-0.023347 -0.393661 -0.582766
0.385260 0.385266 -0.365827
0.071297 0.102053 -0.945644
-0.109842 -0.192950 -0.846355
0.099531 0.147083 -0.896381
0.276097 -0.202544 -0.665577
-0.270621 -0.153020 -0.715680
-0.960876 0.074161 -0.076196
0.458688 -0.236020 -0.423175
-0.315805 0.270050 -0.554554
-0.786597 -0.072882 -0.252148
-0.672451 -0.325545 -0.078760
0.105769 0.877443 0.160256
-0.627220 0.179366 0.316739
-0.606191 -0.139047 0.350931
-0.590296 -0.351440 -0.170964
0.227057 -0.812682 0.085666
-0.316334 -0.148690 0.651428
-0.174818 -0.468238 0.449169
-0.360645 0.181210 0.567872
0.625295 -0.043936 -0.360463
0.181116 0.606563 -0.331733
-0.524166 0.190370 -0.393378
0.584710 -0.338249 -0.202761
-0.386947 -0.240134 -0.498699
0.696774 -0.205008 -0.251013
-0.021638 -0.740582 0.288008
0.633729 0.334970 -0.125151
0.050124 0.674883 0.324217
-0.232670 0.770815 0.141927
0.280020 0.361726 0.487931
-0.617455 -0.369412 0.000285
-0.658077 -0.255568 -0.239009
-0.826003 -0.234506 0.013533
0.233653 0.186316 0.728964
0.475060 0.433054 0.187756
-0.381533 -0.214072 -0.524038
-0.105408 0.271323 0.737785
0.285620 -0.167841 -0.681118
-0.119836 -0.492493 0.448691
-0.359046 0.185237 -0.570394
-0.189363 0.735786 0.227961
-0.965585 0.092991 -0.031888
0.231306 0.066913 -0.814775
0.265582 0.344765 0.520164
-0.278458 -0.745089 0.077832
-0.277726 0.757407 -0.023962
0.030023 0.822850 0.230732
-0.041370 -0.901206 -0.170401
0.263764 0.394575 0.464650
0.611549 0.326487 -0.182644
0.187275 -0.289552 -0.661856
0.102930 0.951031 0.051978
0.492539 0.171386 0.424730
-0.896528 -0.175891 0.034287
0.507694 -0.447984 -0.063887
0.310839 0.700610 0.009261
0.236148 -0.812203 -0.057687
-0.056833 0.745508 -0.281032
0.523199 -0.013200 -0.438142
-0.089424 -0.972954 -0.003467
0.757310 -0.278913 0.006428
-0.108761 -0.866248 -0.175880
0.062069 0.816261 -0.231769
-0.478620 0.017679 -0.481173
0.606360 -0.365406 -0.093113
0.542223 -0.400643 -0.136740
-0.031190 0.029594 0.989746
-0.690570 -0.076826 0.311418
0.216104 0.514307 -0.385205
0.869738 0.145498 -0.137468
-0.438235 -0.446148 -0.235119
-0.742351 0.017665 -0.288945
-0.146653 -0.744929 0.250575
0.092250 -0.218862 0.821348
-0.075300 -0.922348 -0.135587
-0.972445 -0.011286 0.085730
0.189250 0.178106 0.788678
-0.591012 -0.180448 0.344292
-0.611563 0.154157 0.340226
0.122867 0.407549 0.535340
-0.192284 -0.880966 -0.002926
-0.170523 -0.476841 -0.445900
0.275548 -0.363247 0.492838
0.284953 -0.212369 0.642757
-0.149564 0.191142 0.815188
-0.413788 0.203937 -0.491248
0.187933 -0.870602 0.064396
0.824081 0.232023 0.006134
-0.320457 0.327860 -0.490835
0.148918 0.362101 0.582557
0.429821 0.514213 0.109401
-0.228595 0.074297 0.815512
0.283350 0.513514 0.336020
0.316850 0.647208 -0.146285
-0.913466 0.041545 0.155370
-0.578580 -0.214096 0.335589
-0.502667 0.069080 -0.452973
0.560748 0.353875 -0.202748
-0.005870 -0.304770 -0.717789
0.496708 0.092235 -0.451725
0.025311 -0.853589 -0.212661
0.107094 -0.703765 0.294549
-0.307599 -0.102344 -0.690795
0.105843 0.831798 0.201201
-0.606671 -0.100780 -0.365196
0.060114 0.942950 -0.112393
0.324871 0.031413 0.677073
0.606510 0.179525 0.330215
0.516021 0.390396 0.200610
0.105533 -0.164849 0.875237
-0.647996 0.065828 0.340879
0.959877 -0.104317 -0.021414
0.053795 -0.071074 0.969012
0.131092 -0.846630 0.175413
0.467967 -0.106228 0.473038
-0.157378 0.429059 0.496221
-0.497113 0.346518 0.290983
0.944489 0.043157 -0.118201
0.785892 0.249216 -0.068586
0.907510 0.076047 0.145290
0.366976 -0.015519 0.614233
-0.284359 0.104958 -0.722985
0.233634 -0.716105 -0.205636
0.490901 -0.451284 -0.117155
0.255985 0.324458 0.552337
-0.669753 0.331791 -0.000935
-0.159788 -0.101971 -0.886158
0.355857 0.475869 0.299935
-0.012160 0.654630 -0.342685
0.215363 0.259306 -0.672693
-0.074746 0.597332 -0.375099
0.769536 0.084815 0.255678
-0.144472 0.822691 -0.190093
0.632437 -0.320845 0.166445
-0.230643 0.694715 -0.228267
-0.379803 0.114979 -0.579626
-0.279573 -0.702955 -0.153316
-0.698960 -0.307344 0.080105
-0.868745 -0.142109 -0.148101
0.085328 -0.819691 0.221741
-0.959148 0.008133 -0.108765
0.169998 0.378855 -0.550690
0.336837 0.112504 -0.638564
0.513154 -0.447080 0.017687
-0.074929 0.186761 -0.868535
0.293637 0.672170 -0.160580
0.330576 0.589259 0.203047
0.566844 0.070331 -0.397524
-0.442292 -0.409813 -0.280309
0.794072 0.250775 0.026925
0.387062 -0.505261 0.225553
-0.252752 0.795766 0.019264
-0.191979 0.659588 -0.287987
0.222333 0.062541 0.826010
-0.318207 -0.511371 -0.313472
-0.566013 0.392538 0.095223
-0.599974 -0.293600 0.250355
0.056704 -0.152250 -0.913716
-0.217830 0.820642 -0.097097
-0.069709 -0.540023 -0.421881
-0.175178 0.879088 -0.080017
0.351366 0.600955 0.140996
0.364426 -0.495196 0.270979
-0.908015 0.139407 0.090661
-0.310753 -0.111779 0.679595
0.419585 -0.522590 0.125628
0.735008 0.230241 0.184980
0.069036 0.008532 -0.981788
0.026630 0.147888 0.920939
0.560304 -0.398130 -0.096500
0.285828 -0.714126 0.112008
0.016432 0.283910 0.743523
0.663983 0.051682 0.331150
0.278627 0.279304 -0.584044
0.594079 -0.380126 -0.059687
-0.369243 -0.013904 0.614934
0.209327 0.793647 -0.148500
0.309615 -0.293943 -0.538064
-0.195200 0.699352 -0.255117
-0.699309 -0.303883 -0.096041
-0.402201 -0.301100 -0.433698
-0.475265 -0.304392 -0.359392
-0.164111 0.722535 0.255446
-0.557161 -0.244477 -0.335641
0.313422 -0.629000 0.184641
0.541827 0.260203 0.329805
0.450226 -0.414721 0.258819
-0.012580 0.858242 -0.208469
-0.528776 0.429273 0.062515
0.078907 0.358679 0.615508
0.251797 0.565603 -0.318919
0.931989 -0.068157 -0.123849
-0.446985 -0.069418 -0.509781
0.158456 -0.639935 -0.320757
0.329755 0.068848 0.661422
-0.147066 -0.186635 0.825140
0.935055 -0.119671 -0.068913
-0.020928 -0.479378 0.478800
0.616858 -0.013246 0.365672
-0.915108 0.148078 0.055702
-0.319877 0.452027 -0.364896
-0.361829 -0.628286 0.009810
-0.283144 -0.236858 -0.628878
-0.131184 0.096631 0.910731
-0.060758 -0.746427 0.279338
0.166484 0.523583 0.401034
-0.096022 0.439912 0.506200
0.210589 -0.421530 0.476667
-0.227139 -0.266180 0.656047
-0.125146 -0.800122 -0.222589
-0.301792 -0.701381 0.096683
-0.788480 0.069344 0.249130
-0.656115 -0.336376 0.075592
-0.159551 -0.537314 0.395783
-0.837879 0.006724 0.223675
-0.563147 -0.399778 0.085421
0.849666 -0.002011 0.212880
-0.253078 -0.234734 -0.665457
0.831068 -0.167304 0.160432
0.487814 -0.454078 0.114190
0.310958 0.673210 -0.116647
0.303548 0.459644 0.368145
0.286604 0.125780 -0.705457
-0.489465 0.130885 -0.448609
0.169826 0.398164 0.524302
0.634202 0.328309 0.140067
0.813807 -0.236659 0.051226
0.281892 -0.619187 0.242588
-0.186205 0.570247 -0.357723
0.027783 -0.921637 0.149309
0.347551 0.459137 -0.329238
-0.052564 -0.514441 -0.444948
0.007179 0.229523 0.827102
0.022923 -0.543479 -0.423804
-0.282101 0.719309 -0.116532
-0.273810 0.264117 -0.607923
0.237907 -0.810990 0.048398
0.239200 0.675939 -0.235188
0.388349 -0.055707 -0.582205
0.933800 0.130209 -0.041910
0.151718 -0.806513 0.196308
-0.161704 -0.207994 -0.790071
0.280868 -0.056400 -0.744848
0.251559 -0.622321 0.271055
-0.022015 -0.839733 -0.224047
-0.069909 0.274812 -0.749326
0.055863 0.126544 0.932441
0.942180 -0.108342 0.069324
0.194655 0.449002 0.454247
0.105527 0.914819 -0.118670
0.541476 -0.423979 0.011621
-0.237288 0.575102 -0.323468
-0.680771 0.294071 0.147833
-0.034209 -0.108993 0.953971
-0.119872 -0.378958 -0.580575
0.190423 -0.109750 0.843659
0.237944 -0.283005 -0.625197
-0.440111 0.332693 -0.364409
0.429411 -0.445592 0.244451
0.549683 0.344739 0.230310
0.076132 -0.490315 0.461254
-0.158604 0.297938 -0.669374
0.186268 0.229614 -0.735982
-0.490274 -0.280634 0.362677
-0.445535 -0.445648 0.222370
0.648389 0.228856 -0.268513
-0.191413 0.494737 0.414168
-0.617747 -0.240685 0.286929
-0.418587 0.234364 -0.466114
-0.205697 -0.846448 0.079614
0.092621 0.523019 -0.428367
0.102433 -0.581392 0.379871
0.851360 0.133904 -0.168260
0.831919 -0.058074 -0.222514
-0.520073 -0.029792 -0.442868
-0.261914 -0.784616 -0.020812
0.410230 0.439579 0.274285
0.229660 -0.829014 -0.013182
-0.614889 -0.358949 -0.102297
0.048446 0.726994 -0.293719
-0.117922 -0.336593 -0.640873
-0.685995 -0.323755 -0.027303
-0.952345 -0.095017 0.071290
-0.097887 -0.577549 0.384109
-0.192333 0.840342 -0.116297
0.315990 -0.524818 -0.299376
-0.252044 0.390910 -0.482753
0.477031 -0.256297 -0.393462
-0.321716 -0.534870 -0.284983
-0.198070 -0.693943 -0.259519
-0.169559 0.400223 0.524008
-0.448743 0.444811 -0.217283
0.073896 0.292316 0.717978
0.493601 -0.413106 -0.201617
0.656329 0.193954 -0.287386
-0.618482 -0.171724 -0.330868
-0.102134 0.058998 0.949909
-0.396432 0.408555 0.329232
0.113417 -0.788191 0.234104
-0.273828 0.297166 -0.571427
0.050701 -0.897077 0.168611
-0.916903 0.135868 -0.080606
-0.782866 0.188468 0.186972
-0.762374 0.273746 -0.020819
0.659000 0.336671 -0.026761
0.547624 0.180574 -0.377100
0.056674 -0.233839 0.815402
0.116012 0.729500 0.271712
-0.392177 0.565884 0.100524
-0.083685 0.465331 0.482232
0.552605 -0.382264 0.161987
0.521457 -0.439629 -0.026194
-0.361058 0.062274 -0.622077
-0.903532 0.169165 -0.001850
0.613002 -0.107203 -0.357014
0.114175 -0.520063 0.424588
0.583437 0.184250 -0.347649
0.557738 -0.365353 -0.191893
-0.625336 0.242249 0.276089
-0.013052 -0.924757 0.148741
-0.630945 0.118850 0.339720
-0.910188 0.082582 0.141889
0.106654 -0.702461 -0.298098
0.705155 0.078201 0.299686
-0.104613 -0.263942 0.753083
-0.135004 0.251970 0.748597
0.663266 0.013941 -0.336969
0.234747 0.715914 0.198677
-0.988587 -0.026204 -0.048492
-0.743563 -0.282151 0.063055
-0.258693 -0.672236 -0.222286
-0.040781 -0.364944 -0.621432
-0.697456 0.036150 -0.315223
0.687335 0.183865 -0.270506
-0.495405 -0.460326 -0.070723
0.563972 -0.304933 0.270810
0.397989 0.292998 -0.439763
-0.257691 0.142279 -0.739505
-0.338480 -0.115419 0.636611
-0.842109 0.171189 -0.144160
0.456049 0.293798 -0.382026
-0.402808 0.562686 0.056004
-0.620971 -0.066615 -0.361763
-0.084939 -0.921785 0.127585
0.554985 0.327685 -0.251370
0.318210 -0.662040 0.120749
0.330792 -0.622275 -0.161858
-0.079408 0.966040 0.052004
0.445695 0.486362 -0.137894
-0.573506 -0.323564 -0.242046
0.400512 -0.230804 -0.486925
0.385227 0.082609 0.577856
0.481370 0.340739 -0.313657
0.562457 0.400803 0.055223
0.415625 0.458455 0.242744
0.235960 -0.144168 -0.766540
0.802748 -0.014241 -0.249058
0.377960 -0.431283 -0.328218
0.211162 -0.361569 -0.548989
0.062739 0.071998 0.965627
0.697104 -0.282014 -0.154455
0.244450 -0.530282 -0.355906
0.388311 0.558813 0.124225
-0.383417 -0.407650 0.347305
0.625458 -0.345044 0.117612
-0.544302 0.420314 0.020535
-0.011796 0.933299 -0.138442
-0.847042 0.078829 -0.204878
0.950650 -0.086102 -0.082419
-0.826173 0.035423 -0.231773
-0.797885 0.161589 -0.198309
0.280262 0.544789 0.310728
-0.340236 0.165854 0.605271
-0.490077 -0.391538 0.242931
-0.638953 0.149392 -0.325512
0.394867 -0.225048 0.495261
-0.159575 0.261437 0.717662
-0.571982 -0.016540 0.399208
0.062394 -0.531175 -0.429724
-0.196105 -0.830683 -0.127731
-0.363829 0.068896 0.614180
-0.232374 0.693746 0.225159
0.057468 -0.433848 0.524883
0.177023 -0.717562 -0.253799
-0.059066 -0.330334 0.667663
-0.899938 -0.146762 -0.099091
0.026727 0.256400 -0.787949
0.576716 -0.378473 -0.123440
-0.196638 0.452643 0.450153
0.514553 0.059159 0.439342
0.447164 -0.493608 -0.121299
-0.138361 -0.135268 -0.882925
0.290213 0.714285 -0.094695
-0.628394 0.335491 0.136596
0.745199 -0.219913 0.190160
0.908998 -0.092729 -0.138442
0.199202 -0.231839 -0.725144
0.423402 0.076128 -0.532829
-0.356802 0.380191 -0.401634
0.385693 -0.158781 -0.549823
-0.205221 -0.341654 -0.581102
-0.513256 0.101536 -0.436365
0.881058 0.109495 0.153490
0.203110 0.510786 0.393175
0.157184 -0.674154 -0.296759
-0.497396 0.188874 0.414058
-0.287213 -0.643137 0.213264
0.409658 -0.363375 0.364414
-0.366960 -0.121929 0.593141
-0.014824 0.603112 0.374541
-0.947211 0.001144 0.123108
0.444137 0.437036 0.230526
0.133465 0.542316 0.398229
-0.741420 0.064352 0.281208
0.275597 0.740836 0.082706
-0.121842 0.808045 -0.216249
0.924631 0.024189 0.143795
-0.020542 -0.330847 0.672691
0.733374 0.284030 0.066600
0.195598 0.869207 0.025935
-0.353161 0.515229 -0.265136
-0.581125 0.146203 0.366033
-0.329950 0.139386 0.635615
0.726135 -0.022633 0.294328
0.078828 -0.250161 0.784297
-0.089493 -0.099313 0.939482
0.014433 -0.109780 0.956528
-0.918042 -0.114975 -0.110124
0.167205 -0.624917 0.325247
0.709401 0.283056 -0.125544
-0.015295 0.957961 -0.107856
0.351489 -0.368530 0.416648
0.035982 0.887148 -0.180721
-0.198409 -0.309222 0.626431
0.380313 0.501993 0.237402
-0.401382 0.566945 -0.044049
0.050981 -0.545355 0.417230
-0.491217 0.327832 -0.319644
0.644873 0.051527 -0.346124
0.948720 0.095387 -0.071948
0.032925 0.016064 -0.993670
0.056019 0.316974 0.684752
-0.172087 -0.835086 -0.155479
0.340399 -0.631107 0.117145
0.171312 -0.816152 -0.173967
0.296502 -0.444412 -0.393066
0.291627 -0.280369 0.568436
0.322123 0.234311 0.573957
0.112267 -0.666645 -0.319933
-0.424632 -0.159300 0.503184
-0.538416 -0.279912 -0.323342
-0.254449 0.329186 -0.552494
-0.383381 0.147454 0.557559
-0.728389 -0.298147 -0.002216
0.058109 -0.107428 0.947712
-0.221537 0.516702 -0.380999
0.269298 -0.743911 -0.105266
-0.049454 0.171507 0.891626
0.022791 0.439254 -0.521236
-0.285081 0.332469 -0.520226
0.482293 0.183635 -0.430741
0.007669 -0.850303 0.214050
0.385833 -0.124229 0.563766
-0.269010 -0.766219 -0.060007
-0.313521 -0.382855 0.439472
-0.251474 0.617051 0.275396
-0.220056 0.423221 0.467257
0.103206 0.682271 0.308130
0.655566 0.333804 0.068176
0.469292 0.105844 -0.473633
0.754586 -0.220610 -0.182006
-0.147981 -0.911604 -0.075413
-0.052245 0.868566 0.191150
0.107706 0.074735 0.938306
0.290976 0.153484 -0.681887
-0.269654 0.586368 0.285749
-0.184305 0.860387 0.095502
0.063997 -0.207225 -0.850374
-0.145545 -0.021836 0.926655
0.256565 -0.028708 -0.788543
-0.197809 0.755119 -0.205889
0.442460 0.510485 0.063053
-0.102961 -0.218165 -0.819882
0.473672 0.468354 -0.103010
0.399275 -0.073079 0.562496
-0.215340 0.846131 0.032249
0.086198 0.219763 -0.821453
0.577225 -0.284435 -0.283413
0.226811 0.561324 0.337713
-0.143099 -0.146635 0.866761
0.611389 0.264584 -0.268490
0.032736 0.104779 -0.956968
-0.317491 -0.479567 0.341481
-0.187965 0.320837 0.615174
0.665071 -0.279592 -0.198642
0.612496 -0.314872 -0.207115
0.923576 0.141328 0.039797
0.492905 0.461505 0.033000
0.473360 -0.139799 0.457479
0.652908 -0.310425 -0.158873
-0.986886 0.052466 -0.019783
-0.891127 -0.170056 -0.072379
0.347434 0.391760 -0.396036
0.355005 0.480805 -0.298587
0.529726 -0.423973 0.087317
0.704477 -0.297726 -0.100138
0.877052 -0.159487 -0.114371
0.372853 0.300056 0.457404
-0.504354 -0.206001 -0.402500
-0.091111 -0.967202 0.035897
0.399734 -0.571838 0.009678
-0.054911 0.985862 0.007547
-0.686868 -0.217806 0.247966
0.194139 0.837752 -0.112045
0.319376 0.241021 -0.574024
0.316117 -0.225556 -0.593827
-0.474761 0.407448 0.234849
0.780161 0.136631 -0.228475
0.270597 0.651633 0.219700
-0.656129 -0.343420 0.013570
0.313731 0.034876 -0.696320
0.639594 -0.081392 -0.345028
0.694983 -0.096033 -0.305242
0.499768 0.442269 -0.109877
-0.172811 -0.136982 0.846810
-0.170769 0.231537 0.747832
-0.144026 0.869513 -0.142662
-0.191692 0.389201 -0.525938
0.887625 0.052888 -0.176983
0.308421 0.300162 0.526942
-0.198501 -0.662252 -0.284094
-0.055316 -0.752957 -0.278286
-0.702827 -0.193135 -0.255915
0.073774 0.203960 0.845228
-0.425015 0.085486 0.529009
-0.250779 -0.405580 0.467343
-0.406461 -0.123674 -0.543096
0.081782 -0.835261 -0.213607
0.311931 -0.701969 0.004590
-0.257098 0.507284 -0.365999
-0.163380 -0.683638 -0.288696
0.401396 0.289106 0.436660
0.018627 0.800220 -0.250339
0.526189 0.291859 0.316954
0.654918 0.303983 0.161889
0.425556 -0.257384 -0.441095
0.502982 0.148624 -0.426997
-0.270854 -0.611353 0.264662
-0.446526 -0.082374 0.504793
-0.061463 0.009547 0.983595
-0.513889 0.445382 0.028115
0.695182 0.263451 0.181655
0.057430 0.892106 0.168965
-0.937588 0.088365 -0.104638
-0.822340 -0.217969 0.095884
-0.282365 -0.286253 -0.577746
-0.009260 0.979071 0.068787
0.209597 -0.169620 0.777103
0.253520 -0.231788 0.662585
0.099556 0.805169 -0.228094
-0.163183 -0.063715 0.899049
-0.127094 0.448054 0.487995
0.766042 0.109763 -0.251555
0.535884 0.111578 0.410255
0.418171 0.541441 0.050364
0.719421 0.259740 -0.159908
-0.375281 0.509868 0.237752
0.578754 0.146562 -0.367948
-0.146823 -0.706397 0.277959
-0.378579 -0.123497 -0.579108
-0.659674 0.205804 0.276793
0.207670 -0.263080 0.676250
0.077380 0.054442 -0.968601
-0.174116 -0.865321 -0.112663
-0.826684 0.202053 0.115874
-0.572841 -0.254860 0.311828
-0.693781 -0.248793 0.210565
-0.105354 0.890383 -0.149774
-0.355735 0.570404 0.187547
-0.223222 0.780009 -0.148397
0.228962 -0.131053 0.782372
0.077699 -0.233856 -0.809396
-0.113318 -0.269381 -0.742855
0.403171 -0.310770 0.418742
0.839144 -0.197349 -0.110139
0.846380 0.184451 0.114105
-0.139803 -0.917057 0.076606
0.396406 -0.519256 -0.190241
-0.308215 0.351693 0.474940
0.202109 0.634301 -0.299213
0.017414 0.983324 -0.059095
-0.250805 -0.649533 -0.252203
0.395755 0.557234 -0.104402
0.140752 0.095772 0.901670
-0.468551 -0.143155 -0.465064
0.065757 -0.933162 0.123854
0.199893 -0.843713 0.093598
0.076544 -0.411718 0.548723
0.127932 0.753242 -0.253199
-0.339306 -0.661463 0.023175
-0.019115 -0.307508 0.710718
-0.168454 0.841833 -0.148480
-0.164321 0.602008 -0.344821
-0.332670 -0.528119 0.277523
-0.228698 -0.220728 -0.709315
0.250752 -0.390673 0.482062
0.005500 -0.535671 0.428330
-0.278170 0.530028 -0.330373
0.885247 0.150017 0.107103
-0.168344 -0.496743 0.426507
-0.193991 0.699716 0.253225
-0.093908 -0.353628 0.623212
-0.261286 -0.779380 0.053794
-0.564841 -0.392351 -0.112951
0.424380 0.492909 -0.173966
-0.412378 -0.363552 -0.365505
0.131455 -0.022742 0.936561
0.271785 -0.275820 -0.598768
0.219325 0.402837 -0.490586
0.702031 -0.089012 0.299866
0.658477 -0.332634 0.078569
0.105582 -0.756688 0.259231
0.923161 0.105329 -0.108410
-0.188832 0.373478 0.544900
0.748915 -0.097400 -0.269217
-0.159027 0.100774 0.883778
-0.951303 -0.036622 0.113064
0.216530 0.543828 -0.360792
0.321949 -0.401219 -0.413475
-0.074724 0.441761 -0.511655
0.537309 -0.215909 0.364924
-0.916360 -0.117817 0.109199
-0.016878 -0.202073 0.866839
0.605593 0.347438 -0.144871
-0.342854 -0.644691 0.081221
-0.838857 -0.224719 -0.023228
-0.477665 -0.144450 0.453915
-0.607416 -0.323245 0.199927
-0.216425 -0.845309 0.044474
0.286517 -0.527221 -0.325975
0.612459 0.133561 -0.348874
0.334878 -0.117827 -0.639519
-0.068953 0.508341 -0.446218
0.615197 0.361651 0.062741
-0.320088 -0.559687 0.259992
-0.294165 -0.151523 -0.683998
-0.871628 -0.021351 0.196060
0.270006 0.407567 -0.448330
0.084971 0.410309 -0.547280
-0.040028 0.973525 -0.075016
0.048680 -0.786133 -0.257553
-0.039504 0.181588 -0.885455
0.503231 0.129328 0.432171
0.335731 0.255730 -0.540863
-0.186109 0.100886 0.855379
-0.334381 0.666894 0.021887
0.690183 0.004094 0.317918
-0.721009 0.248121 -0.179836
-0.217281 -0.407261 0.489395
0.180060 -0.834205 -0.143363
-0.362174 0.617508 0.066613
0.495002 -0.464295 -0.009532
-0.354020 -0.429515 0.355816
-0.571120 0.026209 0.399243
-0.368898 -0.025504 -0.617272
-0.479007 0.097978 -0.469044
0.054147 -0.781533 0.257096
-0.216222 -0.434251 0.461104
-0.095169 -0.743993 -0.274928
0.618644 -0.365516 0.028114
-0.103081 0.127763 0.908582
-0.224450 -0.317227 0.594610
0.353836 -0.631690 -0.057360
-0.226452 0.564381 0.336703
-0.879209 0.109653 -0.160843
-0.016230 0.956371 0.106504
0.013442 -0.747882 -0.285671
-0.064680 0.806983 0.236022
0.445269 -0.194571 0.459605
0.526571 0.083175 -0.427598
-0.352154 -0.608845 0.135394
0.527231 -0.054784 -0.432189
0.415433 0.358632 -0.362282
0.361022 0.360729 0.411266
-0.051844 0.255157 0.782763
-0.651880 -0.237124 0.260796
0.158121 -0.852644 0.145004
0.201585 -0.497493 0.407442
-0.918049 -0.047932 0.149198
0.068049 0.834606 0.213938
-0.923037 -0.007094 0.151123
0.720296 -0.139067 -0.272840
-0.065462 -0.335225 -0.661504
0.260080 -0.780816 0.038995
-0.427678 0.285000 -0.417939
-0.225189 0.748131 -0.182567
-0.689694 0.311814 -0.076914
-0.024405 0.987796 -0.044299
-0.261784 0.762907 -0.091549
0.004749 0.357793 0.627451
0.372871 0.221371 0.522347
-0.796523 -0.181664 0.183424
0.030498 -0.045218 0.986701
-0.119312 -0.951781 0.012089
-0.812809 0.184146 -0.162440
-0.133678 0.131485 0.884758
-0.291496 0.662315 -0.183293
0.289512 -0.221397 -0.631496
-0.258139 0.108202 -0.760000
-0.336908 -0.620738 -0.155600
-0.398090 0.310253 -0.426524
-0.602854 -0.296057 -0.247036
-0.006949 0.825215 -0.233305
0.108385 -0.196355 -0.841778
0.030552 -0.571606 0.399027
0.189507 -0.312202 -0.629817
-0.205977 -0.203523 0.749177
0.008403 0.125356 0.943241
0.782816 0.017727 0.259484
0.255217 0.063353 0.779235
-0.893307 -0.115883 0.139679
-0.070314 0.657949 0.331976
-0.384651 -0.081694 0.583057
0.192551 0.337516 -0.590166
0.706713 0.062103 -0.304258
0.465936 0.353884 0.312673
-0.285617 0.720542 0.101355
-0.042133 -0.441526 -0.519965
-0.502890 -0.268066 -0.364031
0.606450 -0.281236 0.256106
0.090814 0.304796 -0.694365
-0.257685 -0.024218 -0.791313
0.149249 0.917726 -0.035660
-0.592058 -0.379686 -0.081260
-0.017677 0.498581 -0.460281
-0.155997 -0.318521 -0.646383
-0.145697 -0.113019 0.889991
0.179317 -0.450359 -0.465934
0.432251 0.039051 -0.527425
0.283608 -0.713969 -0.121297
0.305706 -0.688332 -0.104671
-0.002324 -0.350886 0.642508
0.144182 -0.300948 -0.677562
0.459400 0.213192 -0.435775
0.338412 -0.640964 -0.102983
0.218073 -0.316480 -0.601915
-0.077920 -0.428074 -0.530878
-0.351328 0.482269 -0.303317
-0.183521 -0.323558 -0.621228
0.069606 0.328672 -0.665649
0.390825 0.341553 0.400767
-0.646854 0.333585 -0.103412
0.191143 0.828635 0.129145
0.183687 -0.079010 0.868057
-0.038251 0.594550 -0.381454
-0.192218 -0.492716 -0.420285
0.214494 0.707157 0.228789
-0.109991 -0.024387 -0.957633
-0.877477 0.149193 0.124023
0.250524 0.346863 -0.532227
-0.187465 0.519080 -0.398147
0.028730 -0.974769 0.079109
-0.462543 -0.344444 -0.334889
-0.276821 -0.735465 -0.106016
0.981597 0.062599 0.018772
-0.098998 0.944791 0.076231
-0.313844 0.692277 -0.063159
-0.941110 0.038658 0.124515
-0.665628 -0.283240 0.191987
0.232113 -0.031106 -0.823981
-0.764063 0.257157 0.095546
0.172284 0.012907 -0.900055
0.310806 -0.342829 -0.485136
0.186967 -0.527885 0.389604
0.329099 0.129876 0.637739
0.296842 0.720353 0.037709
0.310584 -0.700725 0.041883
-0.738448 0.270963 -0.107269
-0.047755 0.408163 0.554296
0.441909 -0.237433 0.436275
0.489120 0.387769 -0.244959
0.908361 -0.059499 -0.155097
0.113154 0.362289 0.597195
0.593517 -0.047131 -0.382452
0.147406 0.312027 0.652971
0.163325 -0.709163 0.266303
-0.001069 0.459017 -0.499740
-0.152516 0.211270 -0.790265
-0.170761 -0.676539 0.287254
0.299650 0.575538 0.262560
0.102473 0.525361 0.421279
-0.399225 0.521948 -0.179831
0.303787 -0.713651 -0.031435
-0.058995 0.447431 0.505956
-0.298802 0.724198 -0.016540
-0.030095 0.754022 0.276873
0.663384 -0.327862 -0.087616
-0.347862 0.002064 -0.648939
0.002598 -0.387942 0.589123
0.184821 -0.478290 0.434238
0.087580 0.227232 0.808792
-0.025100 0.096948 -0.964683
-0.782752 -0.258691 -0.057052
-0.122091 -0.851280 0.179336
-0.456359 -0.450219 -0.200608
-0.162457 -0.001702 -0.912681
0.147444 -0.351584 0.600406
-0.404768 -0.499885 0.207981
-0.880485 0.167194 0.091081
0.232872 0.786834 -0.114672
-0.286263 -0.112044 -0.718850
-0.038784 0.492181 0.462440
-0.155804 -0.584131 -0.363463
-0.486071 0.443012 -0.150973
0.320774 -0.013592 0.685985
0.425847 0.514277 -0.121317
0.005868 0.652173 0.341585
-0.304284 -0.183307 0.644874
0.038132 -0.986914 0.045208
0.007234 -0.024082 -0.995990
-0.788286 0.249772 0.066002
0.965712 0.035991 -0.088341
0.101334 0.040900 0.954763
0.527394 -0.387780 -0.195034
0.822893 0.037435 -0.232411
-0.234001 0.305649 -0.600067
-0.366582 -0.555170 0.193167
-0.465784 -0.104360 -0.481747
0.144417 0.341321 -0.616059
-0.315485 0.694362 0.038808
0.485026 0.068759 0.464780
0.751187 0.241553 0.148637
0.221391 0.302565 -0.612622
-0.104590 0.797407 0.230143
-0.230588 -0.578019 -0.327636
0.179991 0.277868 -0.679624
-0.836971 -0.161462 -0.164351
-0.549258 0.112000 -0.403704
-0.344438 -0.568640 -0.216349
0.571085 -0.018151 -0.400533
0.396470 0.518153 -0.187481
0.588993 -0.386845 0.029633
0.384665 0.245803 0.489830
0.316966 0.098555 -0.674248
0.561975 -0.404456 -0.051881
0.254536 0.773765 -0.081552
0.359706 0.137888 -0.594045
-0.296148 -0.704286 -0.110658
-0.142297 -0.026177 -0.931190
-0.158720 0.416602 -0.512076
0.541707 -0.349281 0.237010
-0.337870 0.207619 0.579681
-0.286222 -0.039632 0.741778
0.091814 0.804254 0.228642
-0.521744 -0.406278 -0.170252
-0.261949 0.482036 0.381993
0.028699 0.305022 0.708738
-0.342540 -0.592857 -0.187230
-0.571078 -0.183999 -0.360285
0.157157 -0.530823 -0.403592
-0.032706 0.650140 0.341624
0.104986 -0.433445 -0.516021
-0.473541 0.024198 0.484261
0.060415 -0.282532 0.742070
-0.384250 -0.576584 0.106026
0.146024 -0.894537 -0.106170
0.413831 -0.520106 -0.148050
-0.741944 0.257054 0.134917
0.363412 -0.618856 0.047053
-0.281543 0.609242 0.252399
-0.720022 -0.277623 -0.132847
0.268181 -0.558258 -0.314430
-0.216826 0.135811 0.795434
0.435645 -0.109283 0.507430
-0.245631 -0.154843 -0.748886
-0.532290 -0.265275 0.338358
-0.152451 -0.808179 -0.199693
0.474558 -0.189174 0.434294
-0.803966 0.068692 -0.240558
0.430004 -0.224969 -0.459536
0.445661 0.501970 -0.088323
0.301075 0.408260 -0.422031
0.491454 -0.185249 -0.422806
0.932257 0.074950 0.117151
-0.237961 -0.126949 -0.777776
0.395364 0.569832 -0.060332
0.365594 -0.526190 -0.233794
0.705979 -0.259671 0.179673
0.549337 -0.204813 -0.364486
0.337253 0.075118 -0.650957
0.327367 0.664090 0.072237
-0.685312 -0.173482 -0.281567
-0.196004 0.348968 0.571629
-0.048669 -0.431251 0.528968
0.292958 -0.402725 -0.437567
-0.864670 -0.204628 0.019499
-0.719320 -0.298680 -0.060053
-0.691511 0.194915 0.259568
-0.239531 -0.169515 0.742057
0.443798 -0.471634 0.177428
-0.540547 0.404499 -0.127181
0.119904 -0.216700 -0.809348
-0.466722 -0.102203 0.478680
-0.026448 0.289262 0.734918
-0.577105 0.385302 -0.093566
-0.170657 -0.651587 -0.308061
0.266115 0.263844 -0.614967
-0.988190 0.021404 -0.051720
-0.754044 -0.017472 -0.281571
-0.317292 -0.296207 -0.529375
0.901471 0.120491 0.121204
0.787002 -0.100486 -0.241541
-0.340875 0.038069 -0.656861
-0.278984 -0.726933 0.113601
0.021584 -0.329354 0.674870
0.119794 -0.947659 -0.029432
-0.244046 0.715482 -0.192579
0.106084 0.627214 0.345134
-0.173779 -0.014268 0.898428
-0.343833 0.147889 -0.613412
-0.537054 0.185158 0.382717
-0.978291 0.073975 0.014406
0.407478 0.049072 -0.557325
0.084367 -0.903650 0.148606
-0.627916 -0.292689 0.222511
-0.047767 -0.960433 -0.098815
0.425256 0.197876 -0.480136
0.306922 0.217313 0.608176
0.476339 -0.024063 -0.481411
0.761655 0.146728 0.234691
0.547942 -0.415384 0.051963
-0.224559 -0.781625 -0.147974
0.567320 0.366882 -0.166195
-0.303078 -0.593461 0.245945
-0.226848 0.497693 0.391773
0.828564 0.165283 -0.164250
-0.665378 0.028877 0.333953
-0.651949 -0.070770 -0.340475
0.707001 0.273997 0.147219
-0.651110 0.342708 0.034153
0.139949 -0.376442 0.571531
-0.894350 0.173341 0.037551
0.821280 -0.112395 0.208459
-0.362635 -0.393077 -0.385604
0.747872 0.253814 -0.131245
0.057959 0.397925 -0.568779
0.912628 -0.118180 -0.111845
0.171336 -0.777117 0.207708
-0.247281 0.658400 0.243391
-0.384568 0.399462 -0.353999
-0.746442 0.152503 0.244639
0.155878 -0.091911 0.890858
-0.532154 -0.399764 0.162594
-0.394126 -0.550881 0.138847
0.439936 -0.004090 0.518636
0.501112 -0.367485 0.259943
0.047211 0.411790 0.550190
0.236839 -0.210765 0.704827
0.674108 0.254724 -0.219578
-0.231701 0.277591 -0.637302
-0.391908 -0.399614 -0.349906
-0.222287 0.235968 -0.695542
-0.010863 -0.354711 -0.639713
0.272978 0.756451 0.046463
0.692924 -0.052076 -0.315376
0.762330 -0.057018 0.267868
-0.669483 0.016199 -0.334411
-0.727264 -0.202129 -0.229576
-0.091708 -0.466404 -0.484556
0.147449 -0.249382 0.745531
-0.012916 0.856971 0.206525
0.170987 -0.275925 -0.693175
0.214655 -0.355052 0.552348
-0.130053 0.839689 0.182033
0.234108 0.087940 0.799750
0.204528 0.360390 -0.552169
0.085534 0.962317 -0.053442
0.339931 0.654863 -0.022514
-0.042519 0.384998 0.586028
-0.151288 0.453689 -0.474152
-0.507107 0.240739 -0.376911
-0.376084 -0.525438 0.219644
-0.507976 0.446647 -0.065639
0.484293 0.305940 0.342803
0.512677 0.304052 -0.321034
-0.512152 -0.446281 0.058736
0.188375 0.187548 -0.781566
-0.012202 0.269931 0.766914
0.407160 -0.415306 0.310585
-0.181797 0.880131 0.054119
0.355854 0.541648 0.223230
0.416903 0.005282 -0.549722
-0.416862 -0.237992 -0.466945
-0.781857 -0.034896 -0.262340
-0.083339 -0.397030 -0.567625
-0.105109 -0.610054 -0.361482
0.532180 -0.151294 -0.403665
-0.598812 0.040160 0.377387
-0.046516 0.152466 -0.915280
-0.109042 0.658984 -0.325251
0.695671 0.294205 0.117768
-0.024651 0.153744 0.915666
0.338762 -0.488247 -0.311579
-0.640673 -0.191566 0.301966
-0.233679 -0.820951 -0.050513
0.266611 0.718143 -0.149396
-0.026107 0.193568 0.871947
0.413757 -0.020886 0.550437
-0.423024 0.528645 0.093630
-0.130023 -0.226532 -0.791827
-0.543196 0.403233 0.123655
-0.227406 0.607695 -0.304417
0.145478 0.208279 -0.797964
-0.273642 -0.091857 -0.747182
0.430763 0.453714 -0.227830
-0.093422 0.290729 -0.716388
0.726395 -0.181712 0.241103
-0.071819 0.643633 -0.343996
0.446146 -0.513365 -0.032162
-0.646170 -0.334036 0.111820
0.165353 0.442654 0.475925
0.141693 -0.021803 -0.929753
-0.311667 0.419146 0.401230
-0.579759 -0.393815 0.048470
0.160257 -0.904187 -0.054750
0.240252 -0.323820 -0.573031
0.821849 -0.143951 -0.191448
-0.362635 0.325657 -0.449032
0.008762 -0.893079 -0.181085
-0.807496 -0.246619 -0.026093
0.245728 0.466625 -0.408450
-0.379134 0.560412 0.153983
0.584857 -0.202886 -0.338115
-0.270183 0.185862 0.686378
0.167911 0.648059 -0.308413
0.794676 0.138288 0.214208
-0.037029 -0.809457 -0.244233
-0.306812 -0.191588 -0.637540
0.979409 0.042635 -0.055058
-0.061817 -0.151234 -0.913598
0.013646 0.308259 -0.707034
0.126870 0.922539 -0.079895
0.433892 0.521456 -0.059349
0.154493 0.743520 0.243782
0.382178 -0.352334 0.401714
-0.520480 -0.387765 0.206830
0.648824 0.306747 -0.167802
-0.506973 0.384674 -0.227786
0.727974 0.273410 0.115046
0.252500 -0.684954 -0.214091
-0.352918 -0.523373 -0.259535
-0.193491 -0.338054 0.591746
0.528500 0.399897 -0.160755
0.496044 0.455239 -0.065789
-0.206290 -0.691355 0.253270
0.151523 0.629562 0.326913
0.989935 -0.026781 0.031431
-0.339371 -0.314271 0.485300
0.362037 0.557710 0.190978
0.168238 -0.004407 0.902466
-0.000973 -0.579679 -0.396488
0.448318 0.003183 -0.512423
-0.460588 0.355626 -0.320984
-0.057149 0.207855 0.847125
-0.265769 -0.063561 -0.769947
-0.507847 -0.249361 0.370925
0.559194 -0.315121 -0.267012
0.195741 -0.208732 -0.754936
-0.000381 0.400679 -0.570342
-0.227332 -0.484078 -0.407349
-0.383257 0.481675 0.261264
0.164562 -0.873640 0.108031
-0.110583 0.560321 -0.394002
0.135683 0.892070 -0.119793
0.093183 -0.906109 -0.143713
0.468844 -0.458673 0.151029
-0.292917 -0.231895 0.618149
0.195165 0.540673 0.372903
0.029313 0.836765 -0.222724
0.055348 0.472965 -0.480795
-0.254857 -0.296104 0.591834
0.869609 -0.166396 0.111449
0.410403 0.487998 0.207511
-0.860788 -0.190694 -0.088697
-0.321101 -0.660942 -0.123062
0.197460 -0.476053 -0.432432
0.099750 -0.633219 -0.346301
0.467344 -0.385563 0.276555
0.076245 -0.865484 0.188695
0.264944 0.770197 -0.045726
-0.724702 -0.097888 -0.286561
-0.252639 0.737639 -0.153205
0.586547 0.005891 0.386943
0.022765 -0.197664 0.869691
0.216363 0.147260 0.784676
-0.496972 0.112447 0.446126
0.889481 0.014537 -0.181700
0.023304 -0.486534 0.471587
0.295966 -0.317209 0.525132
-0.558049 -0.026411 -0.411144
0.151772 0.413734 -0.517438
0.710590 -0.278979 0.138275
0.788936 -0.057445 -0.252726
0.247405 0.374510 0.500551
-0.537242 -0.037270 0.425452
-0.654684 -0.266975 0.226745
0.912047 -0.160844 -0.021822
-0.320071 -0.219343 0.595094
-0.439504 0.465580 0.197224
-0.468061 0.386377 0.273771
-0.144908 0.390227 -0.550856
0.362132 -0.323830 -0.451150
0.014508 0.759417 0.274647
-0.306276 -0.252635 0.582588
0.801216 0.178532 0.176759
0.338954 0.630794 -0.118075
-0.332679 0.554954 0.245165
-0.419208 0.010390 0.546823
-0.573060 -0.398264 -0.054241
0.659754 -0.030357 -0.339034
-0.109889 0.013674 -0.958420
0.623515 0.147232 0.333398
-0.406776 -0.303626 0.423506
-0.888534 -0.185091 -0.008759
-0.066171 -0.066313 0.968268
0.104729 0.188218 -0.849772
0.494205 -0.303537 -0.340702
0.319712 0.498392 0.316916
0.018484 -0.621453 -0.366398
-0.238409 0.189324 0.723328
-0.196543 -0.803787 -0.160124
0.276199 0.131986 0.713912
0.430530 0.035556 0.528404
-0.616390 -0.341516 0.149025
0.789258 -0.247447 -0.080871
-0.469433 0.484442 -0.058412
0.140898 -0.540901 0.399137
0.740121 0.184510 0.225727
0.459221 -0.086747 -0.490372
0.549492 0.008269 0.414829
-0.009815 -0.096515 -0.967539
0.136998 0.851001 0.163985
0.308359 0.472923 -0.353512
0.075277 0.278568 -0.741219
0.319338 0.416698 0.395166
-0.105907 0.199822 0.835059
0.372672 0.423392 0.336810
0.398222 -0.017619 -0.573161
-0.295153 0.723079 -0.056463
-0.297038 0.726390 0.023413
-0.078069 0.182159 0.869674
