0.392466 0.300578 0.446189
0.303916 0.300160 0.138321
0.352641 0.235924 0.369942
0.332244 0.295214 0.445492
0.543816 0.302342 0.181337
0.230227 0.289025 0.568168
0.035044 0.093421 0.333568
0.113617 0.325870 0.191116
0.120858 0.307610 0.360189
0.243539 0.539339 0.917123
0.464969 0.271931 0.282754
0.441595 0.546238 0.947946
0.373377 0.263753 0.348783
0.524377 0.127977 0.607768
0.264370 0.288551 0.626392
0.274150 0.365517 0.511023
0.352265 0.249484 0.374321
0.302363 0.283523 0.092621
0.306101 0.317383 0.589498
0.389785 0.228492 0.089717
0.375841 0.254690 0.253829
0.407642 0.283524 0.649491
0.277683 0.299919 0.216705
0.572360 0.224184 0.152579
0.345927 0.222530 0.062458
0.388550 0.329937 0.388893
0.392245 0.369787 0.474991
0.044159 0.097055 0.339451
0.393452 0.337748 0.482831
0.635424 0.026342 0.347045
0.337026 0.370427 0.559828
0.305347 0.282268 0.480458
0.517799 0.184430 0.616263
0.201167 0.298222 0.264358
0.312722 0.235924 0.349859
0.284619 0.235924 0.374174
0.572410 0.182575 0.127183
0.401341 0.155335 0.138586
0.399779 0.235206 0.158586
0.333744 0.282268 0.509218
0.393627 0.270303 0.217844
0.359422 0.486736 0.758322
0.402599 0.160250 0.151269
0.190747 0.285493 0.617982
0.323912 0.298427 0.470586
0.278194 0.261845 0.417472
0.128106 0.321432 0.362324
0.105925 0.224631 0.160433
0.499832 0.278307 0.621442
0.262762 0.247295 0.706249
0.286270 0.292127 0.503241
0.338478 0.194624 0.218743
0.362347 0.195090 0.219657
0.157090 0.292813 0.635945
0.131448 0.322671 0.190313
0.401892 0.237273 0.134684
0.557007 0.310833 0.338718
0.046776 0.076789 0.335946
0.236609 0.519888 0.932511
0.364872 0.316997 0.323505
0.344690 0.269280 0.236312
0.309896 0.270661 0.305681
0.325303 0.201670 0.052143
0.412324 0.288200 0.407399
0.279967 0.230202 0.707413
0.137962 0.296888 0.354863
0.389021 0.172289 0.174901
0.307104 0.293313 0.482699
0.188671 0.305642 0.386103
0.279372 0.281104 0.747133
0.301472 0.366813 0.568400
0.514500 0.233708 0.627290
0.569082 0.251238 0.147578
0.391829 0.341380 0.518169
0.267918 0.501493 0.852690
0.298911 0.294493 0.442758
0.290783 0.311980 0.541209
0.361553 0.214904 0.248134
0.153718 0.242216 0.628880
0.495134 0.151490 0.593833
0.350586 0.149427 0.106608
0.444771 0.264828 0.304289
0.238139 0.282414 0.321944
0.302640 0.310665 0.237407
0.292226 0.231920 0.660094
0.276892 0.280283 0.389806
0.345322 0.229726 0.693585
0.088110 0.251033 0.345855
0.439748 0.301780 0.388434
0.388164 0.359370 0.414637
0.490488 0.298258 0.601966
0.396274 0.243817 0.194850
0.515201 0.206678 0.613125
0.175770 0.244394 0.629710
0.494090 0.277044 0.602706
0.362098 0.261845 0.437156
0.408872 0.294249 0.689690
0.425080 0.534143 0.919543
0.341335 0.178858 0.040862
0.458248 0.534644 0.952300
0.571462 0.255274 0.165825
0.392152 0.165382 0.161342
0.281651 0.254439 0.488799
0.181212 0.304394 0.358440
0.273851 0.255902 0.613845
0.344712 0.292970 0.113661
0.236050 0.284321 0.301926
0.141964 0.305525 0.368255
0.317683 0.424372 0.739127
0.335256 0.260033 0.770324
0.093176 0.058746 0.635555
0.337765 0.261845 0.423106
0.510431 0.285603 0.249190
0.419825 0.513894 0.903961
0.387540 0.338530 0.374749
0.234401 0.264155 0.540318
0.256200 0.243555 0.637656
0.148936 0.318579 0.346125
0.533044 0.302877 0.365404
0.326122 0.267207 0.389806
0.389157 0.349893 0.394362
0.346140 0.253408 0.618654
0.351198 0.144803 0.081582
0.561916 0.200957 0.130423
0.193408 0.272464 0.588347
0.151393 0.204757 0.621983
0.067840 0.252758 0.342195
0.396849 0.249818 0.186176
0.365893 0.291551 0.431599
0.277917 0.335876 0.415942
0.304456 0.488310 0.767318
0.360374 0.273334 0.734403
0.513001 0.298571 0.373063
0.290101 0.297636 0.332215
0.411760 0.232666 0.685064
0.239682 0.535806 0.926337
0.549379 0.301015 0.345669
0.382699 0.316520 0.215807
0.392269 0.317770 0.491000
0.352843 0.314726 0.322609
0.271907 0.282268 0.472736
0.228166 0.538846 0.904026
0.307648 0.413470 0.735607
0.396951 0.271342 0.481727
0.477750 0.293763 0.386534
0.257647 0.261845 0.389832
0.160211 0.312571 0.350421
0.387900 0.231623 0.736294
0.266503 0.230129 0.705280
0.273484 0.304121 0.203018
0.373193 0.339040 0.633676
0.282786 0.214850 0.248089
0.375863 0.276352 0.247019
0.301991 0.144392 0.073652
0.387829 0.298307 0.393402
0.256588 0.254467 0.642675
0.362334 0.269479 0.085676
0.346167 0.275352 0.525235
0.384564 0.320272 0.521756
0.400301 0.244974 0.148713
0.099119 0.294045 0.169711
0.385394 0.328201 0.666331
0.309648 0.475438 0.754306
0.300784 0.209559 0.056044
0.277624 0.235924 0.363409
0.309689 0.302802 0.147383
0.558526 0.321887 0.343493
0.324561 0.235926 0.326817
0.257841 0.254032 0.631331
0.109339 0.321037 0.342495
0.363456 0.240060 0.644398
0.558209 0.245102 0.143510
0.299265 0.337669 0.637805
0.339042 0.235924 0.360478
0.497854 0.149677 0.610772
0.324990 0.337560 0.364141
0.350592 0.381839 0.462748
0.488503 0.271196 0.624883
0.250085 0.261119 0.523227
0.113569 0.165889 0.143183
0.496456 0.285033 0.236083
0.281497 0.298200 0.374402
0.167051 0.234454 0.607028
0.328566 0.162189 0.155075
0.293286 0.247472 0.074793
0.314087 0.317636 0.698159
0.300307 0.245375 0.757205
0.338299 0.182094 0.194147
0.429986 0.277276 0.558912
0.244444 0.263108 0.537450
0.189699 0.299073 0.617590
0.342030 0.188733 0.045745
0.377337 0.327509 0.555925
0.283876 0.320865 0.525686
0.122508 0.316533 0.212847
0.381042 0.190698 0.086865
0.246853 0.259254 0.313625
0.396967 0.255924 0.613801
0.450726 0.287896 0.372038
0.328607 0.243562 0.637642
0.311168 0.381161 0.472183
0.269286 0.181108 0.192212
0.278839 0.201187 0.097305
0.364743 0.486192 0.771328
0.090540 0.254745 0.324156
0.412324 0.262059 0.412286
0.385575 0.285536 0.374199
0.163520 0.246519 0.631265
0.495988 0.292766 0.627804
0.400544 0.235924 0.349719
0.320227 0.165373 0.161324
0.282468 0.493721 0.821151
0.235370 0.270473 0.561679
0.282507 0.322876 0.354025
0.585114 0.050911 0.641977
0.323893 0.240610 0.749960
0.262755 0.504114 0.830755
0.165507 0.291475 0.361922
0.399292 0.252196 0.156618
0.296788 0.244521 0.265335
0.302815 0.296052 0.251472
0.390997 0.498435 0.835739
0.414028 0.229093 0.675247
0.391565 0.339166 0.437201
0.219435 0.530141 0.921572
0.343409 0.261845 0.414139
0.326768 0.229990 0.701268
0.270049 0.187700 0.203802
0.548066 0.284213 0.156403
0.230634 0.545693 0.937343
0.169760 0.267735 0.613263
0.403356 0.199619 0.134856
0.333625 0.312318 0.180018
0.327502 0.274143 0.541379
0.414755 0.254690 0.672616
0.303410 0.290580 0.558369
0.315631 0.460053 0.739117
0.519382 0.158373 0.613385
0.266979 0.295949 0.127898
0.403058 0.293087 0.719052
0.376535 0.174071 0.084361
0.300993 0.285414 0.549581
0.395490 0.229479 0.686441
0.074010 0.201251 0.328110
0.601606 0.201132 0.315476
0.395960 0.280905 0.471311
0.426194 0.287325 0.554128
0.272058 0.281911 0.518814
0.078856 0.037097 0.655633
0.237943 0.532418 0.882257
0.322136 0.373803 0.551819
0.324659 0.282268 0.518127
0.157368 0.265434 0.616949
0.554997 0.276856 0.153029
0.256985 0.274376 0.327065
0.399962 0.298528 0.132725
0.545042 0.102355 0.631327
0.420577 0.262180 0.313754
0.480114 0.285171 0.283142
0.193666 0.295470 0.388012
0.335880 0.276013 0.242504
0.326871 0.262334 0.374321
0.384615 0.225587 0.080985
0.287847 0.262650 0.389806
0.259797 0.517317 0.836591
0.111123 0.122114 0.093721
0.369555 0.254439 0.489245
0.079074 0.225193 0.342082
0.172683 0.181717 0.610978
0.337270 0.296098 0.251458
0.566392 0.305371 0.188964
0.108698 0.099079 0.060075
0.360584 0.185109 0.050170
0.324461 0.223901 0.063137
0.394990 0.217093 0.218492
0.585586 0.221076 0.320893
0.273881 0.322035 0.473416
0.325411 0.313052 0.636246
0.129191 0.102748 0.627091
0.492836 0.232689 0.629419
0.267963 0.188887 0.181813
0.283203 0.278878 0.363613
0.269428 0.262441 0.172351
0.373090 0.282268 0.512067
0.317288 0.325938 0.673149
0.562750 0.123233 0.084476
0.398788 0.262124 0.159416
0.120502 0.107986 0.623347
0.580850 0.245106 0.322675
0.221896 0.303341 0.380018
0.408160 0.285522 0.660584
0.296687 0.162881 0.077085
0.159085 0.293806 0.349991
0.301804 0.155817 0.069870
0.545172 0.299649 0.356084
0.279406 0.263753 0.329974
0.300633 0.323657 0.680021
0.296221 0.241049 0.642489
0.321891 0.376645 0.729556
0.164150 0.294596 0.614451
0.098335 0.160324 0.122511
0.366981 0.252488 0.620429
0.513543 0.203717 0.600370
0.360443 0.333795 0.735369
0.315668 0.235924 0.337740
0.255800 0.273838 0.535902
0.353378 0.267403 0.311036
0.255521 0.264391 0.323012
0.338253 0.304392 0.316343
0.272188 0.301496 0.189057
0.317779 0.436792 0.738909
0.286390 0.243247 0.638251
0.431193 0.529934 0.934198
0.531642 0.316773 0.223040
0.279272 0.316125 0.391305
0.389510 0.299456 0.411676
0.364679 0.326017 0.619448
0.113990 0.301185 0.355859
0.478517 0.276728 0.268102
0.269434 0.217824 0.188012
0.502721 0.183097 0.597727
0.357979 0.247617 0.326817
0.161413 0.294853 0.626292
0.291523 0.296095 0.526677
0.330244 0.380275 0.484532
0.387215 0.248977 0.077428
0.395725 0.276399 0.191147
0.299668 0.278701 0.437310
0.293779 0.229559 0.688750
0.385656 0.230807 0.724968
0.329495 0.215820 0.248903
0.308933 0.189697 0.046222
0.309257 0.336852 0.630137
0.411403 0.253078 0.640393
0.312651 0.260551 0.326817
0.318107 0.447814 0.738164
0.406012 0.261845 0.422688
0.274209 0.292435 0.734663
0.605415 0.231038 0.321017
0.321237 0.285397 0.561861
0.568198 0.294344 0.168328
0.346133 0.300912 0.730636
0.279910 0.269287 0.229931
0.331523 0.287714 0.272949
0.340711 0.243740 0.637300
0.281904 0.154964 0.136578
0.380671 0.256049 0.374321
0.270598 0.258191 0.486669
0.169877 0.307980 0.238978
0.323865 0.302934 0.147835
0.292669 0.346593 0.585591
0.363356 0.306321 0.719379
0.284837 0.204214 0.237567
0.358467 0.377959 0.516785
0.365231 0.158502 0.068610
0.568980 0.151925 0.115290
0.332003 0.254439 0.483978
0.356279 0.466399 0.725156
0.293999 0.273958 0.379038
0.307858 0.327904 0.735700
0.293091 0.243029 0.374321
0.283974 0.233337 0.247831
0.507302 0.159566 0.615610
0.368220 0.313174 0.711604
0.276035 0.235924 0.330206
0.339521 0.359315 0.586188
0.064299 0.242310 0.339676
0.291956 0.198696 0.226735
0.384107 0.314569 0.347225
0.350328 0.335041 0.645724
0.357912 0.234510 0.655101
0.545054 0.322228 0.360815
0.273594 0.326702 0.488586
0.324070 0.254061 0.326817
0.270598 0.269105 0.498180
0.376648 0.240459 0.256957
0.310310 0.294104 0.441281
0.313617 0.234646 0.068450
0.387467 0.278025 0.227483
0.279658 0.381225 0.471298
0.547279 0.311731 0.359965
0.393726 0.231042 0.228948
0.264294 0.229205 0.678489
0.461512 0.306381 0.377365
0.307547 0.245930 0.374321
0.377106 0.266248 0.607031
0.358626 0.263753 0.339164
0.389291 0.152219 0.116206
0.328096 0.313052 0.604417
0.395418 0.240471 0.206005
0.369830 0.372597 0.554682
0.350701 0.297724 0.472251
0.351402 0.271529 0.739344
0.314910 0.277740 0.604705
0.282408 0.363265 0.422976
0.424809 0.265158 0.343019
0.152857 0.289684 0.227971
0.382846 0.162250 0.100591
0.313441 0.254439 0.483449
0.175923 0.225882 0.617128
0.169103 0.278233 0.608202
0.387229 0.261845 0.425714
0.276817 0.364064 0.442529
0.206434 0.547423 0.966895
0.265524 0.252408 0.129080
0.264606 0.187379 0.146140
0.297263 0.496167 0.782710
0.614169 0.146646 0.333371
0.410130 0.265208 0.325068
0.124899 0.325199 0.181559
0.493678 0.180693 0.602503
0.306167 0.266656 0.340415
0.278031 0.325652 0.674010
0.611689 0.180728 0.320106
0.309527 0.271603 0.437310
0.291105 0.314649 0.324975
0.305456 0.289341 0.389806
0.346628 0.372621 0.731764
0.260719 0.235937 0.698345
0.389597 0.271115 0.749883
0.516555 0.168053 0.597813
0.322694 0.334193 0.648277
0.303355 0.381199 0.461375
0.303190 0.254051 0.770400
0.586502 0.255943 0.322809
0.052546 0.202678 0.335973
0.255236 0.258685 0.688849
0.372370 0.249051 0.075574
0.571713 0.263897 0.336949
0.390417 0.299971 0.422204
0.271776 0.209970 0.107617
0.219862 0.281745 0.284396
0.360238 0.381174 0.472006
0.523244 0.296251 0.345926
0.383839 0.357502 0.564748
0.096481 0.231481 0.148600
0.411357 0.527529 0.868942
0.263929 0.260351 0.106156
0.160570 0.152547 0.597431
0.388294 0.296624 0.730052
0.258675 0.283128 0.518262
0.286119 0.179621 0.091211
0.344559 0.292961 0.605616
0.133717 0.296875 0.204596
0.341821 0.315477 0.596909
0.350552 0.308916 0.168352
0.386363 0.289687 0.424530
0.308061 0.438857 0.735789
0.496250 0.305144 0.255543
0.393222 0.363486 0.502610
0.316538 0.363023 0.577391
0.550554 0.233939 0.162545
0.623159 0.150623 0.330075
0.267155 0.220177 0.112746
0.347352 0.362458 0.578732
0.292200 0.229950 0.700094
0.412324 0.271164 0.421177
0.346657 0.343694 0.731828
0.105132 0.182657 0.135888
0.317002 0.300139 0.739720
0.225456 0.529653 0.908796
0.104472 0.319541 0.163482
0.279065 0.342816 0.531927
0.270086 0.285520 0.437310
0.421190 0.527851 0.909961
0.384309 0.291191 0.107561
0.319731 0.282268 0.482484
0.081022 0.235493 0.343335
0.367830 0.261845 0.394930
0.120955 0.290392 0.171214
0.265726 0.179285 0.161622
0.389750 0.254439 0.487845
0.307777 0.286314 0.741399
0.389049 0.314669 0.188082
0.316001 0.261028 0.518814
0.265985 0.261845 0.419210
0.315923 0.268445 0.267775
0.507038 0.277958 0.613485
0.374213 0.225654 0.257166
0.401530 0.267680 0.125620
0.272967 0.305701 0.157324
0.319925 0.154927 0.136374
0.305210 0.289085 0.422244
0.311902 0.279245 0.392717
0.351374 0.269710 0.759674
0.309330 0.261845 0.408855
0.302571 0.313757 0.226002
0.119828 0.294684 0.181347
0.352863 0.297623 0.610633
0.288700 0.287105 0.414736
0.348814 0.313340 0.227540
0.278529 0.348022 0.390399
0.412324 0.277608 0.391005
0.448524 0.266707 0.545213
0.186372 0.275248 0.281991
0.376253 0.229810 0.696035
0.360444 0.274321 0.605385
0.511003 0.237909 0.605865
0.228940 0.278219 0.401491
0.308296 0.268701 0.518814
0.324717 0.151572 0.118219
0.557835 0.067111 0.049817
0.113715 0.178944 0.125770
0.631521 0.053589 0.344756
0.509913 0.177726 0.618331
0.359048 0.163236 0.157130
0.278558 0.251496 0.622342
0.492891 0.207539 0.614133
0.314062 0.318358 0.209028
0.506248 0.188891 0.620884
0.542897 0.313979 0.181291
0.285167 0.499052 0.786933
0.244900 0.277385 0.382896
0.440287 0.261160 0.322523
0.393837 0.262451 0.737337
0.547322 0.248787 0.150305
0.267517 0.267484 0.722224
0.325945 0.349938 0.608431
0.552712 0.312831 0.186843
0.393080 0.278880 0.090325
0.212569 0.282778 0.276499
0.336899 0.274972 0.753882
0.139755 0.314754 0.231448
0.494181 0.312878 0.367823
0.386798 0.499705 0.825556
0.373977 0.266845 0.360633
0.248906 0.522348 0.903671
0.350111 0.351893 0.739684
0.263944 0.159435 0.149356
0.286792 0.255325 0.326817
0.235630 0.518089 0.922032
0.398003 0.227519 0.181219
0.115956 0.311356 0.186641
0.245712 0.516670 0.866206
0.345843 0.345365 0.384347
0.301094 0.306372 0.248244
0.419704 0.282145 0.545939
0.425963 0.512401 0.892918
0.441328 0.545512 0.931342
0.292043 0.318109 0.552446
0.274133 0.226612 0.233808
0.414146 0.248615 0.682271
0.513854 0.314819 0.214262
0.269731 0.248529 0.628064
0.328806 0.249949 0.265894
0.347591 0.231136 0.734494
0.376711 0.358946 0.413730
0.344782 0.270287 0.389806
0.296495 0.254439 0.512075
0.621249 0.191217 0.333961
0.267222 0.278679 0.091422
0.514463 0.298019 0.245953
0.355942 0.266497 0.518814
0.269806 0.276082 0.171042
0.346025 0.322522 0.325684
0.301199 0.182499 0.194941
0.633398 0.041052 0.332259
0.310140 0.335557 0.358955
0.298223 0.334753 0.356874
0.401341 0.206494 0.153858
0.342035 0.286423 0.254485
0.394502 0.254439 0.498215
0.283771 0.263753 0.363578
0.107864 0.090285 0.071101
0.391853 0.373458 0.465138
0.320120 0.427739 0.728517
0.317711 0.291389 0.252931
0.285509 0.267429 0.239684
0.254870 0.285228 0.534783
0.293895 0.315277 0.705268
0.264238 0.251776 0.113654
0.437092 0.536424 0.898028
0.398583 0.263896 0.519290
0.327023 0.302007 0.310139
0.336319 0.332990 0.651904
0.275192 0.195770 0.106235
0.117198 0.323545 0.173219
0.409602 0.294753 0.700058
0.568843 0.283006 0.165580
0.347544 0.331661 0.655907
0.289882 0.316255 0.216786
0.550858 0.064554 0.039644
0.560055 0.229979 0.138918
0.330260 0.270481 0.437310
0.389756 0.343015 0.402427
0.281478 0.228973 0.671758
0.276022 0.229418 0.684667
0.508919 0.294667 0.218087
0.384676 0.302227 0.358103
0.504963 0.292519 0.636590
0.301748 0.300477 0.465731
0.161783 0.296078 0.255369
0.283205 0.254330 0.240006
0.278465 0.332340 0.398629
0.386536 0.307545 0.375971
0.271843 0.246703 0.729636
0.237996 0.520248 0.882438
0.335629 0.313052 0.628396
0.267241 0.271937 0.389806
0.226110 0.281113 0.325014
0.457323 0.292354 0.593405
0.269757 0.245585 0.182677
0.344529 0.260449 0.608214
0.160893 0.203405 0.600601
0.294725 0.372533 0.442821
0.320308 0.290086 0.574111
0.091716 0.168821 0.141475
0.342639 0.261845 0.434575
0.381221 0.288783 0.389806
0.378609 0.285164 0.239764
0.305877 0.263414 0.766603
0.290668 0.486527 0.797822
0.511506 0.247433 0.614381
0.401421 0.252761 0.715951
0.410614 0.241687 0.690151
0.406449 0.520042 0.874130
0.278395 0.303935 0.412011
0.316821 0.249194 0.266130
0.320408 0.179236 0.188537
0.406327 0.257977 0.609843
0.355485 0.243556 0.637655
0.316699 0.335344 0.739587
0.567648 0.128303 0.094216
0.326573 0.279524 0.605237
0.290864 0.179248 0.188561
0.281650 0.286284 0.377374
0.227365 0.261905 0.326374
0.390363 0.335758 0.410412
0.276190 0.214295 0.097616
0.118142 0.202531 0.135618
0.279541 0.497050 0.795691
0.284696 0.282725 0.233570
0.345131 0.237848 0.745761
0.398272 0.328329 0.665944
0.388821 0.237253 0.238011
0.382205 0.295410 0.477732
0.329185 0.264497 0.291676
0.173589 0.287775 0.234286
0.505010 0.196932 0.599748
0.297738 0.281560 0.255306
0.370911 0.148328 0.100662
0.403462 0.172427 0.145337
0.255225 0.262227 0.426936
0.391206 0.378666 0.506934
0.263676 0.204046 0.125238
0.403540 0.265691 0.102269
0.354938 0.343342 0.725269
0.560343 0.299657 0.352471
0.443347 0.269293 0.575770
0.172467 0.291715 0.632073
0.328593 0.289246 0.422855
0.072475 0.194524 0.319416
0.567725 0.287040 0.176780
0.267363 0.320386 0.646351
0.409941 0.525987 0.882755
0.436301 0.267549 0.566881
0.402704 0.316355 0.662909
0.290491 0.216678 0.069433
0.261577 0.291131 0.661717
0.402037 0.200999 0.122869
0.360889 0.270555 0.259448
0.386876 0.320659 0.623006
0.389624 0.258997 0.747609
0.268470 0.289674 0.423698
0.090571 0.311761 0.341438
0.394808 0.501593 0.845132
0.388942 0.227183 0.240961
0.617755 0.168497 0.331599
0.078094 0.279737 0.337994
0.272927 0.243839 0.216087
0.296901 0.146030 0.082783
0.340449 0.265844 0.300649
0.303382 0.379734 0.492059
0.307238 0.364938 0.735427
0.354874 0.297594 0.129521
0.324630 0.282903 0.745153
0.239512 0.268564 0.339525
0.277885 0.301064 0.141420
0.315841 0.276738 0.518814
0.320110 0.240050 0.644417
0.469610 0.287254 0.389645
0.286516 0.321562 0.536060
0.265854 0.318138 0.659354
0.307002 0.306312 0.734795
0.388474 0.356294 0.546537
0.512066 0.304992 0.348615
0.421920 0.261424 0.511646
0.409004 0.289382 0.680130
0.301442 0.325394 0.594574
0.432277 0.284707 0.379083
0.201051 0.273007 0.598225
0.351563 0.254439 0.494362
0.347413 0.155361 0.138728
0.265661 0.237724 0.362579
0.246931 0.286750 0.543382
0.606413 0.191720 0.317312
0.296432 0.334947 0.586690
0.401888 0.249392 0.362998
0.119256 0.220484 0.138475
0.401556 0.194129 0.156814
0.098038 0.242046 0.144781
0.294077 0.369761 0.561408
0.296949 0.351125 0.605615
0.401632 0.316227 0.649099
0.588326 0.261498 0.345485
0.346848 0.234465 0.655187
0.263565 0.269079 0.712289
0.376465 0.288927 0.421647
0.272126 0.231006 0.211799
0.436807 0.526059 0.897710
0.471688 0.281851 0.258405
0.317358 0.306518 0.160125
0.460264 0.289966 0.560026
0.317587 0.293094 0.483218
0.309656 0.172684 0.048888
0.382092 0.484471 0.786579
0.394455 0.308726 0.167701
0.273898 0.243026 0.226407
0.107646 0.050285 0.033109
0.136943 0.319398 0.204849
0.303955 0.201223 0.231695
0.292041 0.327534 0.338182
0.386167 0.286619 0.094152
0.218909 0.283620 0.317219
0.496716 0.169204 0.615476
0.554372 0.141437 0.107259
0.335237 0.297995 0.299700
0.403638 0.220554 0.122829
0.290146 0.289975 0.609173
0.214343 0.291649 0.566466
0.487185 0.279139 0.262962
0.267018 0.246227 0.326817
0.370973 0.262914 0.767154
0.298750 0.296553 0.475025
0.099661 0.294268 0.351628
0.411401 0.279000 0.686401
0.340166 0.292069 0.735065
0.352460 0.354218 0.403607
0.339945 0.250922 0.326817
0.619557 0.126165 0.325019
0.353314 0.214302 0.058389
0.384195 0.300685 0.615247
0.388817 0.262678 0.374321
0.249207 0.270875 0.316175
0.382663 0.256827 0.241983
0.464593 0.284284 0.368591
0.302423 0.177445 0.185020
0.401146 0.231196 0.145417
0.209375 0.305252 0.386382
0.429695 0.266654 0.558546
0.275056 0.350093 0.525197
0.234626 0.277830 0.380691
0.345602 0.411101 0.729429
0.357825 0.331572 0.624928
0.255225 0.264619 0.415019
0.286729 0.483911 0.780959
0.283592 0.229673 0.692053
0.278513 0.314587 0.403857
0.323955 0.333344 0.353225
0.302300 0.231127 0.734260
0.266008 0.215284 0.151116
0.287462 0.296059 0.476195
0.384975 0.246636 0.241380
0.503646 0.287853 0.226531
0.241621 0.276355 0.553792
0.304516 0.282268 0.505363
0.362612 0.323330 0.681005
0.400500 0.241673 0.105221
0.303699 0.256758 0.374321
0.613621 0.202174 0.336135
0.350918 0.310715 0.739557
0.393920 0.217911 0.230763
0.155763 0.253864 0.620249
0.404386 0.228964 0.671504
0.353799 0.263753 0.367153
0.264649 0.206785 0.138228
0.489582 0.260436 0.625289
0.320058 0.266642 0.305961
0.267016 0.259888 0.521750
0.394782 0.286501 0.199131
0.353294 0.291366 0.725980
0.294512 0.291593 0.246880
0.207148 0.282558 0.597289
0.127675 0.304230 0.218440
0.300562 0.270700 0.370608
0.099545 0.274852 0.339545
0.158463 0.292069 0.374560
0.383150 0.300410 0.465891
0.279958 0.239910 0.239194
0.346294 0.308053 0.604399
0.345911 0.422529 0.729174
0.287713 0.279541 0.606463
0.399755 0.241686 0.374321
0.327234 0.263753 0.362056
0.305328 0.238589 0.647233
0.301451 0.333468 0.603363
0.306991 0.337261 0.611301
0.348064 0.261845 0.425241
0.220292 0.519229 0.921609
0.331777 0.224764 0.256418
0.282284 0.293784 0.226161
0.527929 0.293675 0.218176
0.398574 0.215300 0.180225
0.591927 0.203543 0.320644
0.282216 0.306429 0.503989
0.357046 0.273407 0.300702
0.120036 0.088169 0.632143
0.392453 0.359644 0.471332
0.365227 0.143332 0.073406
0.155459 0.289867 0.248522
0.265661 0.263219 0.339510
0.490785 0.239349 0.620092
0.094840 0.272446 0.348867
0.271056 0.336700 0.632617
0.240050 0.288223 0.552227
0.381749 0.185926 0.201669
0.402433 0.288380 0.617702
0.524853 0.137696 0.615438
0.378643 0.313689 0.710052
0.328825 0.378618 0.507602
0.393563 0.363788 0.514933
0.261258 0.313165 0.711631
0.434162 0.284318 0.315355
0.265661 0.263526 0.362589
0.480412 0.274791 0.605193
0.388313 0.318901 0.390626
0.372245 0.243460 0.637840
0.398979 0.261845 0.406323
0.372343 0.299031 0.469157
0.366638 0.350664 0.606709
0.382874 0.229437 0.685217
0.317767 0.352596 0.602125
0.381304 0.311100 0.617785
0.142944 0.292392 0.222429
0.324947 0.231173 0.735575
0.105126 0.158946 0.113685
0.217105 0.303443 0.393338
0.287368 0.282268 0.506570
0.203501 0.306812 0.377879
0.206727 0.288881 0.270172
0.202270 0.296066 0.276964
0.274388 0.326985 0.463621
0.373237 0.308125 0.165638
0.596686 0.257789 0.330717
0.499188 0.205939 0.602287
0.577567 0.250057 0.344905
0.398455 0.244171 0.169170
0.400494 0.302578 0.723498
0.373061 0.289674 0.398764
0.112975 0.135719 0.101513
0.352476 0.318940 0.202728
0.544736 0.297790 0.163409
0.376503 0.274150 0.437310
0.289211 0.295449 0.446383
0.300776 0.480524 0.776106
0.333721 0.231449 0.661003
0.333538 0.321460 0.600862
0.034311 0.037901 0.345614
0.373301 0.235924 0.340414
0.364358 0.257495 0.773117
0.461320 0.547520 0.969068
0.459440 0.268002 0.301417
0.346288 0.433502 0.730989
0.436796 0.265350 0.548691
0.255225 0.272785 0.421835
0.364624 0.275720 0.332225
0.310399 0.395231 0.727124
0.321336 0.295496 0.293196
0.378462 0.481816 0.776668
0.366309 0.170440 0.171270
0.350105 0.362832 0.739670
0.290197 0.299851 0.463080
0.405666 0.305284 0.674722
0.147935 0.136594 0.604835
0.375847 0.234185 0.740190
0.274530 0.245890 0.089341
0.567848 0.192470 0.150238
0.503500 0.151166 0.601132
0.318134 0.310520 0.738101
0.289717 0.230321 0.710854
0.092794 0.192302 0.148814
0.579658 0.241528 0.335235
0.424000 0.282039 0.310047
0.413007 0.239867 0.644770
0.194035 0.277590 0.290287
0.051262 0.171728 0.332402
0.320634 0.272136 0.258953
0.455381 0.292375 0.276064
0.310806 0.322833 0.682504
0.301784 0.271901 0.757262
0.516032 0.131690 0.614413
0.289351 0.205335 0.075719
0.265884 0.195890 0.158044
0.313586 0.299903 0.463276
0.293186 0.257042 0.773616
0.448316 0.290849 0.562412
0.246233 0.278194 0.339426
0.285828 0.501261 0.813185
0.117723 0.219820 0.149061
0.516605 0.137609 0.605962
0.431412 0.285666 0.303382
0.256416 0.233698 0.687122
0.557861 0.325168 0.355671
0.135626 0.320983 0.341033
0.093862 0.182052 0.135383
0.295706 0.306063 0.552721
0.318291 0.304321 0.316160
0.134018 0.295170 0.215242
0.530569 0.307397 0.194642
0.318050 0.230852 0.726282
0.395630 0.287864 0.188691
0.186640 0.276730 0.622323
0.298824 0.324822 0.584419
0.321834 0.345078 0.729687
0.380196 0.254439 0.513394
0.534741 0.320274 0.204149
0.296453 0.231359 0.066825
0.254885 0.503667 0.856370
0.337393 0.376576 0.536037
0.110546 0.313275 0.176365
0.461351 0.281873 0.598488
0.342767 0.254439 0.476245
0.557155 0.092277 0.626378
0.174513 0.208768 0.615752
0.274065 0.331887 0.477620
0.370880 0.292933 0.541970
0.322070 0.187910 0.045338
0.226239 0.517132 0.912536
0.339590 0.140329 0.057363
0.338894 0.199987 0.229270
0.243435 0.294211 0.387511
0.107965 0.075320 0.057424
0.283965 0.353680 0.402455
0.557281 0.056432 0.040354
0.191491 0.280901 0.579954
0.341857 0.266695 0.762992
0.374189 0.292179 0.110950
0.338600 0.268079 0.518814
0.298391 0.306019 0.613136
0.390176 0.193572 0.103112
0.489286 0.252424 0.618367
0.086426 0.236124 0.330502
0.329185 0.313052 0.618808
0.400671 0.263753 0.364775
0.110354 0.062695 0.028061
0.186757 0.287617 0.361842
0.393768 0.161706 0.121459
0.390525 0.358180 0.427571
0.376866 0.194232 0.217973
0.367260 0.261845 0.410365
0.408905 0.250699 0.696212
0.331472 0.154152 0.132182
0.308286 0.282030 0.731896
0.597712 0.228297 0.340974
0.380146 0.347474 0.567337
0.312124 0.331487 0.348416
0.316193 0.399893 0.739365
0.314606 0.373674 0.738667
0.280825 0.316489 0.509827
0.393626 0.342005 0.493573
0.313462 0.253109 0.619231
0.330989 0.289346 0.569047
0.111892 0.293078 0.157458
0.359453 0.337330 0.638826
0.272073 0.170533 0.121337
0.567434 0.279554 0.154188
0.363333 0.282848 0.402040
0.278429 0.245784 0.326817
0.335032 0.379216 0.499271
0.616572 0.117492 0.330445
0.258350 0.289674 0.420106
0.390239 0.334414 0.647614
0.447468 0.531147 0.920186
0.491623 0.245482 0.629399
0.331872 0.311448 0.234517
0.527596 0.317615 0.212723
0.355670 0.292011 0.737468
0.267453 0.178041 0.179917
0.319116 0.254439 0.497493
0.290701 0.346831 0.387791
0.359608 0.143117 0.062831
0.103491 0.284761 0.176834
0.361781 0.297284 0.473294
0.396951 0.267585 0.509312
0.391669 0.314843 0.431251
0.402821 0.514406 0.865097
0.276672 0.240028 0.737430
0.098517 0.169727 0.132385
0.308423 0.154666 0.134964
0.393960 0.263617 0.607568
0.278848 0.298033 0.131027
0.285750 0.295670 0.122922
0.161991 0.210321 0.624719
0.359223 0.272636 0.389806
0.283814 0.254439 0.471621
0.401027 0.249079 0.139049
0.177718 0.246716 0.618316
0.359051 0.368058 0.565447
0.404491 0.306029 0.661626
0.374451 0.493342 0.771435
0.365501 0.231135 0.734470
0.371478 0.264486 0.471311
0.375757 0.265879 0.250469
0.349866 0.254439 0.518736
0.351820 0.238942 0.646552
0.544499 0.323145 0.348625
0.276566 0.514952 0.836245
0.264719 0.219710 0.133470
0.287622 0.189689 0.209055
0.341371 0.252356 0.374321
0.272757 0.242981 0.638764
0.322373 0.279429 0.251392
0.356097 0.324090 0.737280
0.324151 0.194680 0.218852
0.284037 0.314302 0.708204
0.297911 0.235924 0.336881
0.419491 0.510433 0.884791
0.321705 0.269942 0.729980
0.115359 0.192431 0.147751
0.309866 0.349053 0.610530
0.267762 0.277637 0.145421
0.416848 0.243267 0.672666
0.356737 0.168243 0.049003
0.409501 0.511688 0.881252
0.385131 0.294695 0.365895
0.364858 0.269323 0.367046
0.296757 0.343326 0.596952
0.494078 0.211404 0.624359
0.114138 0.301800 0.344759
0.489032 0.299523 0.382223
0.557606 0.064635 0.030119
0.172080 0.244572 0.609628
0.371482 0.187914 0.205571
0.049564 0.104473 0.332114
0.280079 0.218224 0.088762
0.273364 0.261845 0.407063
0.562152 0.143008 0.117531
0.219493 0.540558 0.961410
0.437280 0.515505 0.898968
0.101588 0.309674 0.342143
0.088399 0.243652 0.337782
0.273969 0.339075 0.488767
0.233481 0.300718 0.388920
0.308827 0.152038 0.057822
0.273110 0.279953 0.738965
0.275323 0.376686 0.481780
0.274543 0.339823 0.469355
0.395494 0.187770 0.205288
0.559114 0.161052 0.118563
0.360717 0.474348 0.737210
0.341197 0.380094 0.487049
0.049744 0.143180 0.322758
0.407694 0.274317 0.638917
0.263431 0.523465 0.858623
0.400385 0.521040 0.852202
0.380938 0.311556 0.227694
0.338578 0.324847 0.676434
0.319338 0.356993 0.591695
0.297883 0.295348 0.549030
0.349846 0.338122 0.365595
0.447770 0.291611 0.284664
0.285425 0.215034 0.079706
0.380318 0.319355 0.205350
0.050584 0.152219 0.336104
0.430546 0.519548 0.930785
0.367732 0.289141 0.100528
0.565878 0.093385 0.064704
0.361076 0.292475 0.319299
0.283548 0.376404 0.538433
0.226972 0.533148 0.950917
0.377731 0.292134 0.334555
0.248043 0.532843 0.906060
0.270562 0.256011 0.187770
0.313854 0.143540 0.074745
0.479674 0.297467 0.601862
0.174640 0.304462 0.255968
0.224295 0.280453 0.374891
0.329073 0.146602 0.033718
0.260000 0.288296 0.672202
0.482326 0.293520 0.246885
0.339355 0.347017 0.615360
0.181280 0.302449 0.242614
0.376021 0.192628 0.076664
0.399873 0.205080 0.170453
0.296025 0.368155 0.433446
0.229679 0.541426 0.915605
0.584071 0.291486 0.327334
0.391759 0.350774 0.448344
0.495030 0.169852 0.604675
0.603215 0.239774 0.330456
0.286389 0.236473 0.743669
0.325628 0.177805 0.040341
0.380707 0.373922 0.551538
0.305365 0.229422 0.684782
0.329107 0.298130 0.456552
0.326997 0.376534 0.536634
0.214631 0.267734 0.559628
0.262685 0.290945 0.649098
0.311254 0.297312 0.297922
0.360418 0.394199 0.734504
0.316735 0.321245 0.739603
0.386493 0.216862 0.087701
0.473805 0.288893 0.614201
0.268313 0.210826 0.178581
0.315288 0.282249 0.508902
0.229011 0.516629 0.901603
0.277501 0.293784 0.116454
0.320818 0.209642 0.243713
0.292219 0.282268 0.480985
0.358810 0.158131 0.056590
0.578275 0.284697 0.349166
0.390411 0.350408 0.420436
0.476727 0.272893 0.590521
0.307487 0.263753 0.367116
0.340744 0.328126 0.666556
0.267010 0.223306 0.159859
0.566698 0.275681 0.329890
0.457632 0.282466 0.378152
0.271247 0.288507 0.183222
0.376732 0.248311 0.628484
0.353986 0.326055 0.672795
0.372082 0.217073 0.249956
0.346864 0.286202 0.499540
0.513621 0.246629 0.627783
0.272443 0.264884 0.471311
0.272368 0.291552 0.195379
0.452864 0.265324 0.310782
0.306469 0.249759 0.265953
0.402774 0.165751 0.137037
0.551225 0.211961 0.153387
0.299013 0.375857 0.546062
0.362772 0.249808 0.763947
0.361608 0.182845 0.195621
0.095363 0.049807 0.642679
0.349677 0.166325 0.163194
0.086560 0.044077 0.638985
0.519085 0.317719 0.362479
0.399412 0.289674 0.428104
0.368996 0.281966 0.389806
0.311177 0.269364 0.727240
0.114265 0.111544 0.080539
0.054850 0.184049 0.333310
0.404274 0.501362 0.850068
0.266121 0.170877 0.168352
0.340064 0.249190 0.763008
0.498606 0.259489 0.611690
0.460567 0.280556 0.304305
0.255382 0.261845 0.402862
0.302341 0.317016 0.213978
0.267899 0.230276 0.167675
0.495981 0.201017 0.624706
0.569336 0.160414 0.123046
0.394301 0.261845 0.417609
0.278342 0.315500 0.499708
0.393245 0.248740 0.088926
0.307528 0.151604 0.118393
0.549689 0.315005 0.207814
0.354742 0.272599 0.437310
0.334968 0.274954 0.258072
0.407122 0.295356 0.670184
0.545386 0.322664 0.201533
0.154413 0.256941 0.631554
0.282877 0.152938 0.125611
0.234958 0.280952 0.334594
0.161991 0.178429 0.619178
0.377644 0.291322 0.609725
0.401629 0.217830 0.145872
0.501130 0.221652 0.604692
0.376380 0.324207 0.678364
0.469989 0.282925 0.572297
0.430200 0.515476 0.908209
0.312016 0.309290 0.242481
0.304722 0.184324 0.054046
0.294714 0.240065 0.749131
0.208193 0.293988 0.595969
0.559296 0.293936 0.180303
0.329027 0.305608 0.157006
0.353957 0.261845 0.410326
0.391442 0.255724 0.518814
0.315008 0.249064 0.326817
0.403994 0.302747 0.647786
0.292226 0.261845 0.426450
0.433327 0.543674 0.938525
0.361604 0.272335 0.538089
0.315802 0.301809 0.249672
0.491420 0.227252 0.607294
0.575927 0.050552 0.636779
0.387006 0.327001 0.373483
0.542935 0.299791 0.196750
0.560036 0.229067 0.161974
0.095696 0.218524 0.145794
0.097443 0.226084 0.138847
0.169006 0.186315 0.621721
0.304034 0.328509 0.340708
0.242616 0.510815 0.884519
0.394865 0.297207 0.194811
0.399189 0.282181 0.148396
0.361944 0.254439 0.501560
0.273845 0.194612 0.218719
0.275877 0.157294 0.118867
0.076958 0.210505 0.332068
0.480468 0.287317 0.622608
0.279319 0.302666 0.489357
0.284183 0.190630 0.090920
0.277055 0.297856 0.475894
0.254622 0.512294 0.889547
0.170931 0.153201 0.604761
0.346966 0.323143 0.732531
0.271209 0.518376 0.845127
0.209716 0.293291 0.578310
0.306298 0.353005 0.601155
0.394868 0.228657 0.216199
0.363988 0.273737 0.378466
0.313564 0.275127 0.280374
0.377463 0.335636 0.359159
0.392147 0.489891 0.805656
0.069180 0.248724 0.320359
0.392089 0.252021 0.739962
0.531889 0.321218 0.342272
0.405042 0.259376 0.509588
0.123593 0.099488 0.618357
0.458696 0.535025 0.962916
0.269411 0.244702 0.099551
0.384129 0.494693 0.787574
0.317596 0.174120 0.178494
0.441385 0.286803 0.307992
0.379885 0.294757 0.119792
0.314377 0.299158 0.576069
0.313929 0.220884 0.061645
0.319636 0.263911 0.287771
0.360593 0.298128 0.250823
0.267149 0.282235 0.135941
0.252405 0.253160 0.675774
0.174783 0.232621 0.628897
0.224164 0.281457 0.538729
0.282559 0.339688 0.541270
0.455518 0.281363 0.390618
0.272849 0.279245 0.204205
0.330033 0.275318 0.382556
0.307420 0.464782 0.733848
0.341469 0.150475 0.112280
0.297155 0.378949 0.502998
0.541534 0.297097 0.216643
0.322083 0.289778 0.278319
0.343543 0.380881 0.476084
0.547834 0.291533 0.180135
0.336777 0.310049 0.715276
0.530551 0.119588 0.610893
0.401888 0.246672 0.349922
0.373442 0.229243 0.679598
0.273957 0.275264 0.216942
0.423806 0.519144 0.916036
0.272233 0.282268 0.505117
0.326850 0.148524 0.101720
0.268974 0.285416 0.156829
0.327948 0.377772 0.519383
0.083854 0.295341 0.337222
0.561013 0.162512 0.132362
0.303889 0.316863 0.616369
0.295015 0.293895 0.537008
0.271819 0.256569 0.200621
0.343615 0.377932 0.517165
0.222481 0.289973 0.292000
0.553823 0.098745 0.067544
0.275840 0.329854 0.450000
0.393429 0.200971 0.231201
0.496568 0.289476 0.265327
0.403166 0.277502 0.103590
0.235177 0.261163 0.313016
0.496070 0.157759 0.603994
0.094612 0.192570 0.136916
0.193020 0.308798 0.376520
0.135795 0.298176 0.193709
0.287569 0.167383 0.165270
0.272813 0.211194 0.225113
0.274010 0.266830 0.738906
0.353198 0.282268 0.472023
0.535682 0.299680 0.189105
0.415250 0.258511 0.332672
0.170960 0.168964 0.614437
0.288614 0.319138 0.206150
0.257693 0.282081 0.389806
0.547771 0.256831 0.158217
0.365479 0.152504 0.123263
0.202715 0.271262 0.583605
0.278037 0.508333 0.814692
0.361051 0.297311 0.453446
0.600258 0.249560 0.336280
0.092232 0.253903 0.336736
0.100289 0.316870 0.176037
0.353275 0.276727 0.751951
0.327249 0.323774 0.679667
0.399844 0.195151 0.175021
0.403007 0.319359 0.673664
0.375344 0.174834 0.179895
0.255225 0.280404 0.408208
0.390941 0.338438 0.423945
0.233721 0.517186 0.891586
0.332806 0.267272 0.339150
0.413457 0.268089 0.687597
0.503282 0.236497 0.629653
0.275594 0.505004 0.803735
0.363252 0.263753 0.355135
0.396951 0.276120 0.493368
0.330531 0.327212 0.669311
0.532778 0.296122 0.208212
0.367796 0.338022 0.602111
0.274279 0.503380 0.841413
0.352975 0.262569 0.278714
0.361415 0.145866 0.087336
0.398568 0.169845 0.127594
0.374964 0.150263 0.111134
0.176783 0.218370 0.606802
0.316325 0.384388 0.739423
0.401491 0.184708 0.161554
0.396523 0.206594 0.206292
0.310733 0.312556 0.180836
0.377977 0.344895 0.383131
0.317729 0.235268 0.653639
0.377848 0.289674 0.408563
0.381133 0.172327 0.093696
0.503707 0.302070 0.223731
0.268062 0.288090 0.144539
0.215886 0.268039 0.549173
0.328952 0.293451 0.482372
0.340282 0.264051 0.288705
0.298930 0.261845 0.389832
0.200304 0.283117 0.297075
0.452573 0.278492 0.312960
0.282943 0.353157 0.557256
0.575709 0.252306 0.334899
0.454016 0.288789 0.310339
0.401166 0.256099 0.374321
0.522704 0.122950 0.618195
0.553109 0.280092 0.177588
0.353435 0.282268 0.489165
0.383109 0.287486 0.347025
0.103656 0.184337 0.148706
0.338191 0.165161 0.160908
0.364288 0.310222 0.172831
0.573342 0.197898 0.142868
0.552556 0.328721 0.171036
0.462722 0.305921 0.389131
0.370285 0.294125 0.480774
0.208744 0.543185 0.956560
0.198620 0.288013 0.261392
0.344937 0.154454 0.031512
0.555518 0.256107 0.147107
0.329785 0.228963 0.671457
0.260652 0.278012 0.648949
0.321289 0.281026 0.471311
0.346205 0.383336 0.730801
0.489037 0.288231 0.273481
0.413974 0.507126 0.870790
0.271414 0.304993 0.178092
0.378207 0.261845 0.415953
0.360016 0.293124 0.483145
0.476019 0.298966 0.271097
0.347678 0.360729 0.417547
0.370948 0.261845 0.427266
0.321462 0.309317 0.716082
0.266308 0.284829 0.124547
0.269132 0.191916 0.192981
0.456796 0.300542 0.369720
0.343000 0.169909 0.170229
0.080287 0.217244 0.323620
0.354340 0.181686 0.042260
0.112756 0.145640 0.110602
0.385478 0.258104 0.758173
0.547522 0.277255 0.169214
0.385738 0.300389 0.223324
0.509390 0.279887 0.636168
0.337740 0.238821 0.646785
0.325776 0.285185 0.501949
0.372479 0.330841 0.577251
0.385778 0.271791 0.605914
0.413225 0.278137 0.537765
0.341406 0.254439 0.508556
0.268912 0.514023 0.854871
0.119935 0.300996 0.210061
0.074401 0.266939 0.328703
0.433071 0.542726 0.923233
0.369514 0.167832 0.073334
0.585933 0.043826 0.652560
0.327871 0.211371 0.056940
0.211473 0.277198 0.554741
0.549480 0.226181 0.150623
0.291257 0.326446 0.558625
0.102660 0.101989 0.069296
0.171713 0.153252 0.593694
0.184481 0.298351 0.607649
0.095475 0.304111 0.351911
0.281830 0.243206 0.751180
0.294181 0.263753 0.365503
0.178136 0.291643 0.357265
0.359329 0.365558 0.735859
0.096920 0.299652 0.329258
0.344753 0.282268 0.483546
0.152706 0.199946 0.606546
0.314397 0.267409 0.606795
0.364136 0.282268 0.481869
0.353690 0.294612 0.119292
0.363839 0.229270 0.665206
0.560243 0.293639 0.330522
0.127402 0.114574 0.616736
0.396981 0.233155 0.189934
0.220306 0.290358 0.398192
0.551578 0.078000 0.051705
0.285115 0.309118 0.331397
0.320755 0.380714 0.478418
0.619947 0.177343 0.325981
0.320846 0.281057 0.731932
0.326821 0.259999 0.080988
0.512872 0.257383 0.631675
0.404238 0.289674 0.413800
0.121002 0.264646 0.154989
0.326433 0.170493 0.171376
0.123978 0.300594 0.192316
0.382898 0.274270 0.349887
0.540162 0.303896 0.337887
0.118660 0.271153 0.174539
0.268957 0.236292 0.177292
0.264663 0.176811 0.151374
0.290610 0.289674 0.402849
0.171670 0.298491 0.266073
0.304225 0.254325 0.078182
0.345810 0.354659 0.729218
0.382823 0.322929 0.330234
0.397043 0.178931 0.187937
0.341184 0.290086 0.594330
0.323448 0.356745 0.409017
0.420083 0.274597 0.509328
0.293191 0.262967 0.607700
0.321287 0.261845 0.415870
0.113814 0.281972 0.154705
0.377672 0.211797 0.072842
0.333726 0.360511 0.417080
0.523458 0.319137 0.351715
0.275548 0.369798 0.466408
0.229925 0.289451 0.556734
0.332315 0.372506 0.442761
0.178104 0.300910 0.626657
0.045576 0.112478 0.325762
0.274999 0.308597 0.452403
0.412893 0.510358 0.847584
0.306026 0.329321 0.622707
0.562688 0.203631 0.154342
0.323890 0.368222 0.433590
0.150563 0.175295 0.605187
0.423540 0.277844 0.342591
0.104786 0.158805 0.131297
0.549522 0.090539 0.633543
0.369343 0.486818 0.782586
0.390895 0.327642 0.417148
0.269218 0.300714 0.620221
0.306861 0.149675 0.107950
0.340134 0.152346 0.122405
0.359544 0.235924 0.361188
0.361165 0.289674 0.394009
0.566769 0.111968 0.080985
0.239695 0.274839 0.305873
0.102693 0.082819 0.630778
0.273733 0.314505 0.202258
0.367094 0.294620 0.443238
0.397913 0.255043 0.725442
0.277881 0.282268 0.482291
0.308255 0.163229 0.054861
0.311369 0.343468 0.724933
0.555683 0.103173 0.077195
0.480645 0.310044 0.374243
0.488543 0.302220 0.265147
0.401530 0.211513 0.118100
0.270598 0.274200 0.482730
0.368988 0.489947 0.762555
0.612421 0.132615 0.331225
0.158135 0.257019 0.609451
0.616126 0.202603 0.324511
0.514199 0.192474 0.597633
0.032766 0.049807 0.342349
0.275878 0.319630 0.446758
0.283966 0.205798 0.085839
0.415821 0.272483 0.318904
0.364585 0.210155 0.056339
0.269811 0.209613 0.194488
0.159751 0.158040 0.610590
0.369464 0.360981 0.582234
0.099500 0.265992 0.149897
0.284246 0.357701 0.566928
0.279020 0.163275 0.157206
0.299349 0.197380 0.059542
0.373519 0.309057 0.240628
0.383555 0.491454 0.816244
0.300689 0.380704 0.478557
0.203536 0.298380 0.391784
0.306563 0.170790 0.171958
0.089732 0.309235 0.329303
0.178691 0.279838 0.632554
0.314524 0.229627 0.690728
0.372595 0.304369 0.548121
0.494129 0.307473 0.237973
0.316684 0.198845 0.227028
0.351821 0.457878 0.739160
0.623691 0.136235 0.327602
0.494066 0.193146 0.612906
0.360663 0.410178 0.735272
0.356861 0.288915 0.099756
0.317342 0.331819 0.607706
0.422682 0.298552 0.382747
0.108448 0.113059 0.089280
0.281332 0.337538 0.638200
0.293583 0.252159 0.621062
0.378755 0.298102 0.518893
0.549332 0.263347 0.172635
0.102623 0.169953 0.144477
0.453996 0.271031 0.588596
0.571191 0.195907 0.127350
0.326489 0.290086 0.601494
0.291333 0.158422 0.088930
0.438008 0.288659 0.549317
0.416687 0.231879 0.660175
0.399249 0.494148 0.820987
0.052758 0.131029 0.329011
0.321966 0.334622 0.729316
0.377951 0.280213 0.395221
0.393310 0.332328 0.471950
0.277700 0.377398 0.524597
0.568270 0.274657 0.341413
0.336649 0.285304 0.742510
0.284041 0.317038 0.196207
0.334707 0.297525 0.472723
0.392497 0.346817 0.461086
0.580882 0.298201 0.350028
0.280487 0.332992 0.651896
0.138386 0.313935 0.196165
0.165000 0.257658 0.633449
0.347069 0.401352 0.732765
0.310485 0.185073 0.199993
0.290932 0.290107 0.426122
0.324643 0.262187 0.767953
0.339696 0.144096 0.077754
0.328032 0.329894 0.606434
0.405720 0.285460 0.637936
0.570674 0.207387 0.131026
0.350997 0.166092 0.038918
0.156742 0.244521 0.607952
0.434654 0.259554 0.332360
0.407471 0.305077 0.696999
0.487723 0.274361 0.594672
0.113182 0.306094 0.161355
0.552108 0.312320 0.171317
0.314764 0.266144 0.389806
0.263307 0.314281 0.681184
0.393962 0.308531 0.469154
0.304107 0.372450 0.555029
0.067426 0.221318 0.317576
0.374945 0.500384 0.794688
0.559326 0.081067 0.063065
0.396387 0.292041 0.178434
0.321876 0.184267 0.198412
0.369100 0.282231 0.745893
0.544145 0.324659 0.179940
0.404471 0.498735 0.830215
0.308599 0.289836 0.306639
0.478239 0.282884 0.582706
0.239382 0.514625 0.904348
0.400432 0.249876 0.625466
0.377549 0.253309 0.618845
0.567724 0.308556 0.349047
0.349057 0.151009 0.040388
0.374076 0.325441 0.565570
0.218765 0.541649 0.922678
0.404282 0.317358 0.685126
0.317775 0.282814 0.260200
0.281458 0.368079 0.565398
0.314233 0.363186 0.422807
0.304546 0.244900 0.073521
0.214650 0.281488 0.380210
0.303379 0.273643 0.389806
0.609795 0.220832 0.327428
0.137453 0.296367 0.365464
0.356394 0.438067 0.725416
0.351500 0.287903 0.389806
0.277336 0.497112 0.833771
0.398543 0.274124 0.158558
0.564639 0.317289 0.191629
0.475034 0.276251 0.615751
0.372416 0.212887 0.062498
0.173093 0.164375 0.595858
0.281586 0.332051 0.360346
0.321022 0.274182 0.237740
0.533328 0.298181 0.344232
0.327215 0.269079 0.760368
0.375294 0.254439 0.472059
0.404348 0.265575 0.437310
0.323978 0.329988 0.660946
0.235530 0.263731 0.301363
0.397978 0.278440 0.729532
0.522816 0.308341 0.344510
0.410833 0.278277 0.326351
0.328605 0.201582 0.232400
0.288360 0.295510 0.235577
0.341030 0.285294 0.266652
0.376265 0.317233 0.323865
0.379251 0.363426 0.423322
0.208321 0.287945 0.393612
0.538914 0.112477 0.627968
0.447640 0.545869 0.960162
0.473428 0.297381 0.363369
0.360115 0.308168 0.246620
0.459069 0.293489 0.286088
0.372405 0.284257 0.437310
0.138782 0.320145 0.350993
0.405320 0.311592 0.713578
0.273795 0.316471 0.484189
0.349343 0.180979 0.191957
0.289167 0.271467 0.757739
0.258083 0.264521 0.647391
0.280156 0.304576 0.386307
0.565201 0.077918 0.051053
0.391774 0.235924 0.339626
0.371244 0.283712 0.333542
0.351081 0.261113 0.267094
0.340740 0.299568 0.462006
0.396225 0.266389 0.188368
0.402752 0.266619 0.112766
0.546080 0.103067 0.619901
0.319580 0.145226 0.083867
0.318405 0.247012 0.374321
0.294033 0.154621 0.134721
0.355297 0.235943 0.742862
0.268493 0.163971 0.158573
0.054144 0.206164 0.314167
0.319926 0.321274 0.687200
0.481056 0.295222 0.586260
0.359520 0.283355 0.554069
0.388692 0.307501 0.216259
0.342592 0.273292 0.377313
0.395661 0.258221 0.197592
0.399565 0.278243 0.389806
0.340502 0.356812 0.409161
0.387551 0.308432 0.717056
0.396951 0.258926 0.481345
0.192859 0.298577 0.272056
0.502456 0.313911 0.375993
0.621622 0.071843 0.336247
0.385333 0.312491 0.361164
0.358494 0.275542 0.524785
0.572302 0.265482 0.348132
0.391032 0.324912 0.676240
0.269627 0.228341 0.186721
0.266459 0.256275 0.138802
0.356125 0.312497 0.180633
0.329216 0.308807 0.167976
0.148894 0.294140 0.368031
0.385198 0.281485 0.471311
0.278903 0.302867 0.400383
0.117747 0.089799 0.622066
0.485330 0.277660 0.277494
0.351197 0.259874 0.471311
0.302458 0.281969 0.399764
0.408050 0.257804 0.621832
0.105929 0.084087 0.062572
0.316934 0.263753 0.335963
0.298903 0.220707 0.061557
0.399203 0.291370 0.728715
0.097146 0.195758 0.127363
0.312682 0.242512 0.752853
0.329859 0.292557 0.734527
0.437412 0.518443 0.921583
0.354991 0.264424 0.290964
0.561529 0.130846 0.106758
0.308520 0.254439 0.472107
0.368643 0.263809 0.261558
0.444626 0.266698 0.555713
0.288290 0.378087 0.515000
0.047483 0.161827 0.330675
0.346666 0.301770 0.593813
0.405278 0.240703 0.703778
0.270151 0.308978 0.716455
0.394002 0.341119 0.505855
0.295064 0.250482 0.764971
0.352142 0.151304 0.116769
0.097794 0.265784 0.161065
0.322954 0.308645 0.244859
0.290938 0.379721 0.492236
0.168833 0.300240 0.353713
0.381043 0.151832 0.100706
0.109775 0.325352 0.352219
0.358916 0.261845 0.425850
0.362658 0.483037 0.742776
0.278995 0.263051 0.607683
0.273200 0.257809 0.214551
0.425740 0.295667 0.392629
0.277611 0.175437 0.181079
0.064763 0.207330 0.315877
0.395645 0.194533 0.218563
0.419070 0.531336 0.881308
0.391986 0.289441 0.737957
0.455766 0.267652 0.557028
0.374768 0.306188 0.327159
0.515873 0.191858 0.608256
0.386201 0.296429 0.376687
0.381172 0.242259 0.072215
0.587338 0.221866 0.340431
0.562615 0.142923 0.100633
0.151622 0.313004 0.228500
0.336958 0.254749 0.518814
0.357782 0.375605 0.547546
0.443046 0.532157 0.910777
0.394890 0.336052 0.631077
0.571936 0.288017 0.327983
0.328462 0.260445 0.264685
0.398769 0.230019 0.702108
0.280918 0.310667 0.174355
0.417427 0.510463 0.857108
0.360409 0.237358 0.326817
0.082805 0.033815 0.646138
0.284434 0.313772 0.185005
0.343462 0.374627 0.549866
0.271758 0.205422 0.215976
0.580391 0.305623 0.341452
0.377229 0.268679 0.760808
0.358692 0.229143 0.676687
0.412861 0.284354 0.526755
0.353839 0.257751 0.079876
0.374834 0.261780 0.518814
0.371829 0.289246 0.492329
0.488199 0.263774 0.614182
0.088930 0.263829 0.347170
0.312459 0.325656 0.333320
0.288291 0.327164 0.548598
0.302730 0.284773 0.606802
0.106617 0.292596 0.333505
0.346321 0.270517 0.259460
0.275861 0.254394 0.741433
0.338094 0.229271 0.680391
0.306263 0.471753 0.743084
0.284752 0.254247 0.764410
0.198143 0.285348 0.608651
0.358744 0.279766 0.090763
0.068673 0.188601 0.335224
0.557993 0.086660 0.049601
0.358463 0.315920 0.192372
0.440931 0.516673 0.910142
0.381578 0.276393 0.089095
0.447639 0.533433 0.961678
0.502537 0.246916 0.631588
0.286382 0.381627 0.462291
0.265661 0.251429 0.372829
0.397128 0.260531 0.179532
0.379486 0.303712 0.722250
0.268984 0.295603 0.152522
0.431209 0.299327 0.403981
0.354276 0.220746 0.253043
0.328151 0.354863 0.596747
0.340196 0.289069 0.100284
0.344588 0.313052 0.620746
0.372880 0.341315 0.587148
0.083246 0.053583 0.642340
0.264450 0.240269 0.121241
0.381641 0.381318 0.461630
0.633803 0.041788 0.345417
0.278160 0.345110 0.404079
0.284455 0.303197 0.340767
0.258118 0.524520 0.881484
0.403398 0.209620 0.130118
0.105608 0.308213 0.354362
0.288048 0.281411 0.091577
0.343680 0.295425 0.617197
0.590784 0.242153 0.320892
0.205606 0.270251 0.289910
0.311611 0.254439 0.509615
0.563086 0.070702 0.629004
0.316070 0.479968 0.738644
0.347447 0.448527 0.733625
0.422538 0.281154 0.321828
0.363365 0.378798 0.505100
