0.283262 0.588831 0.683868
0.307464 0.682060 0.656984
0.318547 0.573119 0.194903
0.736021 0.395230 0.416832
0.400843 0.756464 0.363307
0.329244 0.756064 0.305684
0.599298 0.192336 0.560264
0.262308 0.527523 0.131807
0.702662 0.586162 0.176787
0.379556 0.534828 0.495931
0.371943 0.682251 0.285854
0.383381 0.536072 0.253591
0.423275 0.600714 0.323479
0.337696 0.443587 0.420893
0.410218 0.950461 0.413824
0.523812 0.650559 0.284067
0.367581 0.498335 0.578820
0.418402 0.529416 0.612194
0.478433 0.412386 0.401325
0.251336 0.523629 0.552690
0.513301 0.402237 0.401455
0.383214 0.651933 0.427022
0.380499 0.690049 0.520010
0.587422 0.769070 0.230710
0.305981 0.492139 0.482385
0.233014 0.823708 0.390385
0.606800 0.240793 0.553221
0.431241 0.259309 0.359676
0.329181 0.491904 0.541266
0.219480 0.673290 0.716755
0.483794 0.194168 0.404355
0.439480 0.402775 0.342995
0.084772 0.466490 0.463388
0.212203 0.656941 0.511550
0.583833 0.630172 0.449950
0.496237 0.073992 0.405306
0.501536 0.309102 0.409839
0.505292 0.407250 0.402027
0.455189 0.636817 0.330857
0.646126 0.561368 0.305998
0.498147 0.270542 0.409050
0.581980 0.355997 0.384299
0.268875 0.376518 0.417706
0.456884 0.901755 0.457394
0.452761 0.887389 0.308596
0.317106 0.834864 0.286478
0.663906 0.395640 0.423055
0.377891 0.211246 0.411859
0.170749 0.433817 0.485316
0.489788 0.440528 0.391488
0.398753 0.411400 0.384173
0.102389 0.451573 0.469232
0.500900 0.141773 0.407561
0.660567 0.328527 0.339165
0.652157 0.575001 0.218493
0.540838 0.274292 0.496036
0.664555 0.442210 0.420609
0.398327 0.110714 0.333688
0.401515 0.362157 0.395225
0.338194 0.334381 0.455235
0.619488 0.693109 0.216323
0.459645 0.437062 0.668063
0.318067 0.786247 0.637597
0.500750 0.037722 0.405788
0.494924 0.641033 0.450506
0.441332 0.961542 0.522140
0.502779 0.129745 0.408221
0.218482 0.262138 0.322264
0.185134 0.531811 0.389800
0.782061 0.553613 0.265020
0.557375 0.661424 0.230496
0.492170 0.292430 0.417383
0.301273 0.663232 0.506959
0.320387 0.315509 0.457579
0.222980 0.499553 0.222305
0.419656 0.469120 0.650946
0.706866 0.289972 0.350511
0.514517 0.700131 0.254580
0.343259 0.771691 0.557489
0.434006 0.845478 0.419922
0.708273 0.568710 0.190158
0.307395 0.613447 0.500778
0.684434 0.627923 0.267771
0.520039 0.692893 0.599539
0.409033 0.595714 0.748445
0.320153 0.347244 0.367346
0.752732 0.412961 0.461978
0.295800 0.687526 0.212223
0.714897 0.547717 0.208057
0.448633 0.267848 0.401817
0.592075 0.892839 0.282320
0.799650 0.412613 0.411376
0.336608 0.777383 0.566794
0.406183 0.613044 0.294569
0.546369 0.283951 0.571476
0.364473 0.772356 0.342830
0.712655 0.700840 0.230482
0.420839 0.611090 0.354446
0.599255 0.263161 0.661128
0.672620 0.388400 0.416618
0.518956 0.265961 0.469888
0.523220 0.404121 0.318776
0.467426 0.871278 0.345249
0.330660 0.488989 0.482124
0.192886 0.652333 0.449197
0.202605 0.501062 0.172691
0.199383 0.796822 0.375052
0.254407 0.603135 0.330233
0.273110 0.453369 0.413745
0.430609 0.818345 0.403713
0.394640 0.651408 0.296134
0.455259 0.516973 0.343513
0.417510 0.804985 0.687284
0.304275 0.379221 0.297902
0.558962 0.786871 0.523105
0.344679 0.488863 0.470773
0.366407 0.196398 0.324457
0.230717 0.510687 0.191953
0.503842 0.650371 0.252331
0.407450 0.156240 0.374575
0.313243 0.735391 0.277314
0.398488 0.424536 0.039259
0.448955 0.953715 0.521400
0.328598 0.495613 0.475843
0.260107 0.813122 0.523800
0.381114 0.518368 0.405274
0.725063 0.647508 0.268184
0.598200 0.252849 0.527991
0.050168 0.323335 0.488258
0.444569 0.260283 0.374483
0.168208 0.475293 0.363431
0.340387 0.906532 0.293568
0.414719 0.752744 0.370061
0.298235 0.698116 0.209852
0.375693 0.506561 0.413676
0.252457 0.532797 0.558536
0.761784 0.719561 0.295736
0.483873 0.402289 0.406910
0.434290 0.849043 0.321137
0.455345 0.223877 0.409398
0.549476 0.278456 0.563450
0.331398 0.823571 0.449078
0.189972 0.515169 0.166574
0.511512 0.780026 0.470842
0.448334 0.567491 0.330282
0.466039 0.906863 0.455967
0.252303 0.330339 0.422880
0.387860 0.646259 0.279299
0.138982 0.414372 0.426033
0.310190 0.721258 0.616192
0.409921 0.879408 0.517804
0.560194 0.500827 0.275575
0.243524 0.311577 0.401256
0.532107 0.507284 0.293826
0.232177 0.514292 0.540884
0.749800 0.566108 0.222281
0.696647 0.550030 0.190772
0.384345 0.438185 0.618507
0.387420 0.197442 0.344743
0.314964 0.172563 0.281873
0.290887 0.775993 0.276865
0.149118 0.575853 0.549530
0.457265 0.390691 0.390238
0.523636 0.101216 0.447437
0.691597 0.339845 0.397163
0.502184 0.709299 0.401490
0.339583 0.897155 0.308469
0.482905 0.656469 0.455953
0.378582 0.455815 0.416698
0.689340 0.411436 0.429325
0.340054 0.684898 0.250168
0.309149 0.562574 0.588100
0.600546 0.247827 0.556528
0.246279 0.669179 0.485854
0.475773 0.908298 0.459943
0.583632 0.440721 0.425564
0.499289 0.038145 0.438189
0.717634 0.631253 0.211853
0.511206 0.507407 0.323404
0.565134 0.264752 0.551924
0.405483 0.630604 0.302108
0.494644 0.653936 0.256407
0.492887 0.093188 0.441122
0.430785 0.378701 0.392051
0.483772 0.036395 0.401676
0.608947 0.235307 0.491740
0.157940 0.650928 0.394350
0.643486 0.250726 0.595022
0.323219 0.773413 0.620439
0.340174 0.451106 0.427633
0.468647 0.278684 0.408756
0.418627 0.613600 0.364465
0.493055 0.414393 0.690848
0.470638 0.268804 0.413408
0.427568 0.608050 0.327688
0.499111 0.360395 0.393544
0.484069 0.289665 0.435749
0.276870 0.516490 0.211834
0.781808 0.445213 0.489942
0.426722 0.220058 0.317361
0.601736 0.283753 0.680604
0.777089 0.413651 0.410641
0.396421 0.371144 0.395061
0.165868 0.421840 0.481069
0.674546 0.522870 0.215205
0.394224 0.341497 0.228375
0.423409 0.649475 0.445016
0.678819 0.446181 0.445798
0.281555 0.651274 0.379069
0.471546 0.447849 0.367808
0.201106 0.682239 0.525806
0.167375 0.487891 0.559210
0.674532 0.625512 0.265337
0.650544 0.618702 0.260264
0.713386 0.311454 0.400297
0.621976 0.465524 0.198859
0.502189 0.735539 0.218002
0.652671 0.516546 0.171227
0.603079 0.771676 0.145203
0.372368 0.665568 0.275255
0.491267 0.055566 0.403801
0.350048 0.861077 0.430765
0.519198 0.800548 0.522438
0.480302 0.479775 0.374645
0.814205 0.415278 0.541449
0.223132 0.553712 0.210294
0.502541 0.152685 0.408709
0.353788 0.846871 0.265406
0.548117 0.250533 0.504499
0.297511 0.552928 0.205829
0.486998 0.211714 0.395199
0.424691 0.844718 0.313410
0.586933 0.221774 0.538287
0.572147 0.612627 0.458969
0.211936 0.520421 0.556932
0.506193 0.402560 0.705438
0.528092 0.229843 0.477596
0.490429 0.447834 0.385565
0.330986 0.312798 0.482903
0.484218 0.371324 0.415235
0.393917 0.540532 0.667493
0.348318 0.603289 0.189422
0.406020 0.941322 0.412364
0.366581 0.329137 0.582263
0.264966 0.326463 0.426065
0.546770 0.337342 0.197240
0.364363 0.551115 0.249622
0.471925 0.075559 0.427401
0.254570 0.595390 0.335657
0.356512 0.548151 0.255141
0.234440 0.335332 0.447114
0.165049 0.587409 0.540802
0.503490 0.263367 0.428574
0.480468 0.358333 0.395092
0.260579 0.509264 0.205337
0.329129 0.827731 0.284708
0.549062 0.721498 0.328583
0.414553 0.214241 0.309902
0.787287 0.448602 0.523873
0.380138 0.465089 0.613144
0.325525 0.736751 0.269893
0.275177 0.492802 0.430908
0.377534 0.652874 0.419445
0.443042 0.501003 0.380684
0.501230 0.188111 0.432667
0.441987 0.135556 0.395465
0.487160 0.118616 0.439326
0.311949 0.360167 0.334454
0.638420 0.648055 0.186695
0.307719 0.587058 0.591979
0.577428 0.359812 0.300961
0.307285 0.665513 0.373291
0.376922 0.309509 0.307269
0.458295 0.823373 0.567835
0.507840 0.129944 0.427078
0.568328 0.758404 0.158183
0.416439 0.897116 0.500606
0.263235 0.256780 0.346382
0.437139 0.900091 0.299545
0.596577 0.237028 0.619840
0.666108 0.261454 0.648016
0.630797 0.620404 0.402800
0.291070 0.870852 0.282125
0.640361 0.583267 0.385468
0.380649 0.688358 0.529578
0.339624 0.424474 0.187656
0.219694 0.558230 0.200912
0.360740 0.569866 0.259393
0.192077 0.648553 0.577212
0.230199 0.426626 0.463597
0.756975 0.543826 0.545956
0.206902 0.634995 0.511866
0.696022 0.397475 0.416483
0.473327 0.319241 0.411715
0.397666 0.639975 0.189698
0.060136 0.331096 0.488390
0.029164 0.305040 0.482947
0.402377 0.644586 0.295210
0.643450 0.506188 0.130939
0.229353 0.466854 0.371778
0.719616 0.531392 0.221042
0.353720 0.913490 0.278773
0.267429 0.818038 0.510575
0.599110 0.600048 0.197341
0.575589 0.713214 0.583513
0.411878 0.761400 0.367712
0.551705 0.264915 0.558665
0.267409 0.514429 0.215027
0.303291 0.545958 0.263864
0.714036 0.649670 0.216727
0.579490 0.738716 0.205802
0.629247 0.574967 0.459085
0.326808 0.817349 0.555461
0.584652 0.588116 0.216409
0.512397 0.270286 0.461180
0.462395 0.521748 0.352064
0.290048 0.715242 0.193350
0.589211 0.383267 0.277032
0.501053 0.318621 0.406361
0.473668 0.211065 0.425741
0.350722 0.187236 0.296348
0.386304 0.520460 0.557151
0.421111 0.177383 0.373773
0.508490 0.503276 0.313966
0.265697 0.669605 0.666003
0.259942 0.683404 0.191994
0.575957 0.726304 0.374979
0.560377 0.753960 0.155898
0.347407 0.440474 0.235312
0.376112 0.565473 0.265420
0.333699 0.660715 0.236226
0.156543 0.537852 0.560526
0.219118 0.655421 0.600398
0.456217 0.629400 0.324978
0.119644 0.433605 0.469982
0.451735 0.540445 0.319489
0.329499 0.459553 0.179582
0.390678 0.349750 0.225378
0.537282 0.327128 0.195576
0.233152 0.271710 0.325592
0.702071 0.490567 0.535329
0.111983 0.457960 0.345971
0.631976 0.640107 0.211460
0.157239 0.426651 0.479205
0.270984 0.326625 0.416135
0.368335 0.712934 0.549976
0.324161 0.747828 0.281262
0.291859 0.418764 0.291764
0.309557 0.818233 0.459663
0.321442 0.500055 0.277358
0.518600 0.494580 0.428670
0.312597 0.486860 0.205037
0.670702 0.363546 0.204583
0.629546 0.390747 0.416090
0.375961 0.515367 0.482183
0.415074 0.619025 0.382245
0.448976 0.537771 0.340874
0.303037 0.517761 0.228504
0.577574 0.357471 0.368191
0.748594 0.570134 0.190953
0.388736 0.406688 0.438763
0.321445 0.764749 0.381092
0.285462 0.506324 0.516865
0.324906 0.812782 0.422203
0.347406 0.834712 0.289728
0.772428 0.421933 0.470060
0.251582 0.561978 0.359771
0.233417 0.900797 0.364738
0.538022 0.711775 0.424304
0.354252 0.336662 0.503244
0.188529 0.833701 0.406698
0.632173 0.242114 0.577976
0.273851 0.748176 0.477756
0.505874 0.035906 0.413401
0.372895 0.501275 0.586250
0.539294 0.533376 0.273508
0.629287 0.427498 0.194117
0.685294 0.547518 0.103395
0.418643 0.786446 0.384983
0.796527 0.370249 0.404484
0.233374 0.808928 0.563173
0.550523 0.703439 0.543763
0.538380 0.246084 0.485391
0.410356 0.618721 0.370909
0.333161 0.154386 0.261904
0.429399 0.224794 0.378340
0.465315 0.486181 0.364325
0.542837 0.289967 0.501994
0.382246 0.487819 0.423621
0.468944 0.474308 0.373701
0.562126 0.247766 0.513617
0.172288 0.480738 0.551053
0.476830 0.100587 0.409478
0.225174 0.657872 0.607341
0.489399 0.391758 0.383834
0.744116 0.282937 0.256815
0.200509 0.787975 0.378025
0.411859 0.791398 0.723327
0.276902 0.825814 0.492998
0.551492 0.674571 0.557630
0.373141 0.751253 0.605434
0.134855 0.478660 0.341400
0.240248 0.596574 0.555992
0.607809 0.404070 0.160483
0.379127 0.657971 0.275964
0.415997 0.500902 0.402555
0.576432 0.765614 0.374734
0.615479 0.483189 0.211393
0.179461 0.295392 0.397689
0.459453 0.504703 0.365399
0.269693 0.793823 0.297389
0.537379 0.089875 0.462506
0.515369 0.768825 0.534358
0.576114 0.397391 0.416658
0.596328 0.396507 0.256982
0.285949 0.677819 0.211031
0.196620 0.650616 0.459339
0.380200 0.505128 0.620989
0.557387 0.649444 0.657894
0.528613 0.698199 0.220380
0.524041 0.659687 0.431727
0.423895 0.364932 0.398077
0.633379 0.240731 0.589140
0.355742 0.434640 0.149418
0.505741 0.927552 0.469708
0.460561 0.718853 0.167300
0.445899 0.446040 0.660431
0.520782 0.509403 0.316798
0.480215 0.082888 0.438244
0.554367 0.402016 0.400004
0.404194 0.844853 0.605697
0.503952 0.339322 0.414842
0.383111 0.148510 0.408301
0.480041 0.797684 0.452243
0.653243 0.557848 0.318301
0.371899 0.660893 0.283477
0.249452 0.553030 0.366218
0.435814 0.841118 0.553284
0.381755 0.565581 0.273221
0.609950 0.430447 0.203240
0.451056 0.236698 0.383088
0.262869 0.688324 0.184512
0.341395 0.340476 0.323601
0.361428 0.413564 0.400499
0.404520 0.332436 0.541435
0.667141 0.246678 0.653614
0.318103 0.769833 0.666839
0.388704 0.152808 0.308184
0.241887 0.318734 0.407219
0.471554 0.715720 0.612065
0.305114 0.334713 0.416472
0.359591 0.190040 0.307269
0.706856 0.552666 0.195884
0.460114 0.521120 0.328412
0.214924 0.303820 0.336251
0.544563 0.259251 0.504196
0.140138 0.412574 0.403671
0.395243 0.351130 0.695362
0.716849 0.183160 0.439105
0.403004 0.371253 0.654254
0.554208 0.500053 0.283721
0.479554 0.045646 0.405316
0.318556 0.784691 0.295472
0.396185 0.636331 0.282270
0.447790 0.819751 0.368752
0.493151 0.445635 0.370637
0.176544 0.347910 0.480774
0.615769 0.620666 0.250273
0.429603 0.890242 0.473802
0.352487 0.556260 0.394895
0.366474 0.675352 0.271158
0.418091 0.620163 0.353983
0.385173 0.813041 0.410449
0.652765 0.554345 0.406333
0.340336 0.812564 0.428498
0.678850 0.532680 0.121248
0.710179 0.347853 0.401025
0.698513 0.534153 0.490794
0.389815 0.352192 0.672261
0.498582 0.494130 0.437964
0.402496 0.588093 0.726942
0.438683 0.294529 0.362592
0.434639 0.907254 0.440612
0.301880 0.366742 0.336095
0.369909 0.508976 0.610685
0.411925 0.186206 0.295330
0.164271 0.493927 0.565716
0.340231 0.495335 0.529708
0.405971 0.592591 0.737773
0.552316 0.665757 0.560913
0.339726 0.350997 0.373641
0.293039 0.220168 0.351154
0.298712 0.768122 0.280332
0.546696 0.719370 0.186766
0.264147 0.495399 0.252120
0.679520 0.321570 0.361316
0.481351 0.153820 0.437346
0.310219 0.336764 0.287396
0.187389 0.708717 0.535240
0.598901 0.240136 0.608020
0.475357 0.518582 0.336024
0.242782 0.323966 0.427927
0.398553 0.645357 0.281129
0.590505 0.401769 0.410138
0.501309 0.387677 0.508519
0.672376 0.324134 0.355459
0.658665 0.224013 0.602598
0.388734 0.197211 0.335490
0.180748 0.587288 0.625441
0.405048 0.637567 0.436324
0.553474 0.656079 0.565423
0.602735 0.595480 0.206185
0.328664 0.177842 0.257126
0.400905 0.169591 0.362628
0.243801 0.512346 0.202347
0.348705 0.495126 0.465080
0.319760 0.326812 0.416700
0.486902 0.486252 0.358099
0.584018 0.431815 0.389004
0.345339 0.576883 0.252521
0.501982 0.184589 0.408625
0.714130 0.293421 0.320031
0.469142 0.814085 0.580665
0.234909 0.468578 0.526488
0.411830 0.770860 0.370334
0.209101 0.494745 0.520274
0.593560 0.434741 0.406623
0.307745 0.311643 0.267352
0.268474 0.680985 0.202434
0.426790 0.940006 0.528243
0.393117 0.538944 0.073104
0.372438 0.365550 0.519166
0.544237 0.083529 0.468719
0.283895 0.764553 0.470213
0.335708 0.735825 0.277974
0.352737 0.714845 0.276193
0.457507 0.870160 0.330813
0.214493 0.623968 0.649663
0.566415 0.195776 0.628734
0.481053 0.236259 0.177812
0.526666 0.399528 0.400983
0.435600 0.877931 0.442705
0.297110 0.789833 0.549625
0.369976 0.316341 0.310960
0.194907 0.617853 0.521386
0.498798 0.755947 0.534681
0.604745 0.416529 0.409097
0.572259 0.766379 0.312355
0.588349 0.499624 0.246895
0.329287 0.520534 0.444562
0.239509 0.805937 0.359091
0.218624 0.821481 0.415034
0.619771 0.683019 0.590479
0.535363 0.236768 0.480911
0.521661 0.273514 0.475661
0.191535 0.520789 0.386020
0.383242 0.522854 0.249065
0.567470 0.663670 0.443678
0.371525 0.191199 0.331052
0.714894 0.539979 0.499478
0.496908 0.152652 0.438035
0.210646 0.681168 0.729439
0.169964 0.513196 0.568547
0.424331 0.663284 0.183458
0.358119 0.657390 0.399304
0.566333 0.882157 0.448844
0.363185 0.578350 0.266100
0.502231 0.228158 0.411889
0.284431 0.580837 0.688783
0.503432 0.137958 0.431511
0.295331 0.869040 0.558834
0.453526 0.652420 0.340646
0.170411 0.299908 0.481134
0.536138 0.488568 0.466258
0.427360 0.602382 0.292858
0.310939 0.765850 0.271749
0.478098 0.234313 0.411265
0.474106 0.723444 0.591309
0.243816 0.507348 0.537809
0.687506 0.502465 0.211545
0.328739 0.420257 0.188203
0.533519 0.726450 0.302965
0.474459 0.423437 0.380120
0.446743 0.846870 0.372661
0.393464 0.749463 0.344954
0.554798 0.720938 0.336466
0.275808 0.686516 0.625436
0.533477 0.748144 0.572508
0.626568 0.458773 0.224790
0.337309 0.770116 0.329048
0.497819 0.231762 0.487927
0.257925 0.518297 0.423084
0.468126 0.541831 0.334466
0.163516 0.499621 0.581742
0.258150 0.679748 0.201572
0.518842 0.309321 0.193457
0.530864 0.772623 0.496084
0.325403 0.689587 0.264971
0.372479 0.761658 0.625508
0.401440 0.174655 0.293986
0.328576 0.533683 0.111663
0.546687 0.756901 0.211335
0.243032 0.323251 0.415740
0.767132 0.349197 0.547753
0.568685 0.360698 0.193460
0.415373 0.282235 0.243431
0.610592 0.394565 0.428886
0.861254 0.389647 0.571630
0.660072 0.240170 0.648026
0.302230 0.295659 0.254004
0.567222 0.245148 0.522807
0.269431 0.516329 0.144190
0.682001 0.531345 0.482271
0.356939 0.608110 0.190317
0.372163 0.704438 0.549357
0.383569 0.173306 0.301389
0.248873 0.515227 0.534633
0.399446 0.200863 0.354958
0.282537 0.791056 0.269685
0.588514 0.476138 0.289793
0.768889 0.504988 0.531331
0.399992 0.757427 0.352429
0.587040 0.357660 0.483094
0.396443 0.655327 0.285358
0.377410 0.214763 0.403190
0.224163 0.668304 0.709656
0.576771 0.468957 0.305228
0.407047 0.831930 0.421202
0.463632 0.817949 0.574187
0.238392 0.589811 0.563608
0.523837 0.525945 0.297388
0.330446 0.743066 0.322613
0.493823 0.587422 0.642883
0.607444 0.400838 0.511011
0.546706 0.777751 0.481566
0.596229 0.871560 0.443564
0.609802 0.412135 0.193933
0.417094 0.539884 0.049051
0.361693 0.537572 0.382124
0.572326 0.767042 0.301767
0.506834 0.175447 0.424405
0.622607 0.240055 0.578598
0.319566 0.531354 0.115303
0.347694 0.521426 0.619442
0.234513 0.825742 0.424958
0.138119 0.463034 0.354711
0.691292 0.346732 0.208831
0.562258 0.620739 0.587988
0.190956 0.456026 0.491017
0.428283 0.343584 0.425981
0.191299 0.530001 0.185650
0.407091 0.623539 0.389196
0.772297 0.425508 0.478803
0.572235 0.500541 0.278992
0.313747 0.779573 0.644222
0.386231 0.429199 0.620962
0.619426 0.242940 0.620327
0.480929 0.717676 0.507397
0.778975 0.382902 0.404862
0.346695 0.835573 0.437105
0.518397 0.735178 0.276054
0.430330 0.670491 0.181649
0.287379 0.496642 0.513902
0.462138 0.618324 0.282072
0.439402 0.541602 0.462472
0.580072 0.244433 0.524499
0.553556 0.430247 0.318559
0.440947 0.236437 0.373703
0.155222 0.639859 0.558329
0.294629 0.789478 0.634247
0.465896 0.709345 0.577788
0.357404 0.545842 0.389009
0.293268 0.514076 0.223869
0.584799 0.662703 0.216731
0.483992 0.484927 0.367063
0.351127 0.707941 0.283011
0.642032 0.615000 0.257206
0.566909 0.055535 0.488944
0.535575 0.778848 0.587023
0.403020 0.873944 0.534700
0.443630 0.505695 0.459415
0.495941 0.104136 0.405738
0.537196 0.278953 0.587653
0.481232 0.737817 0.564989
0.294416 0.679217 0.627709
0.792926 0.551556 0.274979
0.285959 0.554419 0.704495
0.601604 0.438432 0.403127
0.328995 0.483652 0.232433
0.254226 0.587063 0.342871
0.301990 0.750440 0.659282
0.533842 0.530965 0.281116
0.263930 0.385962 0.427874
0.476833 0.089012 0.409202
0.553804 0.727647 0.169806
0.694465 0.656741 0.615960
0.532290 0.387046 0.498692
0.674529 0.681667 0.254250
0.391180 0.527605 0.552791
0.318814 0.755764 0.280479
0.515161 0.273652 0.449591
0.545246 0.249931 0.556731
0.453353 0.854797 0.351659
0.591675 0.388402 0.464215
0.402837 0.212662 0.351999
0.253471 0.803509 0.319557
0.512123 0.284417 0.445335
0.385944 0.541542 0.468690
0.651458 0.273856 0.594877
0.286094 0.568595 0.696363
0.304479 0.496071 0.506919
0.525545 0.502147 0.311168
0.490755 0.510957 0.325983
0.401946 0.595840 0.432743
0.399251 0.856486 0.591459
0.344414 0.444732 0.222022
0.532351 0.235712 0.471184
0.515964 0.916706 0.458507
0.787921 0.365048 0.402059
0.723655 0.391877 0.414609
0.641835 0.508155 0.140674
0.352375 0.336226 0.409686
0.282725 0.866023 0.404149
0.276002 0.652431 0.219944
0.639924 0.649713 0.177574
0.311959 0.753422 0.373338
0.229563 0.474089 0.378104
0.247515 0.622603 0.528119
0.719774 0.174790 0.442860
0.557872 0.284624 0.540380
0.581109 0.366809 0.294274
0.620076 0.393723 0.423824
0.586641 0.193869 0.513222
0.286432 0.784250 0.278955
0.471801 0.078565 0.414251
0.440950 0.608125 0.299348
0.499135 0.288340 0.445286
0.756287 0.570629 0.178414
0.288206 0.668369 0.217092
0.317312 0.494227 0.505126
0.272927 0.516443 0.165800
0.594399 0.235914 0.629052
0.253645 0.570278 0.354943
0.540055 0.143713 0.631995
0.527517 0.681120 0.610430
0.150312 0.468057 0.357839
0.195005 0.318455 0.416782
0.573539 0.767773 0.290889
0.322013 0.776168 0.299634
0.399082 0.118201 0.341408
0.740527 0.569920 0.210245
0.586124 0.788327 0.217723
0.532478 0.272825 0.473833
0.411500 0.619301 0.360766
0.680811 0.338502 0.417452
0.626485 0.575742 0.265213
0.370274 0.388912 0.391171
0.274055 0.182644 0.276317
0.682821 0.659970 0.610442
0.854097 0.390967 0.565638
0.305189 0.870176 0.558739
0.490416 0.240566 0.406700
0.658057 0.667573 0.599468
0.315689 0.565137 0.199132
0.363090 0.340293 0.406447
0.407745 0.138805 0.374225
0.288376 0.793404 0.640052
0.256389 0.291379 0.383956
0.389085 0.572688 0.459947
0.463992 0.397217 0.388127
0.429417 0.183272 0.375598
0.495477 0.653413 0.303802
0.224893 0.573766 0.116306
0.313918 0.558890 0.150028
0.629329 0.606449 0.252641
0.487767 0.229002 0.405874
0.201468 0.378716 0.294944
0.246289 0.613540 0.535316
0.555855 0.176123 0.628503
0.698090 0.339479 0.209774
0.765455 0.362910 0.535403
0.519165 0.672843 0.233795
0.338283 0.719403 0.282758
0.491260 0.346723 0.394801
0.578991 0.363392 0.359973
0.376696 0.901441 0.523259
0.227706 0.488320 0.520729
0.373622 0.488391 0.444963
0.503978 0.227558 0.428885
0.707667 0.331414 0.209998
0.232001 0.772133 0.351881
0.272256 0.633190 0.664367
0.333869 0.306592 0.502062
0.270041 0.510721 0.526928
0.683171 0.512444 0.480143
0.462571 0.608837 0.312995
0.435346 0.499821 0.373262
0.415247 0.373042 0.402568
0.431976 0.549891 0.455360
0.388865 0.145719 0.314277
0.623597 0.257248 0.520382
0.399613 0.638426 0.422223
0.341972 0.374080 0.351678
0.512171 0.747996 0.549014
0.514959 0.661291 0.238272
0.388628 0.581895 0.456839
0.635925 0.385135 0.194543
0.387859 0.411318 0.397529
0.328584 0.860853 0.313201
0.655202 0.554090 0.470334
0.392532 0.577528 0.278470
0.394580 0.431696 0.061963
0.492479 0.434983 0.369984
0.580660 0.377614 0.440724
0.528617 0.095812 0.453698
0.321845 0.484016 0.207576
0.671521 0.540261 0.477437
0.347409 0.181156 0.262560
0.291486 0.334573 0.419447
0.421238 0.855034 0.545509
0.229425 0.456569 0.364397
0.469803 0.042506 0.422061
0.209159 0.618200 0.643861
0.485565 0.121079 0.418169
0.778587 0.434737 0.494479
0.874721 0.386410 0.579914
0.366725 0.567025 0.463468
0.170348 0.399483 0.480408
0.310555 0.794736 0.545506
0.502897 0.060945 0.433863
0.364874 0.491808 0.517957
0.282555 0.500743 0.459121
0.556078 0.677539 0.212474
0.139828 0.398100 0.350203
0.179400 0.535181 0.589657
0.260144 0.790927 0.314779
0.218369 0.317192 0.267559
0.470057 0.443360 0.376534
0.708923 0.542510 0.117137
0.330803 0.557728 0.211503
0.706020 0.312066 0.393079
0.327725 0.802035 0.514741
0.274813 0.789433 0.290786
0.421050 0.745125 0.368118
0.156387 0.565684 0.615686
0.354558 0.481829 0.460166
0.441013 0.642958 0.427008
0.308388 0.833850 0.448471
0.188253 0.652041 0.438976
0.162348 0.438112 0.466849
0.299752 0.739397 0.362539
0.555555 0.643278 0.572730
0.553224 0.715130 0.140267
0.549978 0.686331 0.552257
0.234321 0.303195 0.377383
0.318734 0.290964 0.482903
0.420271 0.711951 0.556195
0.415106 0.816128 0.654378
0.822274 0.440155 0.398266
0.307397 0.769686 0.665306
0.370315 0.332979 0.594310
0.383274 0.673985 0.282368
0.224276 0.285078 0.300904
0.333875 0.780614 0.555906
0.609790 0.388077 0.457678
0.236728 0.690265 0.187162
0.223213 0.418642 0.333376
0.429471 0.242058 0.245217
0.202093 0.324294 0.413592
0.549694 0.076875 0.473852
0.276573 0.547254 0.567719
0.236573 0.490188 0.486701
0.406753 0.488974 0.408096
0.351066 0.682758 0.260006
0.503604 0.157161 0.430890
0.488956 0.358654 0.419803
0.404552 0.746150 0.600451
0.138923 0.413504 0.415220
0.496988 0.121316 0.438679
0.446492 0.377564 0.537121
0.669563 0.443545 0.429516
0.495400 0.217898 0.438106
0.307354 0.547954 0.585234
0.765236 0.407190 0.426254
0.192368 0.368944 0.277960
0.306605 0.192132 0.348657
0.248690 0.508340 0.211638
0.600004 0.636365 0.218457
0.496415 0.432472 0.378519
0.395254 0.402739 0.632166
0.751386 0.428379 0.384926
0.378100 0.511410 0.564328
0.219758 0.831970 0.397011
0.654844 0.565698 0.219396
0.375643 0.504452 0.599935
0.483139 0.423218 0.372005
0.132385 0.416286 0.471085
0.257845 0.813627 0.351411
0.306357 0.651988 0.239745
0.308260 0.513902 0.269726
0.397786 0.560053 0.686756
0.542592 0.635557 0.445987
0.360845 0.686414 0.268508
0.213671 0.729456 0.419286
0.332025 0.456266 0.188366
0.308349 0.730573 0.270196
0.538714 0.691139 0.211682
0.404807 0.314077 0.238317
0.344516 0.823459 0.438900
0.670610 0.533254 0.200617
0.288044 0.427682 0.289001
0.436329 0.677722 0.179031
0.477698 0.055410 0.407499
0.706861 0.278243 0.374096
0.331867 0.428178 0.411477
0.714857 0.193213 0.435673
0.492924 0.117624 0.423119
0.399198 0.571042 0.697929
0.761301 0.429526 0.386247
0.341849 0.928713 0.298354
0.228973 0.448646 0.357709
0.404600 0.772586 0.647422
0.330188 0.767564 0.623755
0.157502 0.304900 0.401077
0.138157 0.394720 0.339774
0.436814 0.736512 0.377662
0.338996 0.756957 0.601441
0.226229 0.294291 0.340195
0.524870 0.743256 0.567893
0.296423 0.495942 0.468215
0.327434 0.770250 0.667605
0.392287 0.167242 0.292623
0.340916 0.217751 0.343432
0.727722 0.596482 0.208372
0.235734 0.767770 0.344317
0.530657 0.259306 0.485676
0.244597 0.603860 0.545366
0.433106 0.948661 0.484733
0.604954 0.775611 0.504178
0.295711 0.651868 0.232443
0.328662 0.350706 0.369774
0.588169 0.644209 0.409018
0.462972 0.505018 0.455456
0.512099 0.726092 0.565684
0.473150 0.084820 0.431030
0.374260 0.499771 0.420686
0.392466 0.591956 0.453447
0.799988 0.549203 0.280818
0.434631 0.321092 0.542430
0.561849 0.726664 0.581050
0.069294 0.338283 0.488935
0.381896 0.502761 0.631571
0.321763 0.896687 0.273300
0.308155 0.490265 0.498573
0.387605 0.219137 0.364786
0.198191 0.805983 0.372567
0.274332 0.364050 0.402025
0.314958 0.698392 0.239174
0.234752 0.704813 0.502803
0.301418 0.524206 0.256355
0.615795 0.259100 0.514686
0.470259 0.666541 0.393758
0.282542 0.132532 0.247716
0.575561 0.682342 0.204122
0.329667 0.481846 0.220868
0.470241 0.711554 0.566261
0.508509 0.080900 0.424820
0.547048 0.884545 0.302513
0.746989 0.397101 0.411769
0.325522 0.695827 0.244728
0.506168 0.093119 0.417574
0.616289 0.394112 0.188315
0.472247 0.826783 0.456194
0.135600 0.419096 0.462433
0.205585 0.384321 0.301871
0.730716 0.587595 0.208135
0.704373 0.480527 0.209176
0.652982 0.216329 0.554167
0.511037 0.622863 0.283208
0.325421 0.709202 0.605779
0.329012 0.718056 0.604729
0.563643 0.617462 0.455501
0.359995 0.343818 0.506401
0.129232 0.813069 0.381318
0.347692 0.767070 0.550143
0.328856 0.726172 0.281165
0.505624 0.254794 0.424720
0.417896 0.607015 0.290595
0.440371 0.542843 0.615873
0.348854 0.478539 0.580695
0.191418 0.826421 0.401461
0.458632 0.559495 0.622209
0.376601 0.500830 0.642273
0.268181 0.491077 0.424786
0.551801 0.711871 0.539543
0.619394 0.241838 0.595558
0.448385 0.576967 0.319441
0.710874 0.236465 0.413602
0.500731 0.511683 0.329559
0.396346 0.741081 0.339266
0.546954 0.253999 0.491948
0.358205 0.492169 0.653195
0.456555 0.710394 0.169189
0.334620 0.178657 0.267664
0.544238 0.339648 0.380555
0.329653 0.827388 0.562348
0.513106 0.690170 0.259960
0.481549 0.252466 0.435763
0.614429 0.590273 0.455699
0.594749 0.774958 0.505460
0.503612 0.201701 0.429861
0.571517 0.486704 0.286195
0.695153 0.405411 0.423719
0.333923 0.677114 0.512462
0.324953 0.684820 0.599485
0.485443 0.732343 0.354645
0.354851 0.772252 0.342994
0.662280 0.621043 0.263233
0.217857 0.324455 0.415054
0.607660 0.868433 0.442987
0.293398 0.790247 0.273222
0.423721 0.374261 0.558817
0.169948 0.532772 0.558411
0.491479 0.913893 0.460695
0.832107 0.435077 0.404415
0.582236 0.374056 0.190271
0.306970 0.746494 0.368655
0.380846 0.580818 0.250219
0.393310 0.873916 0.569037
0.534741 0.195972 0.544848
0.101660 0.369029 0.482532
0.233167 0.510030 0.234458
0.247118 0.542170 0.372587
0.209916 0.490914 0.159195
0.497831 0.068362 0.439022
0.397025 0.394389 0.636596
0.322736 0.749611 0.270952
0.332232 0.591558 0.188477
0.573227 0.765055 0.328313
0.627506 0.399609 0.421637
0.472811 0.433230 0.384690
0.503469 0.174833 0.413041
0.510696 0.668783 0.233856
0.270890 0.875204 0.389835
0.258056 0.539326 0.562474
0.452086 0.700965 0.171548
0.387819 0.509701 0.609689
0.340843 0.478989 0.664674
0.477656 0.259995 0.412313
0.305830 0.595953 0.595428
0.336220 0.159197 0.269502
0.591322 0.505076 0.239665
0.516886 0.710318 0.251196
0.359877 0.515289 0.413663
0.175844 0.480321 0.366326
0.664601 0.532619 0.428604
0.201778 0.348916 0.201279
0.363154 0.579179 0.278180
0.546129 0.154728 0.628420
0.470790 0.167929 0.418407
0.346456 0.700295 0.280187
0.594460 0.254149 0.653276
0.287830 0.772853 0.631081
0.504250 0.930274 0.478857
0.483522 0.162984 0.437718
0.714178 0.389985 0.415594
0.791647 0.411983 0.416578
0.418887 0.603618 0.331615
0.759440 0.532255 0.539675
0.579098 0.473226 0.459198
0.332983 0.273288 0.524409
0.467395 0.566098 0.626200
0.527744 0.776509 0.480862
0.233415 0.704711 0.451139
0.372254 0.826907 0.427487
0.514816 0.675585 0.187905
0.498010 0.358253 0.416059
0.471025 0.510128 0.335109
0.528119 0.690627 0.227132
0.194064 0.250892 0.329181
0.391278 0.663476 0.285551
0.537589 0.260872 0.607782
0.388774 0.888238 0.529407
0.739814 0.409392 0.461281
0.322727 0.348387 0.357603
0.503122 0.599063 0.269609
0.504977 0.283405 0.453235
0.672988 0.251839 0.633399
0.485477 0.471964 0.374436
0.429296 0.234300 0.376759
0.471260 0.206166 0.417865
0.430718 0.580157 0.320811
0.473078 0.504224 0.348900
0.491368 0.721558 0.549710
0.500443 0.502608 0.324298
0.474637 0.714155 0.556545
0.764120 0.417638 0.401727
0.438916 0.906524 0.456732
0.472596 0.533046 0.338902
0.235326 0.682515 0.167918
0.527108 0.689451 0.417869
0.473326 0.442472 0.387009
0.588345 0.403177 0.458512
0.320957 0.343829 0.387739
0.490939 0.261297 0.182609
0.316676 0.685748 0.200045
0.475188 0.143020 0.434679
0.475188 0.251337 0.428636
0.394063 0.763994 0.627053
0.333179 0.311882 0.457574
0.659216 0.784867 0.503122
0.478770 0.273454 0.411461
0.425737 0.584750 0.313992
0.410664 0.826417 0.634179
0.588563 0.385747 0.491613
0.285449 0.231117 0.350627
0.396978 0.753361 0.611000
0.185351 0.469412 0.487421
0.371691 0.526643 0.471236
0.406041 0.545639 0.337009
0.541957 0.687408 0.419090
0.393214 0.379735 0.392493
0.250546 0.771299 0.305000
0.490946 0.715083 0.456828
0.575282 0.765503 0.363627
0.695978 0.321875 0.385379
0.554711 0.726698 0.531679
0.475603 0.578737 0.297655
0.478556 0.426621 0.396760
0.491092 0.173294 0.405728
0.567416 0.394647 0.407985
0.252537 0.612124 0.325749
0.708973 0.262634 0.389436
0.557183 0.308925 0.582206
0.553150 0.539197 0.256376
0.397902 0.537946 0.264393
0.686773 0.542961 0.165088
0.124519 0.655043 0.362296
0.362187 0.666941 0.425727
0.269931 0.867729 0.566877
0.426992 0.698287 0.539755
0.603277 0.395385 0.438956
0.371935 0.761491 0.340221
0.476661 0.160003 0.411056
0.377292 0.755709 0.612679
0.506418 0.298941 0.562348
0.458325 0.262538 0.394760
0.376722 0.219936 0.395413
0.190534 0.443759 0.514096
0.504019 0.073364 0.432394
0.415609 0.143841 0.384883
0.376597 0.458755 0.395080
0.496985 0.198557 0.436887
0.436463 0.599476 0.299014
0.570263 0.783165 0.138752
0.415329 0.777782 0.380427
0.502579 0.162395 0.409379
0.352105 0.493156 0.537141
0.496582 0.503374 0.332992
0.477309 0.499620 0.448711
0.390450 0.658616 0.468824
0.193135 0.491696 0.372706
0.467339 0.623256 0.236905
0.489824 0.669214 0.421444
0.625132 0.615203 0.253557
0.484568 0.415178 0.393895
0.548639 0.680944 0.417758
0.376217 0.648850 0.399233
0.507521 0.093694 0.428243
0.663250 0.526187 0.166388
0.403720 0.490960 0.443990
0.438012 0.564069 0.329021
0.460577 0.866744 0.340708
0.404285 0.146173 0.386380
0.432894 0.537250 0.614633
0.505481 0.930014 0.453024
0.717521 0.719649 0.233414
0.661771 0.392510 0.413484
0.439531 0.851687 0.425136
0.644031 0.574676 0.389967
0.316120 0.488455 0.492914
0.534987 0.414867 0.319000
0.297299 0.634406 0.612183
0.422677 0.373685 0.392379
0.490117 0.184289 0.405681
0.432386 0.137276 0.392837
0.424423 0.584162 0.304677
0.280856 0.143819 0.254161
0.754398 0.581935 0.567323
0.604036 0.414513 0.224751
0.222328 0.522436 0.319615
0.607701 0.404932 0.148971
0.472805 0.038841 0.432429
0.502383 0.751834 0.254927
0.594057 0.392170 0.499097
0.236961 0.698841 0.460235
0.489619 0.767294 0.241086
0.378010 0.767598 0.352125
0.484252 0.339407 0.395279
0.434264 0.828409 0.410841
0.480842 0.717266 0.497230
0.787322 0.413143 0.407896
0.266036 0.500418 0.130365
0.317532 0.876267 0.297887
0.332516 0.322639 0.459397
0.415601 0.879512 0.507820
0.260846 0.513018 0.183599
0.473993 0.200905 0.427406
0.502539 0.328834 0.409541
0.241698 0.800825 0.308564
0.476882 0.367714 0.396805
0.467385 0.457315 0.368895
0.468260 0.528812 0.349382
0.507078 0.164802 0.424639
0.422399 0.492571 0.463052
0.428863 0.269483 0.325387
0.288575 0.772495 0.467915
0.225791 0.696971 0.166393
0.396036 0.103615 0.326460
0.556171 0.470697 0.291263
0.684048 0.499659 0.489186
0.374451 0.504756 0.398472
0.359866 0.704755 0.275394
0.375654 0.623220 0.192495
0.414905 0.339678 0.400606
0.393440 0.205088 0.338843
0.263523 0.397479 0.344351
0.176717 0.357506 0.480155
0.495183 0.124545 0.405896
0.409772 0.147518 0.378269
0.200140 0.445361 0.487465
0.201374 0.649583 0.468616
0.284659 0.651607 0.225644
0.521674 0.707300 0.235354
0.400134 0.385463 0.642524
0.347043 0.412074 0.195966
0.611441 0.248908 0.558778
0.472037 0.054034 0.428981
0.395250 0.630586 0.296057
0.455485 0.510763 0.358941
0.244482 0.518233 0.165880
0.537582 0.724129 0.311450
0.409971 0.931157 0.416635
0.278610 0.798652 0.265912
0.484356 0.306879 0.554805
0.443419 0.915139 0.460613
0.438274 0.299783 0.403179
0.327997 0.532690 0.241682
0.581450 0.214211 0.537884
0.467019 0.711375 0.546159
0.416058 0.960462 0.415079
0.371180 0.531879 0.370211
0.777630 0.406242 0.416567
0.318457 0.353893 0.318701
0.494131 0.350534 0.422367
0.647798 0.251967 0.613047
0.363423 0.492989 0.443976
0.478517 0.452191 0.385821
0.406068 0.550692 0.543143
0.425443 0.406647 0.355457
0.580950 0.819301 0.209017
0.305129 0.808705 0.461588
0.549030 0.821228 0.571256
0.454338 0.858966 0.342437
0.224045 0.495002 0.387713
0.425614 0.541842 0.037880
0.583689 0.768072 0.252064
0.342533 0.664802 0.246570
0.516890 0.294539 0.566790
0.474622 0.420150 0.389626
0.502560 0.217441 0.430602
0.585929 0.383160 0.471666
0.487468 0.503090 0.330182
0.206051 0.648122 0.482208
0.624277 0.548810 0.215204
0.378029 0.341519 0.617149
0.511440 0.715961 0.222655
0.436078 0.929898 0.474914
0.274715 0.429001 0.413453
0.200423 0.494970 0.156628
0.476898 0.213071 0.412028
0.393725 0.620590 0.454006
0.432262 0.214306 0.322316
0.647175 0.509924 0.148178
0.374344 0.349922 0.543109
0.319264 0.400739 0.398533
0.534181 0.682833 0.211222
0.556586 0.738208 0.526843
0.492620 0.680655 0.197050
0.667744 0.678030 0.248962
0.283147 0.708601 0.187983
0.634457 0.643825 0.199540
0.450903 0.859427 0.333625
0.382413 0.533057 0.472380
0.254058 0.508876 0.241262
0.112514 0.385130 0.477595
0.681342 0.510660 0.213343
0.456551 0.654715 0.431987
0.507716 0.670293 0.184088
0.569974 0.654402 0.446214
0.256141 0.491249 0.410833
0.729685 0.397868 0.410235
0.344176 0.427019 0.176901
0.508788 0.494925 0.434462
0.719942 0.792312 0.523937
0.635903 0.569111 0.463066
0.479688 0.715472 0.538031
0.618135 0.583425 0.240340
0.483958 0.265245 0.405858
0.604523 0.652084 0.217175
0.335309 0.487600 0.472395
0.304199 0.711632 0.243578
0.168381 0.298188 0.404799
0.500940 0.165925 0.433483
0.430605 0.586417 0.297941
0.037797 0.312202 0.485609
0.712958 0.209275 0.430137
0.469586 0.711848 0.625041
0.678106 0.540605 0.096030
0.722240 0.523725 0.226863
0.385458 0.408993 0.427581
0.489038 0.295313 0.406239
0.567271 0.472876 0.297548
0.325345 0.800996 0.524451
0.716121 0.543657 0.126181
0.384479 0.674488 0.498470
0.364755 0.184280 0.314215
0.472409 0.719102 0.601711
0.478884 0.393929 0.388766
0.423427 0.495981 0.398373
0.675462 0.484706 0.466905
0.588109 0.449064 0.315594
0.348012 0.347395 0.411524
0.654643 0.219021 0.568461
0.253427 0.340796 0.471404
0.613799 0.674388 0.217102
0.400993 0.538699 0.066502
0.562721 0.254071 0.521552
0.536029 0.135306 0.634749
0.404052 0.637609 0.413872
0.585520 0.509831 0.253508
0.482717 0.881793 0.356895
0.376113 0.493433 0.430781
0.241873 0.279138 0.343523
0.381486 0.606406 0.468025
0.424580 0.595185 0.313344
0.266106 0.207691 0.287133
0.265738 0.796774 0.364440
0.447529 0.705721 0.542074
0.539445 0.720951 0.427315
0.669005 0.521712 0.444621
0.516945 0.106736 0.441945
0.396219 0.694879 0.535970
0.502046 0.194170 0.409373
0.495267 0.884074 0.310545
0.256949 0.263851 0.344534
0.189539 0.439119 0.532433
0.866163 0.550955 0.330109
0.619040 0.471009 0.454582
0.398081 0.652829 0.469982
0.292289 0.278113 0.234556
0.608630 0.472060 0.455955
0.438142 0.219680 0.242905
0.537743 0.284360 0.579054
0.574692 0.350524 0.307671
0.799013 0.429026 0.528712
0.368410 0.525427 0.386766
0.458185 0.534817 0.345871
0.389848 0.146554 0.402056
0.638903 0.471052 0.457305
0.635865 0.812489 0.444438
0.406037 0.838473 0.613402
0.462193 0.502816 0.355452
0.345947 0.808563 0.330054
0.619671 0.505278 0.205922
0.627014 0.507778 0.211456
0.639744 0.617391 0.401715
0.469039 0.717632 0.365066
0.771316 0.403787 0.408988
0.141518 0.408183 0.383572
0.458235 0.129145 0.402503
0.490754 0.205900 0.438741
0.486281 0.280883 0.417681
0.257291 0.694175 0.174220
0.525009 0.768812 0.502544
0.391827 0.846779 0.437486
0.256823 0.794367 0.322891
0.480914 0.129830 0.405869
0.684142 0.352841 0.208174
0.276951 0.870496 0.397387
0.314155 0.694732 0.611706
0.546076 0.537101 0.265920
0.516246 0.707871 0.583744
0.701998 0.635831 0.268566
0.461904 0.217541 0.405337
0.333807 0.330899 0.412483
0.477716 0.149726 0.409703
0.343409 0.704345 0.272204
0.307971 0.799507 0.648213
0.405659 0.134906 0.365671
0.349226 0.696484 0.395663
0.491143 0.161011 0.405534
0.580022 0.573712 0.213242
0.608280 0.241512 0.606610
0.536893 0.404023 0.396259
0.417446 0.801261 0.698239
0.310379 0.305644 0.527139
0.463906 0.628291 0.272286
0.280102 0.665108 0.644006
0.618872 0.458724 0.216760
0.269476 0.512219 0.133714
0.509337 0.294336 0.190550
0.402348 0.130010 0.357749
0.376818 0.708396 0.541960
0.350855 0.519339 0.368662
0.206725 0.492061 0.422872
0.412155 0.632488 0.404308
0.438455 0.950785 0.524761
0.337782 0.339209 0.417263
0.445085 0.842577 0.381525
0.356583 0.343201 0.415190
0.419316 0.864343 0.492529
0.696481 0.307442 0.373237
0.329556 0.909245 0.276704
0.646349 0.561117 0.466438
0.400443 0.123055 0.349644
0.721623 0.309046 0.409088
0.186811 0.321901 0.420743
0.473831 0.177640 0.428156
0.442688 0.883350 0.449016
0.694783 0.332013 0.392404
0.192347 0.700198 0.532962
0.335493 0.764635 0.321496
0.470139 0.105941 0.419659
0.474565 0.026167 0.410106
0.728089 0.291260 0.286076
0.494918 0.733430 0.460154
0.605716 0.506009 0.222297
0.364872 0.389399 0.207651
0.572700 0.381020 0.487326
0.236554 0.803811 0.315793
0.299240 0.847216 0.430280
0.609318 0.398090 0.413242
0.513439 0.650005 0.186400
0.427194 0.219201 0.368281
0.392838 0.650590 0.459104
0.114453 0.541259 0.606376
0.529084 0.319078 0.194275
0.463431 0.883439 0.312985
0.325995 0.298301 0.487145
0.452465 0.616037 0.281103
0.565301 0.746179 0.190456
0.388680 0.563298 0.458978
0.666168 0.249434 0.627240
0.224171 0.337854 0.454060
0.283189 0.533531 0.718672
0.554340 0.342549 0.378422
0.505199 0.133645 0.416546
0.711702 0.675556 0.223519
0.618728 0.453908 0.316407
0.269116 0.645748 0.660716
0.496038 0.057995 0.441149
0.360170 0.489498 0.469824
0.672544 0.474036 0.460591
0.571963 0.250194 0.530055
0.578601 0.499429 0.259047
0.371221 0.505940 0.487605
0.360636 0.359049 0.544566
0.440521 0.726719 0.371541
0.148541 0.558821 0.613912
0.282584 0.450122 0.281181
0.399402 0.582973 0.282579
0.375044 0.752423 0.336870
0.340463 0.150933 0.273442
0.564836 0.886180 0.295803
0.251410 0.652784 0.501447
0.583841 0.411836 0.456518
0.434311 0.705193 0.545820
0.620148 0.515619 0.217191
0.467244 0.488830 0.346448
0.417960 0.272545 0.244832
0.413107 0.490853 0.401160
0.474874 0.286660 0.425602
0.230935 0.564267 0.119293
0.766768 0.381709 0.522145
0.508679 0.681122 0.416283
0.525254 0.802063 0.440774
0.675277 0.443215 0.437620
0.245576 0.412388 0.450343
0.427767 0.284022 0.357655
0.579309 0.492993 0.322272
0.223411 0.813377 0.341169
0.491169 0.704725 0.454686
0.260060 0.497376 0.416959
0.445479 0.520328 0.463298
0.220966 0.511508 0.189600
0.727040 0.313683 0.206857
0.484283 0.348737 0.421276
0.399546 0.934400 0.410129
0.514786 0.714467 0.576570
0.579545 0.193941 0.532894
0.481910 0.659807 0.447274
0.483242 0.154772 0.404007
0.430264 0.602964 0.312044
0.509620 0.231516 0.485017
0.239798 0.761351 0.335251
0.469235 0.464711 0.375416
0.325312 0.496917 0.484600
0.535335 0.695505 0.419675
0.359817 0.814427 0.460000
0.444946 0.898360 0.457223
0.639235 0.565466 0.295912
0.467499 0.664191 0.264113
0.533238 0.671585 0.620405
0.516016 0.637605 0.186527
0.240973 0.675140 0.169109
0.857408 0.547840 0.323999
0.371153 0.557099 0.264762
0.735310 0.306080 0.204928
0.782436 0.373775 0.403868
0.378191 0.720005 0.307574
0.353066 0.760674 0.544574
0.176901 0.339016 0.420348
0.467408 0.513116 0.344728
0.259258 0.501934 0.247016
0.573005 0.587555 0.619424
0.486635 0.327495 0.427524
0.609533 0.403391 0.186865
0.221646 0.473948 0.511578
0.142116 0.475539 0.352571
0.287585 0.521338 0.220652
0.663478 0.257954 0.632141
0.476651 0.724705 0.359978
0.466294 0.468800 0.366157
0.372553 0.518315 0.393511
0.686703 0.421699 0.434199
0.174077 0.532021 0.567082
0.284419 0.543295 0.712530
0.439994 0.698972 0.541598
0.264034 0.502927 0.528707
0.485078 0.450111 0.362091
0.283334 0.119647 0.234124
0.396062 0.535192 0.550114
0.614252 0.390046 0.417199
0.242104 0.826912 0.431464
0.448823 0.213542 0.405376
0.733383 0.652960 0.267800
0.710164 0.248966 0.402617
0.241067 0.492212 0.399677
0.472027 0.196352 0.416718
0.395125 0.488927 0.440541
0.503735 0.086153 0.432395
0.442847 0.684238 0.176328
0.483705 0.495264 0.349706
0.629217 0.677953 0.592870
0.461417 0.708931 0.390652
0.479379 0.169499 0.408419
0.590763 0.193414 0.501101
0.503878 0.371176 0.406179
0.363544 0.825225 0.431389
0.418185 0.840281 0.307991
0.569407 0.475994 0.462046
0.413361 0.821875 0.643509
0.512933 0.329162 0.381520
0.592533 0.192560 0.552626
0.615288 0.473211 0.212981
0.371940 0.902748 0.291036
0.311959 0.776295 0.655270
0.500538 0.755542 0.463176
0.665878 0.326492 0.347014
0.322960 0.362236 0.318370
0.565463 0.505983 0.282790
0.468999 0.035161 0.416176
0.533924 0.244670 0.461472
0.476242 0.278260 0.403286
0.754588 0.573090 0.563014
0.332767 0.282968 0.523075
0.242186 0.682052 0.475475
0.501347 0.027759 0.405765
0.316892 0.530705 0.233431
0.485504 0.891226 0.470253
0.574784 0.508858 0.264534
0.775757 0.482383 0.526032
0.363999 0.377357 0.386218
0.155231 0.249839 0.472113
0.609609 0.590149 0.220536
0.580775 0.644091 0.236428
0.253052 0.773874 0.316847
0.420955 0.613040 0.332880
0.248618 0.696683 0.171326
0.331927 0.803866 0.486023
0.451630 0.617717 0.290404
0.475868 0.025226 0.438149
0.379902 0.230366 0.368734
0.502803 0.934484 0.488882
0.491754 0.296989 0.425827
0.711774 0.660460 0.218771
0.472910 0.043717 0.412262
0.583133 0.194035 0.523542
0.307433 0.586587 0.189806
0.454028 0.225192 0.399701
0.547518 0.262906 0.494977
0.564437 0.671159 0.215017
0.264828 0.880165 0.384471
0.203580 0.822370 0.339281
0.544665 0.398072 0.402072
0.324017 0.872902 0.557766
0.484528 0.383660 0.385050
0.501602 0.591187 0.649736
0.476409 0.370910 0.406408
0.586692 0.768233 0.221188
0.308408 0.319168 0.273450
0.495062 0.610276 0.250892
0.478831 0.520612 0.345404
0.647289 0.564412 0.396575
0.581337 0.770444 0.403843
0.482115 0.501542 0.357588
0.239696 0.869962 0.577654
0.246838 0.658710 0.633276
0.545420 0.407753 0.400972
0.537440 0.755438 0.577627
0.430871 0.577428 0.303822
0.482579 0.432666 0.368181
0.440345 0.952575 0.490159
0.585353 0.370057 0.399489
0.312954 0.792617 0.642223
0.279362 0.604738 0.675331
0.267212 0.518725 0.155261
0.259770 0.479837 0.123982
0.475109 0.229013 0.429616
0.535045 0.682271 0.227180
0.433145 0.568619 0.321902
0.182340 0.478688 0.484845
0.767467 0.413394 0.432927
0.296944 0.678451 0.217803
0.392106 0.524226 0.407759
0.555994 0.885614 0.299713
0.398239 0.629489 0.451863
0.550594 0.816607 0.562307
0.490457 0.225996 0.438336
0.391036 0.206582 0.348066
0.499406 0.918622 0.458768
0.332324 0.770727 0.614400
0.458883 0.530655 0.324784
0.382727 0.347232 0.633170
0.425166 0.252537 0.246512
0.340673 0.918743 0.301376
0.401328 0.582917 0.717381
0.480530 0.908731 0.448664
0.611497 0.246501 0.569169
0.593201 0.655842 0.219519
0.249620 0.631867 0.520334
0.450611 0.715540 0.370815
0.536427 0.642220 0.443540
0.491532 0.672970 0.450465
0.427796 0.808701 0.402672
0.472819 0.143050 0.414672
0.338800 0.888538 0.285857
0.362981 0.525832 0.466010
0.249376 0.319978 0.422458
0.432565 0.278155 0.325502
0.569754 0.425754 0.373357
0.494780 0.303469 0.405749
0.377772 0.537872 0.086472
0.250555 0.620966 0.320888
0.606988 0.241221 0.615861
0.278963 0.242248 0.348545
0.846622 0.394852 0.561081
0.618258 0.805501 0.446833
0.487760 0.362258 0.390311
0.321914 0.684752 0.238396
0.505797 0.244401 0.424729
0.280814 0.153970 0.260226
0.348458 0.353610 0.376277
0.627543 0.247480 0.585517
0.557154 0.794103 0.530891
0.336320 0.918153 0.279639
0.662720 0.228580 0.638369
0.298131 0.637012 0.502457
0.337172 0.722687 0.599909
0.328879 0.180080 0.274926
0.485217 0.217575 0.437221
0.501804 0.659629 0.249972
0.439258 0.382978 0.390571
0.081858 0.348512 0.487416
0.531275 0.656779 0.282257
0.763999 0.410243 0.408034
0.472697 0.113077 0.427923
0.225287 0.527245 0.309484
0.406576 0.647213 0.188538
0.222831 0.291332 0.293893
0.408913 0.499432 0.408881
0.228647 0.806943 0.349137
0.340101 0.631674 0.376292
0.124909 0.545776 0.608601
0.438304 0.376058 0.546607
0.248271 0.678793 0.201976
0.448403 0.202103 0.332843
0.285483 0.496989 0.450474
0.678796 0.469613 0.466121
0.291045 0.655071 0.377288
0.387651 0.490207 0.431333
0.596582 0.386955 0.188050
0.226214 0.812470 0.373968
0.168198 0.410499 0.480752
0.275149 0.623215 0.669108
0.541541 0.257422 0.484373
0.833140 0.409483 0.444534
0.250612 0.828704 0.437982
0.385883 0.394756 0.540428
0.129614 0.480361 0.332551
0.330869 0.199151 0.262323
0.327396 0.416914 0.406383
0.499354 0.403588 0.384070
0.520570 0.285801 0.470244
0.456200 0.564111 0.324292
0.601768 0.254501 0.519337
0.393980 0.352096 0.405574
0.330350 0.718904 0.341844
0.183291 0.532914 0.565125
0.486745 0.143457 0.438816
0.357333 0.515845 0.616893
0.385228 0.355662 0.407291
0.338831 0.445151 0.200793
0.448395 0.832668 0.370072
0.239318 0.808618 0.555364
0.538424 0.253401 0.495806
0.491354 0.463453 0.373449
0.381649 0.203461 0.339344
0.533600 0.402243 0.407974
0.778506 0.429958 0.503116
0.353655 0.431658 0.255172
0.773136 0.430345 0.388224
0.712007 0.218087 0.425224
0.314688 0.393048 0.394887
0.470539 0.430145 0.672413
0.440299 0.854166 0.326588
0.508370 0.278446 0.439038
0.603924 0.397832 0.422013
0.269103 0.461807 0.413914
0.782240 0.432734 0.388945
0.545118 0.742321 0.576156
0.297978 0.286146 0.245265
0.305016 0.534364 0.581792
0.172076 0.536539 0.577613
0.476288 0.348951 0.412747
0.583691 0.774183 0.412956
0.510170 0.662004 0.246264
0.273978 0.442168 0.413915
0.559021 0.289021 0.532170
0.247239 0.819772 0.324384
0.523937 0.406293 0.393961
0.344842 0.498886 0.204510
0.336491 0.338493 0.406965
0.318177 0.825162 0.456779
0.318117 0.417274 0.187123
0.596902 0.627326 0.218513
0.358455 0.488595 0.576622
0.339311 0.695416 0.237300
0.414135 0.367047 0.394282
0.276155 0.519810 0.131813
0.450193 0.855380 0.376599
0.386254 0.447841 0.416280
0.376971 0.680934 0.277366
0.662599 0.370116 0.202598
0.333423 0.471926 0.671567
0.645793 0.380604 0.197668
0.478737 0.442039 0.363470
0.475995 0.809231 0.587174
0.522394 0.725544 0.234961
0.594198 0.467410 0.214109
0.325575 0.338156 0.417495
0.316967 0.802220 0.645318
0.681413 0.499793 0.479966
0.332369 0.197713 0.319992
0.379411 0.417409 0.405570
0.332769 0.791664 0.402891
