0.905053 0.142102 0.274877
0.481979 0.258663 0.667188
0.509359 0.271287 0.321027
0.366665 0.326988 0.150923
0.847292 0.276057 0.149724
0.599975 0.028277 0.149724
0.387794 0.139913 0.233391
0.685820 0.346647 0.191876
0.544076 0.243154 0.178639
0.785601 0.139750 0.230553
0.384880 0.070530 0.157668
0.372595 0.343262 0.222334
0.499260 0.278237 0.149078
0.309573 0.326756 0.146949
0.314975 0.137821 0.199804
0.530262 0.181021 0.490346
0.898231 0.139333 0.223592
0.031898 0.334881 0.115402
0.528894 0.247459 0.277623
0.418866 0.235680 0.661205
0.853744 0.150163 0.273561
0.764287 0.325824 0.131400
0.638815 0.140686 0.248076
0.512736 0.246627 0.268969
0.070591 0.348274 0.170081
0.623610 0.086288 0.136852
0.700171 0.333525 0.264120
0.903030 0.138447 0.209846
0.043437 0.334815 0.108044
0.134182 0.340534 0.244789
0.718097 0.325628 0.119516
0.474092 0.190295 0.571047
0.103707 0.156210 0.220296
0.524752 0.228000 0.579589
0.722698 0.326066 0.135484
0.536001 0.071777 0.146383
0.606200 0.341950 0.233437
0.049573 0.148494 0.261579
0.476212 0.249298 0.252094
0.677793 0.348683 0.165047
0.246531 0.148119 0.288579
0.535874 0.220623 0.442802
0.618871 0.051449 0.153217
0.538489 0.259602 0.394803
0.649196 0.158333 0.170901
0.640875 0.141492 0.263243
0.263061 0.138520 0.210605
0.177272 0.347642 0.178463
0.972183 0.336015 0.182481
0.623571 0.092940 0.179933
0.382536 0.144637 0.314866
0.472923 0.240114 0.744900
0.370026 0.208342 0.257127
0.541385 0.195606 0.326172
0.599973 0.083268 0.151775
0.562806 0.240690 0.056394
0.851901 0.141337 0.260453
0.504350 0.325655 0.119246
0.887868 0.156744 0.213726
0.485345 0.265046 0.134949
0.215582 0.349273 0.146317
0.651776 0.151264 0.264383
0.466652 0.192798 0.478182
0.407926 0.139652 0.228500
0.255826 0.340817 0.242706
0.528729 0.329925 0.196630
0.848753 0.296547 0.156500
0.455949 0.192661 0.173557
0.295546 0.151121 0.265361
0.499748 0.275485 0.416828
0.499669 0.368869 0.747758
0.223108 0.139978 0.234518
0.379815 0.347755 0.132116
0.966810 0.334684 0.236174
0.149872 0.284721 0.251767
0.370933 0.177183 0.175026
0.455973 0.224748 0.144764
0.484508 0.247261 0.066175
0.546676 0.185662 0.101633
0.469450 0.151132 0.265373
0.672842 0.151153 0.265320
0.153248 0.331389 0.223613
0.241156 0.329598 0.191383
0.468017 0.348623 0.140347
0.153533 0.348624 0.165517
0.482233 0.267336 0.582696
0.442457 0.213080 0.101572
0.819700 0.334728 0.286827
0.531374 0.137507 0.195061
0.864506 0.142197 0.276637
0.961529 0.142499 0.210595
0.586769 0.332630 0.247231
0.539441 0.177221 0.047076
0.546014 0.263612 0.051914
0.519616 0.283175 0.091525
0.486198 0.284089 0.077217
0.530857 0.179047 0.471754
0.181825 0.348764 0.163684
0.848934 0.319445 0.245979
0.485986 0.074401 0.150897
0.699240 0.136966 0.186761
0.451190 0.177052 0.118100
0.555715 0.339692 0.251377
0.848481 0.189961 0.239729
0.393052 0.349313 0.156583
0.500289 0.349073 0.796706
0.912580 0.140571 0.246083
0.617959 0.150888 0.267504
0.243924 0.150449 0.270956
0.775852 0.331647 0.228832
0.410631 0.348273 0.137013
0.723572 0.326918 0.149945
0.163887 0.329108 0.183745
0.449981 0.330298 0.203263
0.560601 0.195617 0.067143
0.463214 0.171217 0.383898
0.511823 0.268761 0.554692
0.439029 0.225299 0.106598
0.573690 0.149444 0.278810
0.529402 0.347987 0.134385
0.459244 0.198629 0.345712
0.443095 0.252002 0.071396
0.370675 0.282442 0.167172
0.879262 0.142017 0.273260
0.539129 0.257190 0.379803
0.481862 0.276729 0.349092
0.435934 0.231913 0.094218
0.280732 0.159135 0.178241
0.483119 0.223650 0.679550
0.488239 0.173289 0.412100
0.510267 0.227950 0.743684
0.746799 0.154094 0.240773
0.170310 0.139452 0.224992
0.347118 0.328133 0.168742
0.544958 0.173091 0.076290
0.194124 0.140514 0.244582
0.537229 0.242885 0.423950
0.065621 0.144301 0.315756
0.116011 0.328959 0.181413
0.466370 0.240116 0.731553
0.462245 0.261157 0.417468
0.264217 0.328072 0.167740
0.756091 0.139617 0.228044
0.582590 0.087459 0.152395
0.427406 0.098606 0.178769
0.329568 0.157440 0.204220
0.409310 0.157138 0.208251
0.201655 0.333618 0.265575
0.154970 0.138410 0.208839
0.514753 0.218036 0.032617
0.508582 0.242411 0.761690
0.588416 0.240132 0.740987
0.300147 0.139147 0.220342
0.655328 0.331998 0.235379
0.670123 0.135179 0.148420
0.628416 0.276672 0.144969
0.480437 0.162400 0.194644
0.623631 0.079551 0.112705
0.459679 0.210886 0.356082
0.907793 0.331477 0.225724
0.304513 0.340709 0.243580
0.638294 0.341340 0.112570
0.553912 0.332258 0.240200
0.544067 0.241371 0.191905
0.436631 0.204200 0.128674
0.042221 0.332829 0.214070
0.449149 0.240121 0.766908
0.839512 0.348704 0.141331
0.108821 0.348798 0.163195
0.476359 0.162403 0.179627
0.170983 0.329922 0.196374
0.376452 0.089395 0.136151
0.879556 0.157864 0.198967
0.515263 0.227338 0.690553
0.244001 0.158300 0.192840
0.355785 0.338731 0.110043
0.562164 0.152674 0.252541
0.837205 0.331721 0.230269
0.488417 0.156768 0.156048
0.507440 0.327879 0.164895
0.378259 0.108758 0.145839
0.518514 0.180227 0.482779
0.071340 0.157569 0.163351
0.504683 0.151603 0.142784
0.743682 0.348759 0.164093
0.609465 0.139522 0.226343
0.834830 0.142056 0.273982
0.721798 0.330496 0.207146
0.603624 0.348709 0.164659
0.054802 0.141319 0.251546
0.683074 0.325351 0.123319
0.655809 0.138876 0.216358
0.254305 0.327462 0.111415
0.161465 0.326630 0.113853
0.537423 0.342673 0.227357
0.543956 0.235885 0.266792
0.509049 0.261567 0.670660
0.961572 0.148401 0.233277
0.525108 0.274522 0.048417
0.651208 0.135496 0.162332
0.628125 0.192473 0.259310
0.391664 0.235688 0.656125
0.785475 0.144353 0.317166
0.813077 0.143239 0.296209
0.438278 0.235674 0.783058
0.542324 0.062150 0.152969
0.531661 0.242692 0.494768
0.903768 0.346256 0.197150
0.651565 0.348668 0.165229
0.435223 0.213257 0.088167
0.235375 0.156262 0.219682
0.566119 0.334458 0.107462
0.516261 0.343753 0.218309
0.458756 0.227457 0.333830
0.545737 0.331169 0.219715
0.244204 0.141017 0.254070
0.487230 0.135287 0.158688
0.475184 0.170786 0.378224
0.544071 0.222435 0.163564
0.308796 0.344071 0.215527
0.746682 0.145997 0.137766
0.113743 0.158754 0.186782
0.610779 0.142587 0.283840
0.479686 0.244899 0.640743
0.515625 0.260111 0.135832
0.223256 0.158593 0.173095
0.630584 0.326359 0.244788
0.963732 0.334806 0.250048
0.372084 0.178220 0.248549
0.451941 0.347469 0.180912
0.196416 0.328534 0.174865
0.311492 0.135859 0.168292
0.126599 0.139044 0.218649
0.538859 0.209776 0.385373
0.648796 0.156012 0.223231
0.589380 0.346777 0.190106
0.486584 0.164652 0.102058
0.455918 0.229733 0.240279
0.544036 0.172940 0.167023
0.851900 0.328598 0.176253
0.315705 0.345729 0.201672
0.729292 0.143527 0.301580
0.665382 0.144304 0.316173
0.564204 0.154388 0.238205
0.560722 0.139706 0.138486
0.460587 0.136196 0.142881
0.455966 0.162804 0.132424
0.039822 0.145340 0.139664
0.508325 0.276408 0.365666
0.430092 0.179941 0.028086
0.474070 0.179297 0.473659
0.376440 0.054665 0.175344
0.471466 0.278873 0.088281
0.472152 0.208638 0.546784
0.216249 0.135088 0.148636
0.179834 0.343426 0.220845
0.713105 0.340031 0.111078
0.635340 0.150601 0.140958
0.485661 0.207499 0.027796
0.852504 0.349533 0.149143
0.586471 0.142065 0.274003
0.859228 0.332379 0.108036
0.852030 0.135563 0.163584
0.119855 0.330630 0.209315
0.400081 0.077971 0.117123
0.494238 0.144954 0.136956
0.301488 0.153742 0.243457
0.848509 0.252765 0.190817
0.464880 0.237933 0.455933
0.559782 0.194078 0.124031
0.139190 0.333266 0.258917
0.466459 0.237414 0.773443
0.916719 0.336675 0.109074
0.478254 0.233672 0.066171
0.103940 0.157400 0.204616
0.071099 0.331776 0.230846
0.387224 0.235690 0.733892
0.617136 0.330902 0.214732
0.105906 0.330916 0.214685
0.750017 0.344174 0.118022
0.677618 0.347482 0.180867
0.150003 0.305629 0.239506
0.347839 0.348157 0.171779
0.527976 0.270525 0.520319
0.499647 0.302109 0.785281
0.115294 0.340815 0.242639
0.379090 0.054973 0.112261
0.216199 0.329005 0.182172
0.138999 0.349357 0.155850
0.591908 0.137934 0.201717
0.249974 0.158868 0.175711
0.531455 0.136420 0.177946
0.455941 0.197892 0.188961
0.460483 0.258948 0.375158
0.871556 0.349730 0.151009
0.717905 0.347848 0.176072
0.499657 0.259048 0.768668
0.430358 0.240126 0.734681
0.100782 0.327409 0.157362
0.525883 0.191477 0.565456
0.848227 0.140425 0.243292
0.202652 0.349621 0.152410
0.265327 0.159183 0.181218
0.299082 0.332973 0.253511
0.455911 0.172178 0.228141
0.784351 0.152906 0.250732
0.768884 0.325944 0.117864
0.150520 0.339168 0.255077
0.734493 0.141138 0.256649
0.737771 0.150822 0.268130
0.500932 0.267001 0.588928
0.457069 0.191239 0.293501
0.662387 0.158313 0.170718
0.421440 0.152593 0.253135
0.509255 0.256990 0.305181
0.664258 0.349048 0.160233
0.313810 0.349509 0.153956
0.284187 0.158435 0.191090
0.143293 0.154096 0.240396
0.478320 0.228905 0.623731
0.805337 0.327659 0.161665
0.499687 0.363060 0.717766
0.239493 0.334777 0.287414
0.627850 0.308273 0.240724
0.621421 0.043010 0.118649
0.613860 0.235690 0.712148
0.917125 0.349359 0.147545
0.145740 0.326152 0.116388
0.482097 0.347145 0.185187
0.102331 0.135146 0.156065
0.530734 0.270710 0.506400
0.774601 0.141973 0.272373
0.644843 0.330859 0.213929
0.046194 0.152194 0.196772
0.186029 0.335797 0.280462
0.763820 0.328796 0.179266
0.693088 0.345453 0.204207
0.698844 0.157656 0.164549
0.495141 0.327566 0.160041
0.176685 0.140827 0.250463
0.629960 0.347171 0.126760
0.165816 0.153634 0.146442
0.503636 0.350236 0.724201
0.499680 0.338176 0.730048
0.798119 0.348133 0.135923
0.489234 0.342594 0.227988
0.233849 0.330907 0.214592
0.607507 0.329712 0.193374
0.445050 0.240122 0.689130
0.484247 0.178329 0.464621
0.543393 0.348081 0.135285
0.273182 0.332459 0.243825
0.800839 0.347119 0.185719
0.515947 0.349652 0.150066
0.083809 0.328786 0.178713
0.414592 0.077892 0.166185
0.444147 0.235673 0.744663
0.531831 0.277242 0.115914
0.465940 0.235932 0.626243
0.503156 0.210321 0.066186
0.146207 0.152332 0.255152
0.544000 0.204416 0.262760
0.561730 0.328789 0.179041
0.276670 0.157592 0.163695
0.069037 0.156353 0.218388
0.517915 0.138236 0.206357
0.221892 0.157590 0.202179
0.627902 0.303685 0.152808
0.914191 0.136576 0.180834
0.455926 0.200062 0.213914
0.383155 0.141945 0.271626
0.532598 0.262654 0.045439
0.490668 0.185531 0.532518
0.808726 0.152759 0.145161
0.544828 0.159150 0.178543
0.658246 0.237749 0.722665
0.353847 0.333266 0.259049
0.318254 0.153313 0.247053
0.748824 0.348228 0.136787
0.627864 0.257205 0.215917
0.190962 0.329917 0.196305
0.059713 0.141712 0.267049
0.503627 0.282332 0.740445
0.931088 0.151869 0.259489
0.808201 0.159090 0.178135
0.143963 0.139036 0.138748
0.826429 0.147895 0.290613
0.473216 0.226751 0.560031
0.222866 0.347611 0.130662
0.656893 0.235803 0.692391
0.925697 0.154288 0.148134
0.402498 0.137482 0.194591
0.358205 0.343344 0.221642
0.691373 0.158880 0.176078
0.322925 0.326172 0.137032
0.152228 0.219389 0.260126
0.778184 0.336527 0.108898
0.498172 0.349501 0.154174
0.527651 0.250018 0.291504
0.676209 0.326020 0.134664
0.646370 0.347597 0.179332
0.693686 0.138651 0.212888
0.531823 0.138398 0.208865
0.353465 0.235700 0.732327
0.310296 0.338667 0.258943
0.058358 0.157329 0.165737
0.686096 0.137473 0.194623
0.648916 0.240150 0.756526
0.455922 0.169929 0.209732
0.954003 0.334806 0.280161
0.359746 0.153904 0.242131
0.489044 0.223424 0.066178
0.775503 0.154208 0.239835
0.538139 0.278207 0.147303
0.499644 0.360788 0.790276
0.253610 0.333050 0.254917
0.589560 0.148092 0.288993
0.450587 0.177688 0.064342
0.528624 0.158963 0.184270
0.197410 0.144346 0.316671
0.437747 0.241501 0.063791
0.623196 0.142231 0.277149
0.519344 0.157281 0.160904
0.254876 0.349668 0.151824
0.345883 0.154033 0.241044
0.269627 0.349439 0.147913
0.809403 0.137601 0.196674
0.519332 0.274299 0.447377
0.562121 0.347974 0.134281
0.954315 0.153282 0.181635
0.303545 0.326593 0.114134
0.062143 0.333233 0.258249
0.543169 0.205646 0.130954
0.550063 0.133713 0.216105
0.472797 0.161112 0.054659
0.543000 0.229446 0.288999
0.305202 0.140405 0.242591
0.946266 0.155366 0.166937
0.525964 0.135453 0.161525
0.520706 0.255431 0.629534
0.473398 0.278257 0.155113
0.695665 0.331809 0.231832
0.885890 0.339800 0.111035
0.569701 0.348382 0.168956
0.448472 0.150875 0.267510
0.627966 0.342700 0.227186
0.378390 0.026894 0.142754
0.268418 0.344698 0.210265
0.384747 0.143646 0.136063
0.793460 0.140998 0.254040
0.883349 0.330319 0.203913
0.605908 0.240137 0.667437
0.608885 0.027586 0.165401
0.434076 0.117024 0.203253
0.550187 0.342185 0.231444
0.622434 0.347247 0.183937
0.328558 0.345250 0.205687
0.882551 0.159164 0.181840
0.318050 0.326241 0.116019
0.447589 0.142906 0.289739
0.119429 0.346085 0.198583
0.921120 0.327476 0.158894
0.466006 0.276908 0.339898
0.106694 0.155527 0.150002
0.824754 0.331316 0.222641
0.490424 0.264935 0.226644
0.575343 0.326058 0.135249
0.460158 0.219901 0.367555
0.851264 0.209383 0.158486
0.840866 0.156471 0.217290
0.574337 0.240128 0.712442
0.626950 0.340766 0.243340
0.312012 0.135355 0.147269
0.050257 0.150813 0.242207
0.544097 0.256937 0.158969
0.398822 0.052837 0.112694
0.360588 0.135304 0.158897
0.048639 0.342560 0.195367
0.566267 0.325537 0.119910
0.545490 0.194253 0.045447
0.467467 0.240115 0.670160
0.934636 0.349705 0.151738
0.537463 0.191229 0.417691
0.329574 0.142440 0.280891
0.542738 0.200141 0.294656
0.480481 0.165865 0.311979
0.457618 0.189258 0.306704
0.668555 0.137385 0.193251
0.623600 0.108423 0.148257
0.084562 0.138510 0.210343
0.456946 0.177499 0.290630
0.490673 0.174348 0.426404
0.511714 0.156818 0.212524
0.621812 0.330195 0.201425
0.129214 0.136734 0.182837
0.457649 0.240118 0.721626
0.347590 0.240151 0.719995
0.052761 0.138257 0.191726
0.371222 0.266694 0.220639
0.611812 0.108927 0.158038
0.132308 0.325578 0.119436
0.473994 0.349633 0.152421
0.510645 0.284605 0.057101
0.088676 0.348946 0.161234
0.626621 0.211621 0.155829
0.888503 0.325376 0.120960
0.559534 0.195554 0.110372
0.476509 0.215725 0.601154
0.145648 0.328521 0.174629
0.939111 0.326028 0.117521
0.531824 0.163391 0.074069
0.542563 0.278203 0.159778
0.652261 0.136571 0.180584
0.552410 0.260074 0.122565
0.544062 0.221116 0.177226
0.533152 0.278210 0.210367
0.580969 0.152789 0.251585
0.841588 0.148753 0.284162
0.448187 0.198312 0.132830
0.064542 0.342213 0.113889
0.331685 0.325953 0.117559
0.458467 0.144708 0.314375
0.599996 0.062375 0.126636
0.846173 0.153534 0.146656
0.451892 0.325318 0.122617
0.315874 0.348505 0.167184
0.901627 0.159005 0.177386
0.395158 0.092606 0.118887
0.411677 0.344170 0.214763
0.544008 0.175592 0.215661
0.369276 0.240144 0.762979
0.591220 0.240133 0.666861
0.527924 0.242387 0.540711
0.943792 0.337320 0.269454
0.542504 0.184247 0.299886
0.465493 0.272899 0.463491
0.621002 0.047624 0.189288
0.534886 0.252411 0.455215
0.476585 0.272302 0.219270
0.253160 0.334827 0.287804
0.900495 0.157487 0.163073
0.455973 0.260368 0.157257
0.465969 0.339698 0.251277
0.414337 0.346814 0.123272
0.489367 0.241014 0.746843
0.391565 0.340004 0.248932
0.387258 0.109361 0.155720
0.663772 0.328652 0.176979
0.623098 0.104557 0.132779
0.491608 0.248684 0.770982
0.151457 0.180766 0.246103
0.465080 0.234597 0.066163
0.872296 0.135527 0.162985
0.399319 0.346589 0.192463
0.848128 0.144632 0.315180
0.369691 0.297167 0.250306
0.895415 0.144362 0.317235
0.541123 0.226986 0.332796
0.524021 0.159428 0.092328
0.503867 0.164083 0.288223
0.870235 0.330511 0.207521
0.400077 0.074268 0.129817
0.471899 0.168210 0.104501
0.508258 0.144562 0.315502
0.448085 0.327354 0.156721
0.514302 0.206439 0.695333
0.556254 0.239692 0.027129
0.599960 0.040202 0.166483
0.597140 0.338636 0.259351
0.103843 0.325444 0.124552
0.477540 0.265034 0.613897
0.172922 0.349701 0.150324
0.456478 0.233957 0.279051
0.086405 0.348705 0.140894
0.461102 0.184442 0.390413
0.435712 0.147454 0.293696
0.380778 0.332643 0.107551
0.472508 0.240114 0.696235
0.156834 0.153461 0.245718
0.471979 0.279124 0.054675
0.499672 0.342386 0.742675
0.815637 0.347893 0.175537
0.534352 0.226715 0.461560
0.580170 0.071414 0.146154
0.518208 0.283396 0.119984
0.513563 0.329020 0.182594
0.181618 0.153413 0.246136
0.523544 0.278218 0.143860
0.824266 0.149866 0.275782
0.526889 0.331643 0.228616
0.395098 0.332915 0.107353
0.579899 0.326463 0.114992
0.372103 0.220841 0.216097
0.541785 0.348443 0.168128
0.799746 0.153024 0.249755
0.468050 0.275894 0.395685
0.097485 0.139244 0.221725
0.478010 0.247221 0.265201
0.684083 0.156758 0.213417
0.455957 0.192185 0.159198
0.249767 0.328697 0.177428
0.699509 0.335305 0.284473
0.238472 0.341096 0.111870
0.654826 0.135209 0.148249
0.162733 0.347009 0.186798
0.963221 0.332743 0.160384
0.543988 0.185957 0.262432
0.180847 0.138028 0.202932
0.659739 0.139684 0.229241
0.377229 0.086979 0.115130
0.064666 0.134906 0.151970
0.462215 0.189802 0.130907
0.663539 0.153799 0.243189
0.503092 0.138626 0.212383
0.156758 0.135687 0.145414
0.554565 0.251831 0.051673
0.258372 0.135579 0.163511
0.599972 0.096474 0.153258
0.136143 0.342116 0.231772
0.849280 0.325875 0.118280
0.480148 0.138694 0.213429
0.952401 0.144519 0.315268
0.362626 0.138236 0.206261
0.481050 0.157385 0.089927
0.496016 0.340197 0.247545
0.515718 0.182653 0.505604
0.530303 0.269724 0.221880
0.495733 0.155052 0.085093
0.590754 0.344287 0.213891
0.365845 0.339447 0.253106
0.624919 0.071848 0.157430
0.539710 0.193158 0.365249
0.754409 0.340871 0.242547
0.525829 0.167586 0.335672
0.345556 0.147808 0.290985
0.491261 0.191156 0.585509
0.492364 0.332031 0.235893
0.553987 0.349336 0.147111
0.445184 0.334818 0.287984
0.716262 0.159239 0.180752
0.517493 0.278223 0.172059
0.358792 0.235698 0.668967
0.486428 0.162395 0.168311
0.750823 0.146417 0.301689
0.455940 0.211390 0.194697
0.700047 0.156124 0.221776
0.628214 0.290235 0.161182
0.501917 0.247704 0.279151
0.360296 0.150263 0.272516
0.472797 0.136872 0.185179
0.544039 0.222870 0.217006
0.467408 0.259755 0.487441
0.188743 0.141157 0.256673
0.502411 0.374906 0.723170
0.385796 0.153719 0.243692
0.130366 0.155538 0.228335
0.346988 0.235702 0.743884
0.449127 0.334432 0.107376
0.509263 0.240598 0.130934
0.939079 0.153591 0.146819
0.433617 0.151627 0.261217
0.861284 0.135339 0.147682
0.505387 0.272531 0.481803
0.855057 0.136617 0.181444
0.556131 0.235673 0.685811
0.056583 0.330853 0.208359
0.209595 0.330596 0.109006
0.523403 0.208311 0.596062
0.362769 0.235697 0.743373
0.552829 0.256510 0.109444
0.285248 0.157281 0.206292
0.507252 0.156053 0.053429
0.558335 0.159272 0.179703
0.499679 0.362160 0.731396
0.734100 0.135050 0.154819
0.025291 0.334748 0.166981
0.647032 0.338844 0.257817
0.232659 0.339595 0.251919
0.477233 0.170909 0.045406
0.522269 0.205535 0.609996
0.433212 0.157749 0.165269
0.570484 0.347319 0.182953
0.536441 0.328587 0.175891
0.506502 0.341903 0.113562
0.543252 0.278117 0.130954
0.087078 0.158938 0.176270
0.459296 0.184797 0.347025
0.075342 0.325418 0.120255
0.607481 0.103659 0.131424
0.646754 0.140002 0.235220
0.703284 0.325997 0.134292
0.504046 0.150124 0.273650
0.517454 0.139105 0.219817
0.499855 0.304252 0.687518
0.610076 0.137335 0.192438
0.796508 0.158904 0.185203
0.523080 0.230984 0.600183
0.441013 0.154163 0.240018
0.312401 0.348448 0.138602
0.850857 0.244321 0.257351
0.513580 0.252426 0.708587
0.707863 0.348241 0.136890
0.503604 0.268299 0.778513
0.540639 0.174939 0.106371
0.495023 0.065702 0.146104
0.567632 0.074316 0.153122
0.123870 0.147957 0.289727
0.206306 0.330860 0.213693
0.482397 0.276479 0.362812
0.182314 0.144681 0.314412
0.078191 0.142374 0.279504
0.499992 0.328722 0.177962
0.887356 0.342213 0.231411
0.753792 0.333194 0.257931
0.536000 0.243380 0.441441
0.792433 0.341907 0.113740
0.734502 0.326445 0.141922
0.806370 0.156975 0.158194
0.821913 0.158418 0.171803
0.715268 0.333837 0.270013
0.827706 0.346532 0.193470
0.930882 0.154554 0.237041
0.206752 0.332932 0.252682
0.286240 0.325657 0.128268
0.554038 0.155727 0.226926
0.139164 0.331263 0.221234
0.144033 0.338249 0.109613
0.554337 0.139580 0.227222
0.611449 0.157785 0.199836
0.841424 0.349321 0.156738
0.925782 0.140901 0.252289
0.595965 0.235685 0.723208
0.369343 0.225653 0.257684
0.588122 0.151302 0.264025
0.326676 0.151952 0.258436
0.848731 0.286134 0.228861
0.057947 0.156600 0.205708
0.457078 0.253496 0.242977
0.906461 0.334725 0.286817
0.067474 0.135738 0.166096
0.793415 0.154764 0.148961
0.539211 0.221301 0.377333
0.376516 0.098169 0.123095
0.464436 0.252279 0.450360
0.224863 0.343324 0.221730
0.605174 0.327640 0.161255
0.400073 0.061137 0.142553
0.059940 0.325464 0.120000
0.623674 0.136345 0.142185
0.616292 0.289950 0.035498
0.377362 0.235693 0.692518
0.470259 0.223941 0.523129
0.194502 0.156538 0.153711
0.374390 0.240143 0.736916
0.111253 0.140575 0.245676
0.372827 0.153545 0.146395
0.844324 0.327529 0.159675
0.426155 0.158846 0.185748
0.301249 0.157689 0.200926
0.852304 0.348289 0.170350
0.474082 0.280214 0.118064
0.461993 0.137538 0.195501
0.583351 0.328722 0.178008
0.140260 0.138789 0.214704
0.530114 0.067818 0.157754
0.877609 0.136625 0.141016
0.364820 0.137141 0.189283
0.131256 0.346669 0.191260
0.485764 0.330339 0.204059
0.292128 0.158294 0.170320
0.421089 0.062256 0.153080
0.651836 0.235701 0.710127
0.228702 0.325779 0.130315
0.469204 0.258805 0.130911
0.473787 0.326248 0.116071
0.152306 0.288456 0.143090
0.541780 0.264684 0.318044
0.500563 0.190248 0.130929
0.603956 0.044118 0.117892
0.396350 0.348179 0.171524
0.491775 0.167069 0.328329
0.417834 0.137810 0.199687
0.512484 0.278226 0.152861
0.257255 0.149639 0.277149
0.400074 0.092044 0.140845
0.891277 0.328249 0.170864
0.056801 0.332749 0.245749
0.688094 0.341259 0.239271
0.504006 0.166665 0.045422
0.150006 0.196075 0.234044
0.072489 0.340816 0.242605
0.176078 0.141781 0.268403
0.097983 0.330278 0.202679
0.467637 0.184836 0.490489
0.530324 0.198456 0.510860
0.777120 0.135752 0.166749
0.462700 0.179299 0.428843
0.148770 0.154993 0.161645
0.544072 0.269831 0.215321
0.503718 0.139647 0.228445
0.537160 0.274992 0.426050
0.865441 0.332387 0.242822
0.779315 0.148670 0.284749
0.304296 0.143673 0.304072
0.849996 0.303690 0.141436
0.246773 0.139931 0.233639
0.849267 0.223799 0.255434
0.210321 0.157680 0.164481
0.489724 0.325903 0.132579
0.586564 0.071169 0.159616
0.825086 0.152159 0.256998
0.436193 0.235675 0.760913
0.332648 0.346719 0.190715
0.124350 0.339296 0.254103
0.512135 0.243444 0.066191
0.358960 0.341316 0.238596
0.457319 0.203394 0.299445
0.477108 0.341265 0.239094
0.198930 0.138985 0.217779
0.662003 0.347504 0.180573
0.515543 0.240215 0.687639
0.507339 0.062330 0.150591
0.649577 0.327809 0.163899
0.731913 0.343408 0.116555
0.371430 0.074562 0.151109
0.439367 0.347771 0.176922
0.590038 0.325978 0.133908
0.436153 0.207275 0.115306
0.657232 0.333581 0.265156
0.713577 0.154146 0.240317
0.664920 0.325561 0.126874
0.457433 0.226930 0.302055
0.657896 0.143566 0.302279
0.696817 0.149757 0.276525
0.813835 0.153935 0.242145
0.424063 0.347129 0.185370
0.462575 0.206096 0.425694
0.499650 0.348775 0.779812
0.485731 0.328512 0.174689
0.362855 0.348032 0.173435
0.793356 0.139060 0.219288
0.655298 0.340300 0.246865
0.381495 0.137548 0.195598
0.878414 0.150755 0.141393
0.161785 0.343298 0.221906
0.853361 0.156829 0.212585
0.347365 0.158687 0.174060
0.162001 0.332354 0.241776
0.484953 0.162396 0.248821
0.733068 0.327956 0.166228
0.149631 0.234183 0.258233
0.476470 0.162403 0.155689
0.379807 0.069998 0.194315
0.951454 0.148729 0.145708
0.534576 0.186831 0.458479
0.835682 0.136532 0.180035
0.377313 0.025882 0.156730
0.529229 0.270863 0.103447
0.715210 0.142206 0.276718
0.394720 0.235688 0.745331
0.350818 0.326377 0.115310
0.534871 0.162520 0.267504
0.540799 0.197146 0.339877
0.836046 0.347203 0.127180
0.894429 0.343585 0.219938
0.702522 0.341219 0.239613
0.157530 0.339676 0.110524
0.537399 0.173715 0.418398
0.498090 0.162386 0.209620
0.748263 0.138024 0.203206
0.568606 0.155957 0.223902
0.205990 0.157524 0.203039
0.861104 0.140760 0.249611
0.485826 0.344796 0.209578
0.599960 0.104383 0.166173
0.535829 0.272994 0.443791
0.131945 0.158446 0.171663
0.415549 0.084615 0.151445
0.826048 0.137589 0.196502
0.529791 0.273689 0.459042
0.459166 0.216660 0.343744
0.066625 0.149699 0.276586
0.341079 0.338795 0.257998
0.103013 0.349577 0.149118
0.492366 0.180022 0.045595
0.687768 0.343749 0.218452
0.643929 0.235699 0.688052
0.745819 0.334920 0.287395
0.286707 0.340947 0.241635
0.532579 0.332396 0.242795
0.478986 0.264051 0.631951
0.655254 0.326896 0.149525
0.522996 0.165442 0.306752
0.581748 0.254215 0.028037
0.507778 0.275693 0.405066
0.632572 0.328072 0.111175
0.157772 0.329873 0.195601
0.900426 0.142885 0.289614
0.758108 0.158243 0.193890
0.620847 0.080449 0.192377
0.460636 0.241931 0.378913
0.885755 0.327468 0.158755
0.346118 0.151488 0.142472
0.446591 0.240949 0.101913
0.511211 0.243030 0.733734
0.721818 0.157934 0.167178
0.516423 0.257368 0.066194
0.742605 0.139189 0.221252
0.530806 0.344048 0.215852
0.544020 0.175072 0.196300
0.497468 0.271973 0.492731
0.865055 0.348593 0.166351
0.488311 0.284425 0.090559
0.455910 0.208014 0.245241
0.396982 0.136493 0.179123
0.627886 0.188144 0.179440
0.124708 0.328233 0.170157
0.881651 0.144319 0.316578
0.455899 0.175909 0.249948
0.441169 0.326503 0.114694
0.812860 0.148846 0.283449
0.408693 0.332115 0.237425
0.256220 0.348605 0.165821
0.466146 0.342513 0.228647
0.710159 0.346957 0.187798
0.680999 0.348184 0.136333
0.528726 0.240579 0.137523
0.890692 0.346672 0.191661
0.938181 0.159254 0.180676
0.372094 0.292320 0.232260
0.830397 0.328038 0.167551
0.235399 0.349204 0.157923
0.915709 0.144673 0.314907
0.683083 0.141569 0.264723
0.151471 0.270746 0.221049
0.618883 0.069235 0.140042
0.717479 0.327952 0.166150
0.277123 0.141322 0.259832
0.169688 0.327245 0.154861
0.148774 0.235092 0.154805
0.077057 0.135882 0.144325
0.952291 0.329818 0.148202
0.085756 0.330744 0.211436
0.468912 0.268143 0.506194
0.646331 0.143174 0.294887
0.460324 0.275530 0.371232
0.853711 0.340382 0.246366
0.500618 0.347147 0.126460
0.381938 0.335646 0.281716
0.487338 0.329361 0.187855
0.442021 0.344640 0.210856
0.453593 0.176304 0.131147
0.113564 0.152043 0.257546
0.396763 0.157781 0.199765
0.136394 0.327791 0.163307
0.269942 0.139562 0.226759
0.484691 0.278254 0.104969
0.576325 0.268249 0.036369
0.373366 0.310658 0.244330
0.092381 0.142384 0.279703
0.397346 0.349014 0.143987
0.527531 0.219903 0.066200
0.543626 0.197171 0.273879
0.646802 0.156473 0.153360
0.372097 0.205216 0.226956
0.267113 0.141980 0.272208
0.761133 0.349499 0.154344
0.806686 0.136736 0.183266
0.567559 0.235677 0.722980
0.570720 0.235678 0.760641
0.469947 0.208755 0.519272
0.373279 0.135479 0.146645
0.943236 0.346617 0.180150
0.310859 0.159193 0.181112
0.499673 0.328166 0.741271
0.569023 0.246706 0.027750
0.544025 0.208886 0.226244
0.522229 0.340750 0.243397
0.758842 0.155478 0.150297
0.553827 0.258310 0.095894
0.911634 0.328217 0.170371
0.455957 0.263877 0.186022
0.918219 0.326610 0.144836
0.492834 0.196847 0.639135
0.657153 0.158813 0.186324
0.717386 0.156717 0.213979
0.486316 0.277026 0.332539
0.499366 0.182710 0.506008
0.744438 0.157402 0.204974
0.558575 0.235674 0.670218
0.542318 0.252146 0.305271
0.479999 0.198659 0.644751
0.383118 0.105216 0.133620
0.148283 0.349009 0.143794
0.542807 0.214304 0.293264
0.750916 0.345127 0.206962
0.603360 0.237715 0.653760
0.396336 0.073743 0.149705
0.432544 0.235676 0.639500
0.455947 0.178779 0.171421
0.884240 0.349197 0.158398
0.039994 0.148456 0.233730
0.439335 0.114854 0.151875
0.483755 0.156953 0.112599
0.499659 0.275092 0.764603
0.423094 0.095729 0.149923
0.406944 0.138361 0.208222
0.489091 0.169833 0.130923
0.271319 0.136002 0.170703
0.481598 0.207158 0.663186
0.174150 0.157290 0.160788
0.056519 0.154892 0.150156
0.469126 0.199625 0.509041
0.544030 0.188668 0.193721
0.459321 0.225192 0.053148
0.065390 0.149367 0.139497
0.577293 0.346478 0.122299
0.439908 0.194923 0.061008
0.313356 0.149762 0.276259
0.416086 0.138984 0.217894
0.496799 0.263697 0.652938
0.299466 0.334673 0.285496
0.234996 0.140492 0.244193
0.300485 0.148132 0.288517
0.490113 0.163912 0.285757
0.056820 0.326709 0.135142
0.636699 0.330108 0.199806
0.974586 0.334980 0.168523
0.166491 0.330933 0.215051
0.400070 0.086968 0.155447
0.371932 0.260376 0.183797
0.580865 0.345929 0.200157
0.135797 0.140894 0.251701
0.146187 0.343437 0.220739
0.150189 0.179191 0.175918
0.271686 0.334447 0.107280
0.104883 0.136500 0.141053
0.760412 0.347933 0.174977
0.079039 0.155428 0.229221
0.475306 0.269592 0.045405
0.475174 0.064812 0.146272
0.382235 0.158392 0.191709
0.539912 0.231089 0.047016
0.493046 0.275720 0.404163
0.897869 0.137411 0.193782
0.119218 0.157553 0.202611
0.834114 0.335015 0.286732
0.761716 0.347622 0.131091
0.937999 0.138991 0.218303
0.174951 0.332768 0.249581
0.942165 0.347560 0.137696
0.500797 0.348421 0.168401
0.654380 0.238532 0.737663
0.758800 0.153286 0.247536
0.572161 0.138378 0.208592
0.542963 0.247254 0.290150
0.930252 0.329906 0.196566
0.143156 0.136729 0.182767
0.533840 0.244603 0.468000
0.895678 0.336065 0.278870
0.771443 0.330061 0.198989
0.673021 0.341444 0.237710
0.314144 0.347115 0.185488
0.151098 0.206954 0.224399
0.211276 0.135589 0.163655
0.905165 0.344548 0.211893
0.613225 0.340085 0.248454
0.521917 0.247797 0.614592
0.866446 0.326183 0.137545
0.403958 0.341482 0.112702
0.456779 0.205969 0.286459
0.700957 0.148089 0.289081
0.611098 0.334493 0.282277
0.539840 0.209232 0.066103
0.439408 0.141929 0.271344
0.914729 0.148074 0.289319
0.372666 0.240143 0.672761
0.623622 0.088703 0.123490
0.146470 0.332493 0.244376
0.558774 0.248538 0.130480
0.230646 0.141847 0.269675
0.376320 0.135833 0.167895
0.860381 0.156447 0.153241
0.468028 0.197466 0.495350
0.500694 0.269177 0.546793
0.466326 0.177529 0.456943
0.777270 0.348537 0.139714
0.499666 0.334462 0.753629
0.554404 0.240122 0.715300
0.510616 0.179460 0.045426
0.102398 0.142888 0.289184
0.509390 0.170613 0.376274
0.766272 0.149281 0.280149
0.036236 0.145667 0.257100
0.399133 0.081206 0.192089
0.836888 0.135498 0.162480
0.503125 0.260441 0.066186
0.297222 0.138135 0.204657
0.598623 0.334068 0.274280
0.667679 0.138491 0.210392
0.433145 0.102697 0.154877
0.517670 0.216582 0.664896
0.326676 0.334452 0.107316
0.454426 0.181362 0.048571
0.560074 0.246018 0.096571
0.469784 0.169700 0.363539
0.699335 0.347594 0.179411
0.254022 0.345542 0.203196
0.400065 0.067255 0.170231
0.247998 0.342453 0.229025
0.849496 0.307600 0.239800
0.623607 0.044929 0.140579
0.935123 0.138116 0.204740
0.467517 0.344665 0.210663
0.109128 0.342539 0.228220
0.544065 0.256078 0.211243
0.511096 0.271271 0.506116
0.499666 0.351955 0.752701
0.507812 0.276129 0.381014
0.521528 0.255433 0.047613
0.883079 0.329493 0.190142
0.576292 0.144653 0.314855
0.943398 0.140449 0.235909
0.927400 0.144261 0.136774
0.916617 0.138009 0.203072
0.228109 0.326602 0.144286
0.507460 0.176715 0.449603
0.438865 0.348112 0.135511
0.519978 0.139911 0.233428
0.528155 0.202401 0.537569
0.232108 0.158917 0.184705
0.544047 0.244104 0.228006
0.545915 0.136068 0.171994
0.568116 0.349254 0.146351
0.472919 0.191322 0.556397
0.835691 0.325584 0.127360
0.856222 0.331729 0.230426
0.534335 0.278210 0.185144
0.628846 0.245125 0.197903
0.133701 0.326729 0.146380
0.539342 0.144302 0.316047
0.679937 0.330125 0.200147
0.931236 0.331612 0.228278
0.181843 0.328712 0.110421
0.512438 0.240110 0.701418
0.608801 0.138311 0.207573
0.461646 0.192351 0.403443
0.420530 0.144322 0.316358
0.551426 0.158164 0.194809
0.274371 0.345844 0.120915
0.491835 0.276231 0.376072
0.351554 0.334834 0.287808
0.085327 0.135682 0.165150
0.503611 0.358751 0.766056
0.534075 0.236217 0.626493
0.810136 0.332417 0.243350
0.544053 0.186829 0.154138
0.463757 0.239717 0.441910
0.400077 0.102967 0.130359
0.836498 0.343199 0.223132
0.644007 0.240148 0.724705
0.825431 0.348033 0.135001
0.450633 0.136501 0.179282
0.864646 0.151079 0.266055
0.879285 0.326696 0.146268
0.704319 0.152909 0.250657
0.820893 0.325814 0.131249
0.498009 0.135966 0.170220
0.373844 0.146264 0.302612
0.776697 0.341334 0.238693
0.037488 0.148452 0.206870
0.257240 0.347085 0.185847
0.443913 0.253624 0.086547
0.731435 0.325317 0.122763
0.485358 0.223270 0.032318
0.528045 0.279192 0.064652
0.539139 0.274249 0.379851
0.211004 0.155050 0.149159
0.730015 0.136090 0.172468
0.154804 0.344811 0.209249
0.830570 0.144459 0.316471
0.649753 0.329861 0.195704
0.900378 0.328987 0.182310
0.731853 0.156469 0.153379
0.520775 0.072042 0.146832
0.441498 0.125512 0.213459
0.740636 0.332400 0.242993
0.531599 0.347657 0.178481
0.240186 0.144243 0.136355
0.532893 0.233512 0.479558
0.151512 0.302474 0.152718
0.378978 0.235692 0.750678
0.854973 0.325786 0.130800
0.544012 0.188672 0.224171
0.433459 0.327855 0.164484
0.848797 0.330334 0.204182
0.633674 0.156348 0.218792
0.596163 0.325823 0.118408
0.623592 0.096996 0.156535
0.161411 0.333382 0.261120
0.571590 0.108137 0.151028
0.513699 0.227959 0.707192
0.908650 0.332263 0.240514
0.744341 0.331709 0.229989
0.287341 0.152087 0.143575
0.450912 0.135630 0.164497
0.463333 0.248101 0.259642
0.285123 0.349041 0.144172
0.212096 0.142899 0.289468
0.957881 0.144999 0.291474
0.266516 0.154051 0.240848
0.847825 0.139025 0.218772
0.152727 0.192646 0.260188
0.150824 0.254072 0.214077
0.912611 0.347861 0.176025
0.296324 0.332090 0.236897
0.209470 0.328252 0.170499
0.397816 0.139052 0.218927
0.369558 0.244371 0.149197
0.249602 0.138297 0.207138
0.147303 0.346289 0.196275
0.537963 0.349354 0.147268
0.252116 0.155401 0.229552
0.812031 0.330956 0.215865
0.280159 0.328021 0.166966
0.920105 0.331001 0.216768
0.722885 0.141567 0.264710
0.702301 0.139409 0.224640
0.731034 0.335012 0.286692
0.774740 0.151791 0.260049
0.731565 0.154455 0.237749
0.362016 0.152189 0.256476
0.532307 0.277007 0.087132
0.499658 0.295303 0.765896
0.474440 0.278256 0.207244
0.865558 0.157294 0.206467
0.177366 0.143308 0.297142
0.374479 0.347451 0.181094
0.424938 0.156972 0.210440
0.332815 0.153561 0.244984
0.252742 0.141644 0.265886
0.954009 0.338597 0.235955
0.929524 0.325556 0.126940
0.728305 0.157449 0.204334
0.400074 0.044499 0.140838
0.482617 0.183188 0.058573
0.494936 0.264494 0.637535
0.629220 0.211765 0.221015
0.629571 0.255101 0.147895
0.186102 0.158162 0.194619
0.466285 0.244339 0.047877
0.150798 0.269957 0.145597
0.144206 0.329458 0.189168
0.037952 0.331904 0.177160
0.308470 0.329778 0.194216
0.259101 0.339754 0.110634
0.289615 0.137419 0.193552
0.353442 0.156510 0.153541
0.409925 0.144220 0.136441
0.929043 0.137329 0.192525
0.624538 0.137868 0.200714
0.027064 0.144206 0.168503
0.623588 0.041665 0.161336
0.131309 0.135944 0.169641
0.398678 0.344589 0.211257
0.455938 0.178063 0.184960
0.499679 0.316871 0.731096
0.358666 0.330842 0.213441
0.421486 0.325324 0.122701
0.764274 0.135382 0.160470
0.599986 0.086250 0.137348
0.504575 0.191999 0.593559
0.724252 0.331909 0.108313
0.507645 0.181533 0.494988
0.440967 0.202633 0.049893
0.641520 0.136067 0.172022
0.778229 0.337934 0.264735
0.462520 0.140114 0.237218
0.231789 0.142596 0.283779
0.151984 0.178682 0.260792
0.455962 0.176289 0.144220
0.499644 0.273396 0.790071
0.356376 0.327518 0.159202
0.628927 0.226871 0.151724
0.159074 0.158003 0.196699
0.427375 0.345855 0.200683
0.473867 0.271302 0.132605
0.398967 0.036588 0.181055
0.466073 0.236348 0.470839
0.501701 0.137775 0.199189
0.462217 0.228789 0.416963
0.352014 0.330124 0.199933
0.658250 0.326593 0.114343
0.948896 0.137647 0.154283
0.462583 0.266296 0.047749
0.253543 0.137329 0.192139
0.777297 0.156020 0.223197
0.867465 0.139374 0.224197
0.849948 0.272900 0.222199
0.461771 0.250869 0.406140
0.607440 0.325829 0.131382
0.885525 0.148271 0.287816
0.549339 0.263173 0.084288
0.203461 0.346178 0.197768
0.379478 0.158915 0.176230
0.523154 0.228214 0.026088
0.561917 0.242411 0.081513
0.518751 0.223016 0.653382
0.456456 0.278270 0.156676
0.693193 0.157519 0.203396
0.612312 0.154089 0.240740
0.321600 0.329561 0.190868
0.044907 0.144356 0.303029
0.508283 0.146788 0.298754
0.097328 0.158322 0.192465
0.515518 0.163876 0.132440
0.503605 0.289534 0.777559
0.463982 0.220700 0.444774
0.595000 0.137057 0.188113
0.467515 0.230147 0.488853
0.136304 0.142872 0.288906
0.029268 0.144762 0.240613
0.130443 0.345253 0.119706
0.071079 0.344914 0.208340
0.824762 0.158780 0.186860
0.654491 0.141004 0.254079
0.541938 0.235669 0.741451
0.576796 0.348122 0.135686
0.150254 0.225615 0.212495
0.458757 0.347557 0.130294
0.095039 0.331582 0.227217
0.459601 0.227130 0.354120
0.438555 0.197558 0.079485
0.113515 0.348217 0.136306
0.623623 0.066242 0.122955
0.383426 0.138650 0.212683
0.561095 0.124784 0.212806
0.192284 0.326244 0.138179
0.245060 0.326805 0.147744
0.435317 0.227975 0.081038
0.453634 0.251796 0.045392
0.714305 0.346952 0.124751
0.544027 0.196888 0.209377
0.786843 0.155096 0.232421
0.476530 0.162403 0.214174
0.671319 0.155794 0.226115
0.800882 0.154714 0.235621
0.218033 0.158717 0.187326
0.947902 0.140090 0.208911
0.124422 0.140367 0.241775
0.529055 0.193275 0.526443
0.923645 0.329165 0.185075
0.564010 0.233004 0.091704
0.789293 0.157880 0.166714
0.762627 0.155748 0.226771
0.931732 0.326685 0.146106
0.364671 0.333849 0.270015
0.628121 0.265418 0.249978
0.198926 0.325973 0.117373
0.057190 0.154512 0.230303
0.465180 0.223358 0.459721
0.553400 0.329846 0.109780
0.195545 0.152750 0.251687
0.503658 0.272870 0.675191
0.771331 0.158881 0.185495
0.333779 0.136426 0.177934
0.364706 0.240146 0.721015
0.541116 0.142425 0.280747
0.184277 0.327005 0.151111
0.412281 0.071729 0.146226
0.405516 0.175375 0.035971
0.413091 0.331215 0.220495
0.915288 0.159143 0.182129
0.609763 0.240138 0.725826
0.513542 0.214716 0.708788
0.515945 0.278224 0.187825
0.567422 0.135801 0.167466
0.899107 0.327328 0.111898
0.551686 0.334817 0.288052
0.604907 0.155265 0.149802
0.827373 0.338805 0.258215
0.379208 0.235692 0.718328
0.588685 0.158061 0.196197
0.384138 0.143177 0.294791
0.500168 0.280995 0.811405
0.591502 0.063102 0.149304
0.371503 0.259551 0.151681
0.467681 0.158126 0.195263
0.596228 0.135893 0.169042
0.468902 0.193493 0.065669
0.668381 0.326741 0.146908
0.436132 0.336891 0.272384
0.455915 0.199420 0.233394
0.910830 0.344443 0.118628
0.533010 0.219853 0.478003
0.498656 0.270471 0.521780
0.560954 0.329921 0.196591
0.467837 0.328830 0.179617
0.887259 0.348204 0.136649
0.759754 0.157726 0.165244
0.334951 0.135545 0.162983
0.786243 0.138306 0.207590
0.413514 0.158257 0.193500
0.370910 0.295259 0.159523
0.225190 0.336947 0.271835
0.223068 0.333285 0.259335
0.599944 0.041182 0.184830
0.275259 0.140214 0.238988
0.521639 0.173217 0.411507
0.499661 0.314824 0.761758
0.610442 0.090896 0.117876
0.501454 0.179020 0.057854
0.758893 0.330377 0.204942
0.660985 0.157674 0.201329
0.650054 0.328839 0.179865
0.299939 0.135443 0.161221
0.057596 0.346494 0.182027
0.171938 0.341174 0.239667
0.504398 0.265077 0.130932
0.474943 0.245179 0.581534
0.118360 0.156438 0.217293
0.606848 0.135266 0.158401
0.467816 0.243976 0.492571
0.372555 0.140195 0.238687
0.456830 0.222935 0.287582
0.350303 0.349206 0.145768
0.929079 0.347021 0.125523
0.672178 0.140995 0.253919
0.882536 0.336500 0.275591
0.626759 0.144302 0.316113
0.637300 0.240146 0.749164
0.781549 0.326417 0.141470
0.722903 0.331211 0.220605
0.959762 0.149364 0.163051
0.595731 0.240134 0.679314
0.613662 0.157719 0.165092
0.310057 0.325566 0.126746
0.480827 0.278251 0.190098
0.460030 0.200779 0.364576
0.834159 0.140959 0.253336
0.459815 0.153186 0.248196
0.503542 0.285731 0.091180
0.734683 0.138394 0.208923
0.234000 0.154425 0.237705
0.514680 0.162373 0.195817
0.520626 0.231276 0.630368
0.414653 0.134951 0.152932
0.838567 0.157087 0.159262
0.696249 0.140935 0.252802
0.398412 0.240136 0.667157
0.235398 0.327429 0.157760
0.449376 0.333920 0.271404
0.510093 0.335169 0.285379
0.537123 0.338691 0.258900
0.694904 0.347516 0.130044
0.273344 0.155159 0.149404
0.530720 0.162360 0.133579
0.168403 0.348269 0.136835
0.622141 0.054235 0.169622
0.578698 0.156836 0.212322
0.422802 0.152568 0.144570
0.520497 0.345717 0.201894
0.434381 0.218434 0.127505
0.483296 0.271260 0.320985
0.504137 0.278967 0.103759
0.322062 0.138548 0.211079
0.479998 0.334726 0.286590
0.653559 0.346117 0.198628
0.153869 0.149348 0.139538
0.408821 0.349471 0.154516
0.592556 0.347220 0.127204
0.369399 0.154557 0.165921
0.460564 0.207605 0.054164
0.305123 0.342450 0.229086
0.565825 0.219073 0.091208
0.543748 0.162350 0.207181
0.469051 0.217669 0.508065
0.516563 0.200473 0.664545
0.369729 0.274330 0.149676
0.673262 0.327800 0.163775
0.533552 0.195327 0.471146
0.407044 0.144428 0.316450
0.528094 0.271325 0.132446
0.154598 0.155073 0.232238
0.073561 0.155221 0.149403
0.673445 0.338427 0.260967
0.321153 0.346476 0.122143
0.418655 0.333326 0.260221
0.848720 0.205272 0.226096
0.810950 0.348525 0.139627
0.639028 0.240147 0.704093
0.280727 0.333271 0.259091
0.809706 0.330263 0.202823
0.503622 0.316713 0.748092
0.524560 0.162365 0.256930
0.512676 0.274916 0.435526
0.856843 0.155263 0.231067
0.511729 0.194447 0.616679
0.780274 0.332889 0.252207
0.630580 0.278448 0.250210
0.681887 0.331484 0.225726
0.222716 0.153320 0.246931
0.686118 0.145101 0.137163
0.074086 0.330379 0.204574
0.345794 0.331565 0.227048
0.395079 0.240137 0.688801
0.278170 0.326999 0.151051
0.473359 0.142158 0.275670
0.592313 0.144922 0.312840
0.471003 0.208684 0.532451
0.056205 0.142568 0.282240
0.456830 0.164542 0.287898
0.417295 0.235681 0.727207
0.557165 0.209570 0.046833
0.242351 0.135111 0.155549
0.093105 0.146348 0.301814
0.453611 0.338965 0.256791
0.841598 0.345711 0.202134
0.525814 0.240113 0.704977
0.525716 0.171169 0.383949
0.423360 0.330616 0.209240
0.745155 0.136232 0.174893
0.283702 0.144498 0.315846
0.416847 0.328861 0.180072
0.536358 0.152544 0.253605
0.610606 0.108258 0.143467
0.361322 0.157964 0.197331
0.485483 0.139776 0.230867
0.623583 0.085941 0.166531
0.324936 0.154149 0.147514
0.540821 0.149365 0.139777
0.291560 0.342864 0.115261
0.812562 0.155809 0.225993
0.792326 0.336860 0.272826
0.373419 0.232699 0.154893
0.549707 0.325317 0.122658
0.526435 0.268464 0.559221
0.775042 0.330792 0.212745
0.683201 0.157404 0.162160
0.312089 0.144404 0.316573
0.584094 0.340899 0.111699
0.542133 0.194195 0.308697
0.912788 0.325407 0.124395
0.373356 0.189173 0.260945
0.473266 0.209508 0.560690
0.259982 0.140975 0.253288
0.455949 0.256824 0.197778
0.868415 0.347468 0.181172
0.500025 0.193462 0.607310
0.875639 0.343373 0.221700
0.554460 0.183599 0.075546
0.568446 0.150888 0.141463
0.428637 0.142475 0.281623
0.717417 0.342810 0.226320
0.567293 0.156662 0.155099
0.104251 0.332469 0.243898
0.084401 0.332586 0.246092
0.363899 0.235696 0.682225
0.870071 0.138499 0.210637
0.630063 0.140030 0.235726
0.127435 0.138071 0.203559
0.599987 0.049461 0.136760
0.429411 0.072717 0.147947
0.062813 0.342851 0.225585
0.455458 0.235670 0.703707
0.256567 0.146180 0.303177
0.561148 0.349163 0.158655
0.670059 0.332713 0.248834
0.914957 0.157910 0.167070
0.086420 0.144461 0.316012
0.507721 0.139119 0.138901
0.842051 0.346919 0.188385
0.541877 0.205945 0.314864
0.773064 0.140006 0.235365
0.030945 0.143989 0.149579
0.542163 0.225622 0.308479
0.083076 0.139380 0.223826
0.524915 0.233446 0.066199
0.527319 0.230710 0.548045
0.137006 0.157623 0.201696
0.471622 0.208199 0.066167
0.178955 0.135375 0.160007
0.150854 0.235186 0.202873
0.550653 0.178801 0.116105
0.831578 0.344670 0.210834
0.562276 0.198930 0.095439
0.929786 0.328343 0.172346
0.555818 0.152734 0.144963
0.466079 0.204820 0.470998
0.797007 0.156046 0.222866
0.863120 0.333444 0.262707
0.396158 0.235687 0.701513
0.370668 0.189599 0.179481
0.475328 0.165264 0.130914
0.485778 0.149496 0.278368
0.150399 0.291516 0.162247
0.524712 0.242910 0.580192
0.878252 0.348246 0.170927
0.096475 0.341370 0.237988
0.530446 0.212572 0.509461
0.064048 0.140359 0.241590
0.445735 0.236257 0.634166
0.066131 0.137533 0.195183
0.825827 0.155569 0.228485
0.400066 0.034878 0.167709
0.502554 0.176718 0.130930
0.535808 0.235667 0.718432
0.181351 0.155312 0.230254
0.721747 0.140178 0.238565
0.679181 0.138926 0.217151
0.948930 0.143201 0.281004
0.950758 0.337671 0.254043
0.383877 0.240140 0.703806
0.073979 0.326135 0.136267
0.686296 0.136488 0.179209
0.561811 0.237915 0.109797
0.466750 0.246799 0.273413
0.399155 0.039439 0.120901
0.198971 0.149880 0.139901
0.635240 0.240146 0.666417
0.642127 0.326447 0.141905
0.481956 0.282653 0.131074
0.503639 0.323249 0.720136
0.923886 0.155862 0.225366
0.321077 0.341746 0.234974
0.517921 0.136422 0.177987
0.235321 0.137455 0.194066
0.907050 0.154736 0.148976
0.520013 0.220087 0.637839
0.944749 0.331906 0.222422
0.539243 0.243704 0.376943
0.848848 0.164024 0.164921
0.455918 0.215778 0.234185
0.540746 0.242508 0.341836
0.529522 0.158326 0.170767
0.193891 0.156005 0.223044
0.483036 0.194413 0.616130
0.094561 0.339606 0.251753
0.769939 0.326862 0.149018
0.477621 0.209784 0.615047
0.601243 0.151711 0.260611
0.504826 0.227387 0.049058
0.428170 0.135159 0.156475
0.695163 0.140222 0.239390
0.455894 0.191683 0.265042
0.634185 0.348729 0.164424
0.509086 0.169629 0.363011
0.653288 0.342114 0.114051
0.934151 0.144644 0.315138
0.455932 0.182777 0.197336
0.750145 0.135258 0.158345
0.265797 0.157811 0.199290
0.221522 0.155285 0.230508
0.960070 0.150792 0.199474
0.455891 0.162633 0.259256
0.206983 0.138045 0.203205
0.464421 0.278263 0.190244
0.704311 0.328021 0.167214
0.669661 0.347171 0.126787
0.539753 0.139624 0.228046
0.729352 0.341665 0.235898
0.591516 0.237096 0.777136
0.341108 0.333920 0.106988
0.523596 0.257693 0.306568
0.732274 0.139726 0.230085
0.054768 0.137322 0.174334
0.889757 0.138193 0.205902
0.542784 0.269748 0.074867
0.312409 0.331882 0.232986
0.383245 0.136559 0.180220
0.152735 0.317452 0.245919
0.473758 0.249243 0.288856
0.849328 0.275277 0.172719
0.519481 0.214363 0.130940
0.108350 0.153901 0.242012
0.484889 0.343516 0.116615
0.240542 0.146471 0.300981
0.787526 0.331132 0.219151
0.677259 0.329058 0.183280
0.848858 0.194295 0.263750
0.561935 0.061890 0.152529
0.571374 0.235678 0.661126
0.556983 0.227045 0.101639
0.392519 0.168938 0.033072
0.521945 0.282305 0.076196
0.455605 0.235567 0.045394
0.484947 0.219755 0.130920
0.109534 0.328168 0.169134
0.290246 0.156890 0.157086
0.817005 0.328060 0.167885
0.932200 0.346147 0.198551
0.052581 0.153408 0.217452
0.230143 0.136436 0.178053
0.558484 0.131667 0.153318
0.486233 0.156202 0.220630
0.687976 0.135612 0.164332
0.458615 0.206926 0.330553
0.208370 0.159101 0.177880
0.481026 0.273763 0.458303
0.298797 0.346668 0.191369
0.545009 0.154442 0.237743
0.516839 0.240112 0.745624
0.408291 0.328223 0.110927
0.931071 0.333178 0.257738
0.461700 0.210238 0.035516
0.493007 0.274126 0.451105
0.371010 0.220464 0.197081
0.526981 0.201999 0.552005
0.503621 0.258192 0.750567
0.762940 0.344380 0.213214
0.842564 0.152470 0.254412
0.347188 0.347152 0.185015
0.400075 0.031627 0.135395
0.463061 0.334833 0.287880
0.051350 0.345324 0.139492
0.148781 0.311060 0.142612
0.100876 0.333427 0.261932
0.496580 0.162743 0.270078
0.499644 0.318952 0.790003
0.567689 0.141822 0.269420
0.623600 0.030352 0.147581
0.223031 0.327760 0.162879
0.911146 0.145507 0.137553
0.434237 0.148505 0.139170
0.513418 0.171840 0.392857
0.528417 0.254020 0.135543
0.899486 0.349489 0.148761
0.067806 0.327144 0.153242
0.047247 0.334781 0.286513
0.447590 0.240121 0.647176
0.816181 0.337551 0.267642
0.518962 0.162370 0.222270
0.455951 0.238947 0.186922
0.843109 0.330983 0.216392
0.892671 0.346760 0.123044
0.464629 0.266404 0.316116
0.523591 0.243391 0.593983
0.822786 0.343732 0.117226
0.623617 0.035712 0.129704
0.873755 0.156474 0.217268
0.770946 0.152955 0.145510
0.539833 0.235668 0.645132
0.527914 0.147937 0.290119
0.388032 0.345613 0.202687
0.503619 0.299287 0.753541
0.437299 0.200101 0.092786
0.867759 0.137411 0.193762
0.464451 0.265890 0.450509
0.524496 0.325512 0.120021
0.641114 0.136456 0.141607
0.399840 0.047753 0.189237
0.846752 0.333270 0.259416
0.936271 0.149980 0.274991
0.447394 0.198135 0.101574
0.421832 0.136978 0.186784
0.370650 0.249821 0.210249
0.531923 0.227253 0.491423
0.646235 0.157391 0.205053
0.402562 0.160409 0.029739
0.528973 0.215078 0.527594
0.490862 0.220843 0.762988
0.458199 0.330895 0.214501
0.504022 0.220514 0.767945
0.196966 0.327629 0.160832
0.264190 0.135066 0.148780
0.452543 0.343199 0.222909
0.209843 0.347969 0.134030
0.618874 0.085744 0.150033
0.919239 0.345403 0.204758
0.213530 0.330083 0.199077
0.481194 0.326588 0.144201
0.370968 0.141403 0.261420
0.414279 0.329778 0.194284
0.460146 0.235603 0.367173
0.588505 0.276338 0.035084
0.142016 0.141520 0.263475
0.763466 0.346674 0.191564
