0.369412 0.071747 0.339892
0.332311 0.077903 0.812070
0.425557 0.043452 0.264904
0.300093 0.029818 0.839732
0.269103 0.162437 0.085854
0.324141 0.040997 0.970518
0.108628 0.045228 0.208732
0.319420 0.096728 0.254037
0.287807 0.057722 0.590877
0.380250 0.041326 0.386726
0.313916 0.093717 0.755702
0.308158 0.101439 0.333341
0.339490 0.100793 0.319209
0.552508 0.043738 0.304387
0.268101 0.159892 0.127708
0.292440 0.082793 0.513199
0.263454 0.051864 0.495864
0.355645 0.094652 0.571950
0.266284 0.170425 0.081994
0.297433 0.036868 0.510379
0.449765 0.045195 0.201457
0.284297 0.068677 0.069831
0.286744 0.105971 0.097111
0.343793 0.112003 0.436776
0.355409 0.052351 0.783055
0.361671 0.035577 0.589019
0.358890 0.041407 0.179732
0.467776 0.043905 0.159811
0.583476 0.041443 0.305252
0.182510 0.043190 0.273008
0.560665 0.043227 0.236823
0.203406 0.041623 0.427108
0.562779 0.044262 0.170878
0.340587 0.028989 0.806753
0.402263 0.046339 0.342307
0.308381 0.032399 0.655268
0.316679 0.049180 0.050118
0.350877 0.046712 0.863405
0.388302 0.045974 0.553472
0.303853 0.126705 0.588896
0.560075 0.045073 0.269562
0.291421 0.085522 0.592621
0.292792 0.089028 0.726870
0.381988 0.072607 0.494475
0.415366 0.045832 0.391673
0.401118 0.046144 0.398178
0.268082 0.161321 0.077041
0.191869 0.044365 0.174495
0.103540 0.040767 0.347490
0.361092 0.071992 0.584472
0.356319 0.068536 0.681813
0.376793 0.151959 0.106718
0.361186 0.060026 0.550610
0.296518 0.086267 0.136116
0.316275 0.121907 0.678629
0.367029 0.054225 0.365963
0.353865 0.048476 0.049167
0.271065 0.156620 0.070365
0.366254 0.088199 0.482960
0.045691 0.044307 0.251267
0.339808 0.102328 0.347144
0.151660 0.042675 0.283698
0.330753 0.094637 0.220083
0.269844 0.057946 0.444474
0.322628 0.034559 0.525663
0.322120 0.027504 0.765672
0.339326 0.099738 0.299426
0.282094 0.037233 0.438210
0.349666 0.089924 0.221472
0.056669 0.043845 0.169984
0.323900 0.061068 0.874223
0.153141 0.043830 0.178439
0.361982 0.108524 0.111329
0.271699 0.040991 0.506450
0.403923 0.041235 0.375140
0.324055 0.029882 0.694635
0.392529 0.202404 0.088389
0.371598 0.136201 0.164716
0.364150 0.050927 0.068782
0.359664 0.087845 0.376547
0.326875 0.118517 0.447527
0.348613 0.041419 0.176959
0.176024 0.043776 0.206234
0.379299 0.044840 0.190269
0.379586 0.077351 0.479034
0.309033 0.050800 0.915590
0.539282 0.043855 0.165131
0.311324 0.089204 0.095288
0.291352 0.074461 0.568350
0.261213 0.042310 0.343843
0.379859 0.161564 0.087196
0.368834 0.046006 0.506450
0.316055 0.129149 0.645822
0.328754 0.034178 0.540584
0.349757 0.111613 0.642663
0.367002 0.069445 0.117324
0.312567 0.111928 0.393983
0.329440 0.041278 0.210123
0.330097 0.129177 0.645660
0.173153 0.041998 0.396018
0.373930 0.060519 0.254976
0.369834 0.069461 0.174962
0.093716 0.043932 0.160211
0.242412 0.045822 0.221873
0.287185 0.081749 0.122929
0.447410 0.045640 0.215821
0.291278 0.076734 0.661056
0.320830 0.028736 0.883190
0.462005 0.045853 0.306375
0.298513 0.098333 0.717608
0.345376 0.093701 0.297168
0.475184 0.040932 0.361918
0.289883 0.039697 0.345823
0.336537 0.041124 0.246513
0.358613 0.089984 0.404236
0.377573 0.160105 0.115573
0.350047 0.081270 0.051067
0.340606 0.125625 0.540305
0.269096 0.162115 0.061766
0.410688 0.043868 0.159226
0.374998 0.146465 0.133986
0.350761 0.080340 0.783172
0.317987 0.057010 0.025331
0.306920 0.030621 0.738840
0.382577 0.030780 0.668206
0.384442 0.035875 0.495579
0.341748 0.034766 0.552147
0.172807 0.040413 0.384824
0.282872 0.057220 0.506450
0.311189 0.107389 0.365215
0.243849 0.041365 0.370096
0.577096 0.042919 0.242820
0.292427 0.100825 0.554453
0.388951 0.046487 0.400159
0.361117 0.047668 0.582445
0.316735 0.035887 0.473611
0.411105 0.026359 0.701125
0.529842 0.043581 0.226998
0.288553 0.041475 0.163770
0.299550 0.037723 0.443928
0.266721 0.164844 0.152950
0.324538 0.103872 0.315248
0.340772 0.033592 0.619535
0.392064 0.200531 0.057637
0.330125 0.099490 0.739448
0.410124 0.042076 0.340235
0.258203 0.036672 0.546004
0.340550 0.093836 0.220436
0.347978 0.109593 0.485088
0.278586 0.064961 0.387998
0.291328 0.059451 0.722848
0.361417 0.109919 0.223793
0.358917 0.106218 0.205420
0.304163 0.031057 0.757341
0.207082 0.043736 0.227007
0.379600 0.074725 0.470681
0.360779 0.088815 0.474475
0.373567 0.053992 0.315871
0.276952 0.133528 0.157391
0.335382 0.030823 0.902554
0.270588 0.153795 0.081966
0.292937 0.056821 0.805383
0.362848 0.041018 0.259800
0.339247 0.127957 0.643084
0.291305 0.077133 0.578208
0.381494 0.171521 0.136155
0.332968 0.043680 0.953571
0.268244 0.042960 0.318111
0.501650 0.043847 0.169406
0.420189 0.046231 0.237721
0.187636 0.045898 0.255420
0.120940 0.042676 0.342028
0.099651 0.045157 0.221640
0.428207 0.043704 0.235070
0.366810 0.065798 0.099741
0.358737 0.085602 0.488575
0.293646 0.086875 0.469362
0.286116 0.070445 0.059879
0.366390 0.125559 0.050542
0.273995 0.145871 0.184032
0.379891 0.166816 0.124459
0.354270 0.042779 0.112395
0.387670 0.035679 0.557202
0.383875 0.043084 0.308794
0.261716 0.046558 0.310986
0.368297 0.055121 0.133457
0.354045 0.092236 0.493093
0.409272 0.045298 0.204989
0.302286 0.040440 0.915743
0.233265 0.046282 0.276881
0.395258 0.044383 0.175551
0.325437 0.036022 0.468431
0.424255 0.045454 0.391729
0.317090 0.041320 0.200245
0.568461 0.042380 0.267962
0.301480 0.041766 0.149141
0.352563 0.087848 0.748896
0.283774 0.034786 0.637158
0.374308 0.066389 0.286701
0.292086 0.095005 0.561783
0.305477 0.106077 0.391354
0.046310 0.041899 0.279018
0.304460 0.034857 0.584481
0.291405 0.042777 0.636366
0.073879 0.042756 0.250342
0.538441 0.045237 0.227582
0.273088 0.035997 0.499415
0.279886 0.073720 0.387527
0.341137 0.030616 0.739763
0.372683 0.068793 0.414096
0.312501 0.129095 0.555213
0.272810 0.030858 0.704867
0.361904 0.060731 0.041538
0.347310 0.086780 0.766109
0.321434 0.113432 0.398869
0.313172 0.120436 0.467325
0.369814 0.062714 0.169178
0.218651 0.039448 0.464914
0.283691 0.038519 0.388520
0.353889 0.102569 0.590950
0.348976 0.036119 0.575073
0.344280 0.125957 0.632066
0.383727 0.077922 0.562652
0.290360 0.102606 0.146242
0.352936 0.045494 0.833601
0.335975 0.091715 0.761814
0.267342 0.079060 0.496931
0.369257 0.136113 0.097070
0.292242 0.040346 0.752323
0.129024 0.043817 0.185103
0.283046 0.041668 0.152712
0.317133 0.089204 0.088338
0.352568 0.038649 0.512350
0.268282 0.159421 0.118270
0.197433 0.045981 0.236110
0.331172 0.108703 0.359668
0.491606 0.043086 0.268462
0.356134 0.090487 0.315348
0.287580 0.039349 0.359093
0.305989 0.035766 0.935006
0.189435 0.039276 0.440763
0.609469 0.041923 0.276720
0.321427 0.108683 0.713995
0.286364 0.065039 0.025000
0.256289 0.040829 0.399654
0.290154 0.037100 0.451726
0.507649 0.045482 0.249790
0.242293 0.043429 0.441564
0.306918 0.067357 0.846785
0.349200 0.100728 0.438196
0.422584 0.025548 0.683440
0.359773 0.074416 0.595391
0.308129 0.121512 0.497614
0.206932 0.042262 0.321092
0.385797 0.180577 0.149858
0.279305 0.065205 0.134115
0.414895 0.043381 0.275479
0.338191 0.028247 0.816654
0.273050 0.043637 0.257286
0.344503 0.031758 0.703320
0.283648 0.035336 0.703005
0.316196 0.042815 0.111087
0.350953 0.081921 0.060843
0.287749 0.101439 0.183110
0.362170 0.116642 0.151946
0.252536 0.038509 0.516454
0.424298 0.045867 0.382440
0.439004 0.045724 0.218546
0.356302 0.062479 0.703398
0.321073 0.109459 0.365310
0.278293 0.052823 0.159508
0.257977 0.038828 0.559099
0.324084 0.040081 0.331128
0.291356 0.053327 0.698053
0.291987 0.044857 0.775485
0.320424 0.114623 0.409833
0.290354 0.031476 0.721573
0.346462 0.045289 0.053436
0.394331 0.040640 0.404442
0.351448 0.044186 0.854734
0.291316 0.067091 0.628954
0.360823 0.046038 0.061726
0.347156 0.091569 0.315376
0.368574 0.049900 0.140434
0.360670 0.039002 0.370963
0.278964 0.130748 0.200532
0.361114 0.073892 0.574893
0.289856 0.040484 0.309883
0.294011 0.087730 0.453349
0.383203 0.171195 0.089530
0.090064 0.041842 0.294926
0.287515 0.080490 0.648003
0.269404 0.156171 0.109033
0.298376 0.062620 0.849136
0.368159 0.034481 0.689421
0.540091 0.041256 0.327138
0.309483 0.091856 0.172063
0.281933 0.074447 0.362279
0.247715 0.043869 0.159001
0.256383 0.194675 0.105259
0.377934 0.045988 0.227236
0.292146 0.094113 0.249192
0.291262 0.090687 0.264311
0.291342 0.099686 0.205189
0.244176 0.046321 0.378137
0.348410 0.041461 0.167025
0.252250 0.046460 0.248309
0.362405 0.088086 0.256865
0.606048 0.043690 0.197491
0.293085 0.097180 0.672523
0.366834 0.079637 0.176832
0.225607 0.046183 0.324525
0.300110 0.118090 0.545301
0.361098 0.044402 0.591249
0.361334 0.108068 0.077685
0.298357 0.109128 0.502623
0.281197 0.035079 0.576609
0.331023 0.027439 0.768606
0.291445 0.062429 0.555657
0.422628 0.038681 0.479066
0.292495 0.087542 0.520588
0.442975 0.041074 0.367075
0.314932 0.030597 0.910513
0.319322 0.068504 0.846753
0.352969 0.038315 0.552511
0.356306 0.065562 0.656211
0.458668 0.039288 0.440279
0.228330 0.045434 0.397083
0.358493 0.080169 0.083277
0.334014 0.066556 0.853698
0.409495 0.046271 0.380192
0.356351 0.077366 0.657282
0.299147 0.092199 0.367465
0.332891 0.064310 0.035967
0.370839 0.140411 0.082457
0.346535 0.055354 0.884386
0.307108 0.048482 0.025739
0.319569 0.045596 0.080459
0.356286 0.055489 0.748808
0.312965 0.107529 0.717080
0.350609 0.044856 0.062983
0.462887 0.043363 0.264021
0.252239 0.046404 0.341747
0.335223 0.033274 0.612137
0.236449 0.041164 0.375078
0.258999 0.191641 0.118270
0.340769 0.041252 0.216233
0.336588 0.031417 0.912188
0.326589 0.039042 0.369596
0.296304 0.107421 0.652188
0.306916 0.111681 0.409686
0.273935 0.051445 0.314878
0.363665 0.035320 0.580270
0.396654 0.212277 0.118674
0.296067 0.041252 0.852901
0.370233 0.037268 0.510481
0.238814 0.044961 0.417476
0.367958 0.069531 0.139110
0.500811 0.042836 0.275867
0.260062 0.046479 0.351736
0.299796 0.043053 0.102655
0.364828 0.086714 0.409843
0.234894 0.046296 0.263199
0.362076 0.108208 0.144086
0.233478 0.046246 0.329554
0.282570 0.081567 0.380727
0.485782 0.045659 0.276258
0.342399 0.077225 0.809215
0.411140 0.043100 0.439838
0.392119 0.038019 0.524902
0.355323 0.039223 0.363399
0.323551 0.083871 0.790413
0.297864 0.036804 0.548949
0.330497 0.029040 0.887527
0.493811 0.041288 0.340416
0.350944 0.079049 0.025000
0.143626 0.045523 0.304138
0.342175 0.110326 0.412081
0.264694 0.079329 0.536510
0.417093 0.044225 0.170360
0.359868 0.049538 0.573438
0.317355 0.062809 0.867791
0.278455 0.070879 0.171094
0.512565 0.043835 0.175233
0.304403 0.083926 0.783959
0.138991 0.040393 0.374899
0.379933 0.036510 0.467584
0.291556 0.067415 0.761432
0.240818 0.046299 0.344868
0.304870 0.116418 0.466752
0.546132 0.041885 0.296999
0.276365 0.080003 0.308052
0.162264 0.041592 0.390857
0.573219 0.043846 0.169363
0.286384 0.077438 0.521677
0.247286 0.222095 0.076131
0.358709 0.089524 0.283798
0.368222 0.032850 0.743363
0.265938 0.170680 0.053741
0.374052 0.067930 0.265169
0.398541 0.046367 0.356478
0.345845 0.042865 0.109275
0.361909 0.043348 0.096179
0.332876 0.035966 0.474814
0.286401 0.054666 0.548648
0.506160 0.044598 0.333606
0.322500 0.042230 0.132311
0.562018 0.045037 0.218668
0.340316 0.110664 0.401205
0.277058 0.034915 0.715900
0.369201 0.064539 0.344737
0.268183 0.036598 0.530803
0.383765 0.174913 0.156722
0.047069 0.043788 0.187110
0.309580 0.128457 0.566098
0.286460 0.069058 0.560144
0.314253 0.041451 0.169327
0.357235 0.039473 0.354433
0.360384 0.065509 0.633876
0.333682 0.100060 0.282187
0.290230 0.029992 0.795039
0.237822 0.042149 0.337686
0.356051 0.085963 0.652542
0.545010 0.041623 0.308817
0.298546 0.085745 0.118768
0.273439 0.055322 0.276668
0.364977 0.080016 0.377207
0.288971 0.097892 0.174419
0.392533 0.031067 0.692351
0.330079 0.097896 0.263902
0.365987 0.119788 0.140854
0.597206 0.043862 0.161085
0.281521 0.083333 0.342800
0.297895 0.111544 0.644658
0.277748 0.085076 0.300563
0.325304 0.034054 0.965025
0.517329 0.045405 0.269332
0.298685 0.096172 0.726666
0.389608 0.189860 0.102299
0.300710 0.041248 0.217157
0.387449 0.043706 0.242944
0.389212 0.057149 0.554169
0.342090 0.040267 0.322316
0.226232 0.046208 0.288950
0.290678 0.073462 0.026815
0.318738 0.107309 0.347116
0.361295 0.088061 0.242779
0.331855 0.041155 0.239077
0.346374 0.119766 0.647300
0.294040 0.038411 0.726109
0.362325 0.081326 0.632251
0.368822 0.065464 0.146702
0.360954 0.077194 0.640633
0.291448 0.047025 0.549551
0.350855 0.083794 0.086240
0.326493 0.115378 0.416799
0.348775 0.116365 0.569319
0.368580 0.087316 0.491414
0.299526 0.117392 0.586330
0.287798 0.088747 0.396065
0.362197 0.108287 0.192163
0.546508 0.043904 0.159428
0.392285 0.043408 0.278028
0.273286 0.080604 0.444661
0.599784 0.041743 0.286667
0.360952 0.035713 0.515232
0.539440 0.043666 0.215003
0.263957 0.029638 0.703495
0.337850 0.097583 0.269832
0.449100 0.039158 0.448843
0.302978 0.121132 0.529893
0.369205 0.056014 0.388838
0.358472 0.097356 0.172957
0.374951 0.072257 0.506450
0.290892 0.098228 0.223898
0.370286 0.040568 0.304477
0.357239 0.076499 0.054866
0.291447 0.057111 0.566304
0.274548 0.084752 0.497785
0.328052 0.069500 0.843075
0.266042 0.066824 0.470773
0.338011 0.038186 0.401175
0.342337 0.127966 0.605472
0.366570 0.129044 0.140329
0.290299 0.103367 0.196156
0.338543 0.047936 0.928813
0.237113 0.043807 0.190346
0.246597 0.043851 0.167786
0.261934 0.043174 0.302767
0.360713 0.073612 0.065160
0.291400 0.044236 0.670256
0.292711 0.096437 0.191242
0.472901 0.044305 0.370336
0.308531 0.109651 0.707594
0.267184 0.073784 0.479778
0.256226 0.043864 0.161420
0.391109 0.043171 0.300171
0.278516 0.129131 0.125082
0.181983 0.045636 0.215391
0.369646 0.046662 0.353874
0.298693 0.087513 0.160604
0.320078 0.033968 0.576309
0.331739 0.112782 0.703031
0.306236 0.081820 0.792976
0.411036 0.041831 0.349126
0.376851 0.151878 0.142738
0.566529 0.043945 0.160643
0.083589 0.041106 0.326304
0.255294 0.043711 0.458177
0.309745 0.034160 0.595350
0.357242 0.102763 0.165657
0.346949 0.029350 0.817413
0.386142 0.179668 0.095121
0.261844 0.045914 0.425727
0.369164 0.079098 0.214632
0.306162 0.102012 0.725999
0.355823 0.041152 0.239742
0.287889 0.088731 0.337350
0.386795 0.029394 0.699183
0.345330 0.044291 0.075405
0.348378 0.111300 0.506465
0.330081 0.032741 0.619481
0.388434 0.190154 0.055322
0.379263 0.046596 0.397580
0.321758 0.129590 0.565179
0.289575 0.039083 0.368167
0.394282 0.207190 0.075005
0.284927 0.109769 0.190794
0.360378 0.087868 0.385157
0.407716 0.046337 0.268651
0.389201 0.046542 0.264293
0.322987 0.129115 0.555658
0.159641 0.040640 0.399134
0.319019 0.123143 0.493525
0.291401 0.043858 0.659650
0.306249 0.035734 0.504300
0.299365 0.036097 0.565373
0.212459 0.045053 0.390757
0.346908 0.080466 0.032652
0.331827 0.089204 0.067136
0.361236 0.059758 0.534017
0.313033 0.119438 0.457966
0.395694 0.046456 0.242720
0.373890 0.069721 0.251571
0.370013 0.133435 0.074992
0.315936 0.085573 0.784235
0.373802 0.076678 0.434441
0.264933 0.080126 0.556020
0.421013 0.046178 0.374037
0.450768 0.040097 0.406803
0.320128 0.080466 0.045043
0.359969 0.043398 0.613678
0.456791 0.043584 0.242750
0.286329 0.044658 0.527378
0.039974 0.043502 0.258275
0.480697 0.043168 0.268827
0.296297 0.109923 0.546188
0.332632 0.091032 0.155051
0.188154 0.041773 0.411865
0.189526 0.045890 0.298513
0.285993 0.036046 0.589111
0.306994 0.090876 0.162776
0.303523 0.078548 0.035967
0.297229 0.048205 0.870576
0.352975 0.102293 0.668208
0.090150 0.043441 0.228223
0.286360 0.045927 0.065052
0.379431 0.080431 0.488585
0.359463 0.038698 0.525242
0.274709 0.069784 0.231868
0.216310 0.042544 0.314134
0.285516 0.087876 0.405214
0.360991 0.035188 0.550917
0.346387 0.043474 0.906928
0.356967 0.089861 0.325130
0.238229 0.046317 0.288725
0.348475 0.109928 0.496634
0.316289 0.047779 0.061239
0.301568 0.082661 0.069765
0.360287 0.111360 0.159019
0.384888 0.180088 0.057761
0.265359 0.169791 0.064875
0.369759 0.037364 0.519581
0.505578 0.045500 0.286570
0.366123 0.032893 0.670117
0.356283 0.058864 0.679505
0.306018 0.099429 0.341908
0.281444 0.086123 0.415074
0.363189 0.119820 0.175159
0.330090 0.101978 0.298388
0.264281 0.052694 0.486404
0.323249 0.094227 0.212857
0.302100 0.086865 0.107880
0.543017 0.045072 0.287912
0.311542 0.044513 0.073797
0.287627 0.102124 0.137409
0.340577 0.038083 0.409948
0.347885 0.117567 0.592152
0.294331 0.091180 0.389852
0.568859 0.043813 0.185908
0.291281 0.090731 0.303009
0.595973 0.043386 0.216817
0.499652 0.040072 0.392375
0.200999 0.045987 0.290388
0.295858 0.050974 0.851170
0.422396 0.025144 0.674265
0.274778 0.049898 0.323864
0.334437 0.064217 0.862022
0.296697 0.037297 0.533332
0.313829 0.065674 0.035967
0.418572 0.043055 0.296230
0.498548 0.043864 0.160573
0.033684 0.044645 0.227590
0.380102 0.035295 0.521228
0.359756 0.108635 0.068556
0.347333 0.040398 0.898364
0.297506 0.042704 0.115131
0.262468 0.055176 0.525414
0.174243 0.045073 0.197190
0.146769 0.045541 0.276399
0.348056 0.038963 0.372287
0.334536 0.091627 0.167018
0.494773 0.043257 0.259480
0.359952 0.034244 0.614683
0.348206 0.039390 0.357620
0.354877 0.100323 0.609770
0.429212 0.038871 0.470940
0.311442 0.121922 0.488350
0.473695 0.043325 0.262616
0.344236 0.032360 0.865636
0.339125 0.113166 0.698266
0.286497 0.042623 0.582431
0.407191 0.044372 0.175167
0.282219 0.122875 0.202047
0.356878 0.092928 0.164711
0.398218 0.046369 0.370392
0.251629 0.210498 0.119959
0.352585 0.100107 0.687540
0.297834 0.035166 0.794231
0.335030 0.089204 0.100950
0.422000 0.025657 0.658119
0.228248 0.025720 0.661843
0.285867 0.034303 0.612155
0.348392 0.107622 0.475316
0.320605 0.041405 0.180179
0.289699 0.040982 0.263410
0.370612 0.037313 0.529535
0.293715 0.101208 0.523106
0.287108 0.088179 0.347899
0.264879 0.035917 0.495941
0.461192 0.045502 0.211319
0.379465 0.058568 0.454672
0.339264 0.097787 0.740497
0.159412 0.045644 0.280736
0.512093 0.044732 0.186248
0.360468 0.041189 0.231016
0.286047 0.052861 0.041379
0.295197 0.057005 0.832078
0.320549 0.031866 0.643597
0.340367 0.029113 0.828751
0.370547 0.069544 0.187775
0.307131 0.120939 0.675970
0.377031 0.058394 0.439910
0.358496 0.097659 0.140118
0.389506 0.046537 0.254180
0.111287 0.045267 0.275853
0.227566 0.043413 0.270545
0.318498 0.034219 0.538979
0.353779 0.100075 0.498309
0.361032 0.052990 0.613798
0.373648 0.081965 0.442016
0.243661 0.046321 0.353570
0.278071 0.131404 0.094581
0.393670 0.201898 0.097271
0.289593 0.098981 0.065913
0.342100 0.034803 0.582129
0.291392 0.046459 0.589041
0.154538 0.043340 0.255163
0.481908 0.045689 0.296707
0.272055 0.046598 0.374483
0.290905 0.087220 0.195739
0.480788 0.039675 0.415925
0.291583 0.044370 0.073668
0.368132 0.044418 0.132992
0.351214 0.099374 0.414770
0.358323 0.031407 0.741547
0.311520 0.080466 0.032212
0.311065 0.031369 0.676114
0.423724 0.046200 0.274686
0.548659 0.042142 0.325912
0.360218 0.087614 0.364719
0.306277 0.098325 0.736603
0.056626 0.043923 0.159768
0.380719 0.035535 0.510599
0.377981 0.045878 0.443042
0.325179 0.033076 0.610225
0.098271 0.045142 0.235501
0.396667 0.046388 0.380300
0.465291 0.043467 0.254379
0.341120 0.030200 0.770463
0.340218 0.123306 0.516863
0.356130 0.086861 0.594192
0.381203 0.169540 0.054424
0.385576 0.042739 0.521681
0.379484 0.159940 0.102549
0.369617 0.085088 0.581190
0.049407 0.043854 0.165306
0.370953 0.137755 0.194434
0.369469 0.082945 0.317259
0.282281 0.031195 0.762849
0.292357 0.038069 0.421713
0.397091 0.043465 0.269906
0.286331 0.051918 0.522132
0.295213 0.091602 0.348428
0.286369 0.049195 0.539939
0.341692 0.050972 0.911897
0.280879 0.129842 0.164804
0.304650 0.097682 0.363305
0.277507 0.134261 0.066224
0.276014 0.139230 0.051944
0.256699 0.040141 0.430084
0.301935 0.114544 0.489569
0.500525 0.045053 0.196647
0.382950 0.078779 0.533804
0.292437 0.039782 0.713304
0.180699 0.039502 0.430557
0.278239 0.074540 0.194423
0.346040 0.102332 0.408416
0.279896 0.050847 0.119208
0.306293 0.029522 0.795000
0.363785 0.030832 0.772575
0.260422 0.187404 0.102859
0.049350 0.043889 0.261714
0.275886 0.072354 0.223572
0.283403 0.037741 0.418084
0.374984 0.034127 0.717446
0.360530 0.038005 0.408061
0.278089 0.070483 0.341520
0.336769 0.039927 0.337020
0.349095 0.097318 0.722968
0.365083 0.082567 0.166500
0.368304 0.072466 0.164324
0.330716 0.047800 0.935117
0.235628 0.046255 0.358125
0.278058 0.137360 0.120522
0.287723 0.058629 0.628809
0.319977 0.042584 0.119474
0.306540 0.034787 0.545760
0.324936 0.026886 0.793553
0.367316 0.062365 0.373007
0.225492 0.046175 0.348098
0.340923 0.069298 0.035967
0.410839 0.041610 0.357841
0.280536 0.067788 0.106831
0.355224 0.074276 0.756601
0.358106 0.087369 0.205081
0.497506 0.045566 0.289878
0.474674 0.045763 0.247875
0.296882 0.068709 0.824688
0.162360 0.039751 0.411129
0.363549 0.077828 0.102813
0.339087 0.095606 0.252645
0.317615 0.128150 0.542909
0.589796 0.044703 0.184381
0.357774 0.038373 0.504209
0.324626 0.089204 0.095534
0.254114 0.203594 0.125059
0.339465 0.129205 0.615578
0.550323 0.045139 0.261590
0.196031 0.043733 0.226494
0.313568 0.130430 0.584590
0.388333 0.043868 0.159266
0.420379 0.040928 0.455663
0.254368 0.028404 0.720151
0.290072 0.038720 0.380879
0.113685 0.045273 0.264092
0.380593 0.034920 0.540804
0.403187 0.043723 0.234033
0.288549 0.090242 0.281634
0.378916 0.159401 0.073556
0.037284 0.044230 0.212113
0.360427 0.106215 0.059177
0.331415 0.037283 0.433931
0.290430 0.101667 0.090447
0.357922 0.035027 0.573161
0.160113 0.043531 0.241911
0.390964 0.041495 0.372337
0.291344 0.058977 0.620952
0.425001 0.044799 0.188833
0.290691 0.040329 0.318775
0.447821 0.040781 0.377817
0.182879 0.045837 0.315544
0.326824 0.131061 0.605071
0.393589 0.203821 0.124802
0.189880 0.043545 0.246959
0.273438 0.067148 0.276792
0.377261 0.043485 0.274055
0.291337 0.060771 0.651779
0.338131 0.127790 0.555722
0.287437 0.087778 0.356981
0.307541 0.098967 0.293772
0.372874 0.085214 0.502158
0.389444 0.192201 0.134079
0.139299 0.042840 0.272723
0.344560 0.124646 0.565498
0.355097 0.099365 0.544427
0.349575 0.032496 0.672972
0.340000 0.029653 0.779217
0.400115 0.046362 0.331059
0.216029 0.043450 0.263785
0.384906 0.180865 0.104019
0.530104 0.043693 0.213862
0.428041 0.040085 0.414527
0.358627 0.038076 0.489467
0.281956 0.038944 0.372929
0.374622 0.033044 0.672148
0.291316 0.060040 0.736478
0.349021 0.104802 0.467049
0.231483 0.046218 0.381059
0.113752 0.043669 0.323428
0.277064 0.065280 0.398228
0.259394 0.046508 0.319355
0.371908 0.046656 0.391354
0.369834 0.037865 0.413397
0.265744 0.036198 0.483943
0.354917 0.041229 0.221562
0.343333 0.035585 0.927118
0.275622 0.043411 0.221620
0.077805 0.041266 0.319379
0.291619 0.085211 0.668443
0.330142 0.042369 0.127268
0.420456 0.042037 0.337486
0.397873 0.038829 0.503638
0.470518 0.040003 0.404680
0.087894 0.044583 0.284737
0.132370 0.041570 0.320724
0.260397 0.184927 0.146779
0.618514 0.043666 0.246188
0.228189 0.025418 0.685958
0.281217 0.086561 0.247720
0.480204 0.039890 0.406593
0.335911 0.077213 0.035967
0.346979 0.106055 0.431070
0.349818 0.031398 0.745595
0.466292 0.041660 0.334748
0.389156 0.046467 0.347902
0.364044 0.039324 0.359948
0.339818 0.033193 0.628582
0.449368 0.045958 0.305000
0.348531 0.037616 0.520312
0.471541 0.044193 0.169080
0.334259 0.089204 0.091960
0.389376 0.036945 0.539439
0.151194 0.045322 0.205004
0.275243 0.138778 0.128993
0.291285 0.075014 0.702796
0.285816 0.080663 0.114427
0.308464 0.062546 0.865538
0.560360 0.044655 0.183313
0.313251 0.116917 0.432100
0.506060 0.043707 0.346902
0.337631 0.039190 0.364522
0.335230 0.128497 0.546777
0.348246 0.040723 0.289136
0.303093 0.031681 0.705508
0.361180 0.072634 0.548082
0.389131 0.037908 0.514727
0.299860 0.043499 0.092843
0.291292 0.072874 0.652650
0.401754 0.028114 0.668055
0.329924 0.028451 0.877655
0.315931 0.033101 0.946704
0.303910 0.029333 0.818397
0.231095 0.041384 0.364413
0.356269 0.052925 0.725886
0.333327 0.035733 0.962211
0.285284 0.041151 0.239929
0.287773 0.044656 0.614837
0.265164 0.168735 0.104005
0.371953 0.077539 0.277804
0.356339 0.079842 0.583312
0.347323 0.042598 0.118969
0.365509 0.086216 0.233158
0.267461 0.081347 0.505539
0.524240 0.042592 0.342826
0.353448 0.091406 0.305968
0.549237 0.044804 0.188143
0.281558 0.036029 0.497422
0.357946 0.034991 0.675362
0.277950 0.085450 0.291134
0.270504 0.080036 0.462361
0.318743 0.117928 0.441585
0.285011 0.088764 0.425379
0.360098 0.102071 0.185632
0.292812 0.093429 0.058508
0.499439 0.045565 0.244256
0.506452 0.045403 0.207612
0.377574 0.035026 0.556871
0.309286 0.092685 0.190025
0.322510 0.028197 0.870853
0.339106 0.118973 0.471989
0.305941 0.090100 0.142324
0.365021 0.069810 0.092208
0.358596 0.100475 0.222812
0.320212 0.112082 0.704903
0.349580 0.101585 0.454918
0.284054 0.041196 0.229352
0.316310 0.104934 0.325121
0.226156 0.042578 0.316288
0.303939 0.034362 0.602478
0.265300 0.054177 0.474784
0.292785 0.085818 0.504454
0.382762 0.077196 0.523988
0.491442 0.045614 0.299716
0.257976 0.041708 0.486640
0.108076 0.044839 0.189098
0.308446 0.032806 0.643603
0.399311 0.044861 0.428608
0.433145 0.040792 0.382397
0.300199 0.115844 0.653461
0.291316 0.066458 0.661321
0.359226 0.099414 0.196917
0.271553 0.152170 0.177624
0.327881 0.131061 0.615584
0.347700 0.035994 0.545841
0.356182 0.056425 0.557046
0.366827 0.076743 0.385487
0.372654 0.053483 0.325624
0.276031 0.035279 0.535240
0.258535 0.192195 0.127771
0.348160 0.055471 0.873502
0.377607 0.154047 0.151891
0.371262 0.031237 0.709998
0.512373 0.040813 0.355533
0.384319 0.029477 0.708800
0.276857 0.041812 0.235359
0.375391 0.039304 0.394441
0.310717 0.043095 0.101741
0.248997 0.219773 0.086977
0.356880 0.040760 0.285442
0.356310 0.068581 0.600816
0.359919 0.110427 0.168718
0.288531 0.106837 0.073247
0.275867 0.036287 0.481056
0.286527 0.060408 0.034895
0.276798 0.071709 0.332985
0.209071 0.041320 0.435527
0.228545 0.039214 0.455817
0.278262 0.080293 0.326630
0.170793 0.043758 0.215159
0.349942 0.108324 0.675359
0.191404 0.045908 0.288586
0.243218 0.041594 0.360892
0.335890 0.080506 0.801699
0.370897 0.076978 0.233501
0.238470 0.040943 0.384533
0.247859 0.222498 0.096623
0.572447 0.043261 0.231015
0.292392 0.089824 0.124997
0.527670 0.040509 0.365243
0.162898 0.043874 0.158752
0.294978 0.081610 0.773125
0.286355 0.052638 0.531294
0.345193 0.085409 0.775375
0.329039 0.121132 0.680701
0.311489 0.065864 0.854705
0.313338 0.034738 0.523560
0.472226 0.041773 0.328081
0.304742 0.126935 0.574391
0.125950 0.043663 0.219113
0.285974 0.031420 0.735903
0.356296 0.078816 0.679185
0.390115 0.046473 0.390989
0.281648 0.072778 0.117100
0.370268 0.072121 0.196610
0.356232 0.045788 0.693071
0.351509 0.070893 0.813872
0.356255 0.052415 0.591678
0.397633 0.039442 0.453833
0.303714 0.096429 0.302005
0.286399 0.060854 0.542172
0.293948 0.097286 0.486905
0.356196 0.053176 0.566084
0.354384 0.055628 0.814056
0.262407 0.040795 0.405927
0.278440 0.040093 0.330645
0.343108 0.041159 0.238151
0.370290 0.060740 0.178775
0.369320 0.136534 0.110775
0.309050 0.041114 0.248726
0.590212 0.041593 0.297521
0.338866 0.031500 0.677588
0.359448 0.051185 0.025000
0.374847 0.083721 0.557326
0.376061 0.031036 0.693471
0.285555 0.074219 0.077327
0.226813 0.046187 0.335612
0.273473 0.060186 0.309957
0.263805 0.043698 0.246800
0.367259 0.079995 0.186167
0.574830 0.042007 0.305274
0.268221 0.046560 0.365129
0.355609 0.040769 0.772055
0.384141 0.062632 0.494274
0.343153 0.040641 0.297232
0.238821 0.038888 0.473573
0.267139 0.036447 0.516152
0.341821 0.066415 0.849133
0.393259 0.041095 0.494854
0.298000 0.092840 0.735238
0.258099 0.028825 0.729710
0.359502 0.087729 0.222820
0.375191 0.036250 0.478993
0.374413 0.065563 0.295473
0.296476 0.031430 0.731626
0.381464 0.170559 0.073685
0.352297 0.104719 0.659721
0.358834 0.085947 0.181215
0.343356 0.034183 0.608961
0.367833 0.086253 0.274966
0.306036 0.108829 0.400883
0.356952 0.040866 0.274971
0.291381 0.047865 0.707192
0.265291 0.170589 0.160670
0.337636 0.058005 0.884930
0.191230 0.043780 0.204098
0.345610 0.048480 0.045171
0.258686 0.046545 0.295464
0.307680 0.099855 0.308880
0.116056 0.043064 0.333353
0.552347 0.041474 0.313478
0.484970 0.045676 0.230793
0.119408 0.043807 0.189769
0.324063 0.087579 0.776958
0.233312 0.038525 0.488237
0.287455 0.110725 0.132715
0.507361 0.043863 0.161364
0.400230 0.042618 0.322482
0.317837 0.089204 0.074062
0.345603 0.089985 0.165597
0.291496 0.086743 0.601419
0.316034 0.028266 0.737922
0.320669 0.110881 0.375823
0.357736 0.103992 0.150461
0.354758 0.099234 0.532043
0.360985 0.073127 0.628396
0.355508 0.098016 0.598247
0.356535 0.037765 0.455210
0.340882 0.044730 0.065745
0.320491 0.118719 0.687155
0.339567 0.059566 0.876651
0.348352 0.092986 0.389569
0.322294 0.030456 0.916682
0.304644 0.041202 0.227976
0.425732 0.046144 0.344720
0.347964 0.037434 0.462649
0.287143 0.107471 0.224674
0.529234 0.043929 0.160311
0.291298 0.062723 0.745439
0.389809 0.190433 0.124361
0.374826 0.146088 0.115353
0.328471 0.125785 0.519590
0.371846 0.077144 0.310361
0.296887 0.107539 0.669179
0.267093 0.036548 0.466044
0.268358 0.159361 0.098967
0.296203 0.041425 0.175487
0.344761 0.036386 0.508990
0.250629 0.039719 0.442354
0.295458 0.098657 0.423337
0.414925 0.046276 0.249091
0.420166 0.046221 0.286880
0.262440 0.180881 0.054466
0.337446 0.028764 0.837387
0.484617 0.043715 0.366276
0.317274 0.029512 0.703503
0.139951 0.044845 0.327574
0.300545 0.091583 0.315176
0.200418 0.043155 0.280986
0.318787 0.079781 0.025000
0.291288 0.076904 0.590838
0.351448 0.041184 0.232143
0.268316 0.057629 0.453730
0.372707 0.063615 0.227582
0.440973 0.046022 0.328613
0.356322 0.060849 0.756639
0.406551 0.041354 0.463471
0.503479 0.045517 0.217308
0.359356 0.087763 0.505926
0.333452 0.102460 0.731077
0.287793 0.070072 0.034706
0.296707 0.103287 0.495406
0.413381 0.044578 0.181764
0.278500 0.086807 0.462399
0.353307 0.096527 0.472957
0.292925 0.084608 0.736047
0.350370 0.037306 0.861029
0.335103 0.088814 0.054743
0.356205 0.085016 0.602650
0.328928 0.092192 0.176971
0.291346 0.058877 0.611411
0.350167 0.034947 0.585475
0.479756 0.044932 0.192840
0.370829 0.081749 0.294482
0.361163 0.087654 0.335246
0.358615 0.101836 0.231727
0.039317 0.043610 0.203701
0.500445 0.040859 0.357309
0.466095 0.043750 0.219238
0.314947 0.088026 0.775407
0.337622 0.107022 0.366203
0.284411 0.118897 0.094694
0.173425 0.039561 0.423058
0.325277 0.095611 0.237252
0.338061 0.032022 0.921241
0.309755 0.036875 0.450649
0.332265 0.028401 0.863786
0.294937 0.103747 0.533429
0.334772 0.040813 0.280188
0.279827 0.131683 0.074296
0.326451 0.088166 0.050118
0.301356 0.040599 0.301438
0.346280 0.118821 0.657663
0.180009 0.041032 0.360110
0.348582 0.087428 0.153618
0.378750 0.043866 0.160022
0.235200 0.026221 0.693530
0.223768 0.043783 0.202823
0.279990 0.063849 0.378535
0.279274 0.082937 0.221224
0.077612 0.044998 0.257882
0.349046 0.083148 0.077481
0.295160 0.100023 0.451754
0.287761 0.035816 0.598785
0.280957 0.039680 0.346485
0.470344 0.045801 0.230796
0.288051 0.070695 0.045284
0.229932 0.044392 0.175697
0.254868 0.040317 0.420613
0.266537 0.045946 0.225885
0.439661 0.045455 0.209904
0.337200 0.030187 0.710414
0.489769 0.039821 0.406679
0.294868 0.032807 0.663437
0.385844 0.029247 0.731601
0.606558 0.044668 0.206197
0.336152 0.053795 0.904953
0.288109 0.035561 0.528865
0.438250 0.045705 0.372873
0.264970 0.063162 0.479069
0.217107 0.046147 0.252153
0.332009 0.026983 0.825853
0.341423 0.029475 0.797576
0.287699 0.035774 0.513546
0.348582 0.115799 0.601297
0.355232 0.084570 0.734376
0.315383 0.094576 0.218996
0.353425 0.063916 0.808916
0.277539 0.084371 0.423323
0.305111 0.097116 0.325849
0.276262 0.035764 0.513401
0.234606 0.042561 0.320191
0.363538 0.112592 0.135106
0.326714 0.128345 0.544864
0.566393 0.041683 0.299674
0.290934 0.095731 0.050313
0.105343 0.040974 0.338512
0.340135 0.029413 0.788482
0.138274 0.040186 0.385202
0.356230 0.044744 0.720307
0.316953 0.033205 0.606680
0.356114 0.084860 0.643621
0.302953 0.084999 0.093745
0.269802 0.157307 0.053398
0.315494 0.036253 0.461971
0.367257 0.086683 0.525233
0.349355 0.034527 0.602624
0.297916 0.112505 0.537678
0.285723 0.062346 0.043343
0.387066 0.049207 0.516063
0.233889 0.046289 0.240290
0.362650 0.042009 0.140317
0.297889 0.090796 0.406745
0.342784 0.031289 0.875957
0.369408 0.054158 0.343847
0.356230 0.045489 0.640110
0.278128 0.040605 0.300819
0.355288 0.039259 0.607610
0.253646 0.046460 0.303055
0.615991 0.044338 0.236629
0.347866 0.041639 0.153736
0.300040 0.039781 0.342630
0.458200 0.043317 0.394700
0.217427 0.041312 0.361978
0.174771 0.039784 0.413283
0.369909 0.131161 0.171582
0.331087 0.071788 0.834622
0.159081 0.043606 0.233022
0.348546 0.089370 0.203863
0.344449 0.037640 0.444704
0.356197 0.042514 0.568469
0.417774 0.046207 0.353113
0.354814 0.038786 0.378374
0.300818 0.092059 0.274849
0.343448 0.034557 0.596170
0.278848 0.073869 0.180202
0.312933 0.027273 0.814895
0.287640 0.102149 0.128314
0.374689 0.046724 0.309123
0.218528 0.041952 0.337386
0.270249 0.159914 0.146357
0.246347 0.042321 0.334874
0.397843 0.039834 0.436125
0.276794 0.081156 0.272954
0.613518 0.043721 0.225253
0.326826 0.116160 0.693998
0.329984 0.032391 0.629122
0.372551 0.143171 0.184064
0.291443 0.073841 0.551965
0.275266 0.082653 0.434648
0.326331 0.045487 0.947320
0.292903 0.045847 0.802016
0.515931 0.042027 0.301496
0.131026 0.041791 0.310888
0.488280 0.045647 0.239106
0.215081 0.046126 0.231474
0.217681 0.043651 0.240834
0.324069 0.030990 0.927084
0.173552 0.044429 0.367970
0.339962 0.094704 0.238324
0.303437 0.126291 0.628061
0.317501 0.028921 0.717668
0.281221 0.035196 0.556972
0.554974 0.041870 0.294573
0.353256 0.095305 0.463411
0.333264 0.041355 0.191945
0.248828 0.046405 0.294989
0.083846 0.043821 0.182120
0.291278 0.070168 0.721142
0.324986 0.037505 0.426712
0.259981 0.058788 0.535429
0.356257 0.053120 0.646082
0.358294 0.099315 0.075529
0.309267 0.028499 0.826991
0.291639 0.086999 0.567448
0.328585 0.029433 0.896770
0.344736 0.103796 0.714661
0.354001 0.030647 0.777516
0.286891 0.035387 0.538042
0.264600 0.030087 0.690635
0.117580 0.045307 0.212557
0.328085 0.027137 0.836794
0.381280 0.043260 0.298910
0.340938 0.031644 0.894849
0.349819 0.077674 0.795171
0.273824 0.071717 0.426895
0.314691 0.028818 0.875352
0.322126 0.032537 0.625111
0.300771 0.067368 0.837189
0.267599 0.050630 0.506450
0.293066 0.039689 0.761140
0.318277 0.057105 0.892038
0.275886 0.056419 0.208106
0.312637 0.048427 0.929930
0.557269 0.043803 0.191494
0.286612 0.068854 0.620976
0.302151 0.109177 0.699815
0.341742 0.127992 0.594737
0.351843 0.107295 0.632219
0.391646 0.029536 0.667043
0.366804 0.067909 0.362111
0.293771 0.041904 0.144129
0.331699 0.027586 0.845038
0.451988 0.039485 0.433484
0.376188 0.080903 0.566201
0.492987 0.043425 0.250541
0.262502 0.043753 0.218487
0.453743 0.041344 0.351895
0.359846 0.047693 0.599566
0.269682 0.032919 0.684110
0.355955 0.098043 0.085155
0.369383 0.062363 0.160458
0.127819 0.044194 0.329325
0.342090 0.036753 0.475164
0.355534 0.093437 0.668126
0.371826 0.142911 0.060420
0.298259 0.106902 0.487638
0.345447 0.051207 0.899606
0.429719 0.041050 0.372646
0.363122 0.040651 0.296297
0.356383 0.073802 0.567467
0.206390 0.038992 0.458680
0.371246 0.062732 0.198081
0.292143 0.039500 0.555076
0.351007 0.041381 0.185828
0.321252 0.070993 0.035967
0.275642 0.060396 0.407649
0.583469 0.044839 0.197117
0.199635 0.043868 0.158988
0.282944 0.086664 0.239147
0.387453 0.044146 0.167908
0.057058 0.044631 0.253710
0.295149 0.044956 0.060772
0.280905 0.034355 0.678854
0.367029 0.083304 0.562694
0.278247 0.131332 0.084225
0.311740 0.040568 0.304535
0.296971 0.110386 0.620328
0.351972 0.035583 0.700965
0.289794 0.039947 0.336275
0.275453 0.053083 0.216844
0.543293 0.040824 0.347746
0.466463 0.039420 0.431746
0.530316 0.041151 0.334887
0.255086 0.030798 0.683276
0.344701 0.107425 0.704111
0.261142 0.063854 0.523968
0.128543 0.042657 0.275181
0.281558 0.078841 0.350362
0.432447 0.040574 0.391890
0.508258 0.041942 0.307727
0.385705 0.043324 0.290007
0.344721 0.118902 0.510323
0.551838 0.042154 0.283459
0.310664 0.077147 0.813141
0.280066 0.062833 0.114939
0.323595 0.105450 0.329972
0.360878 0.112321 0.102842
0.081708 0.043255 0.233462
0.273621 0.070406 0.309383
0.483076 0.043444 0.252635
0.327182 0.041320 0.200315
0.215131 0.045534 0.382503
0.328199 0.035501 0.488766
0.357360 0.085056 0.154103
0.298953 0.103180 0.443894
0.357969 0.097481 0.096450
0.291673 0.085039 0.678531
0.373070 0.061389 0.320796
0.366672 0.083413 0.535361
0.353996 0.091366 0.370242
0.250881 0.214504 0.095337
0.361141 0.061172 0.566812
0.261886 0.046489 0.412906
0.380339 0.046644 0.506450
0.370854 0.060793 0.335934
0.284059 0.113588 0.102409
0.292446 0.091139 0.203745
0.376843 0.082688 0.464734
0.339052 0.041564 0.156468
0.426946 0.040456 0.398795
0.275041 0.084780 0.533324
0.366377 0.052168 0.094710
0.326627 0.039315 0.360278
0.043164 0.043244 0.219352
0.039378 0.042836 0.234668
0.081483 0.044988 0.197281
0.358820 0.082393 0.113267
0.269041 0.163231 0.135780
0.436794 0.043632 0.241518
0.375828 0.064086 0.432783
0.334586 0.045274 0.073067
0.296080 0.029830 0.828400
0.281490 0.121875 0.083926
0.313871 0.079814 0.805134
0.291385 0.079507 0.561040
0.356233 0.046029 0.711102
0.370195 0.039798 0.341960
0.096272 0.041023 0.338507
0.296889 0.041444 0.864700
0.249253 0.046282 0.236720
0.346814 0.118140 0.534913
0.348854 0.115323 0.545035
0.273793 0.049010 0.250362
0.275332 0.076874 0.291114
0.312313 0.089678 0.116463
0.298140 0.111883 0.528641
0.333781 0.118430 0.687928
0.405591 0.043743 0.223777
0.353588 0.044018 0.824108
0.389050 0.041229 0.384024
0.328189 0.030010 0.908002
0.318920 0.091924 0.172260
0.368870 0.073820 0.395235
0.384547 0.046524 0.377653
0.046645 0.043686 0.199079
0.369518 0.037398 0.552919
0.257892 0.190434 0.084896
0.088666 0.043807 0.189405
0.267481 0.164073 0.166031
0.379975 0.046161 0.431776
0.147095 0.040313 0.380960
0.352367 0.097787 0.427578
0.282166 0.118362 0.122781
0.368117 0.035212 0.538256
0.367692 0.080332 0.195552
0.359903 0.041650 0.153346
0.292601 0.095355 0.215851
0.536573 0.042044 0.293395
0.266160 0.171103 0.142800
0.355987 0.089714 0.583906
0.224767 0.046211 0.262067
0.291594 0.072153 0.735882
0.337371 0.109758 0.709035
0.337331 0.035214 0.518123
0.344045 0.101162 0.389519
0.275405 0.073560 0.317707
0.317860 0.036528 0.975000
0.321037 0.034860 0.513864
0.256355 0.198696 0.078434
0.275662 0.033405 0.671436
0.289088 0.105919 0.120296
0.345035 0.087735 0.117412
0.380047 0.166938 0.097022
0.279528 0.037424 0.523635
0.318871 0.031845 0.937393
0.339938 0.030614 0.719337
0.324132 0.099536 0.277758
0.354089 0.091460 0.068824
0.461366 0.044165 0.382376
0.340600 0.034677 0.572725
0.288924 0.107015 0.173034
0.326764 0.090479 0.139287
0.259415 0.045235 0.551101
0.052358 0.043246 0.222850
0.354021 0.093075 0.115616
0.086517 0.045060 0.254147
0.083628 0.043866 0.159329
0.372472 0.075368 0.258318
0.493326 0.040231 0.398276
0.587709 0.043888 0.158695
0.359809 0.059887 0.624434
0.312947 0.097952 0.264375
0.331835 0.113665 0.400955
0.314934 0.102622 0.303889
0.327136 0.031033 0.666559
0.198344 0.043850 0.168506
0.327864 0.079662 0.025709
0.355750 0.092781 0.639687
0.234377 0.039731 0.434821
0.320458 0.033496 0.598649
0.291449 0.049684 0.572963
0.347754 0.037837 0.497958
0.275684 0.082440 0.522708
0.344462 0.043835 0.085440
0.291799 0.084203 0.704144
0.272947 0.036142 0.490270
0.336403 0.050673 0.918962
0.365792 0.041159 0.238036
0.446356 0.041767 0.422731
0.389356 0.193410 0.092406
0.320449 0.111968 0.385363
0.379760 0.043788 0.200205
0.366803 0.087227 0.441082
0.216875 0.044711 0.185860
0.262673 0.070667 0.562135
0.359702 0.108228 0.050753
0.261452 0.066984 0.532085
0.330050 0.028197 0.740267
0.356202 0.079520 0.552776
0.291668 0.048147 0.766760
0.590385 0.042767 0.282027
0.440593 0.041648 0.429294
0.355575 0.092510 0.551832
0.359177 0.035371 0.625751
0.341637 0.032214 0.668796
0.356187 0.066393 0.553651
0.332179 0.105394 0.332552
0.343834 0.127131 0.623489
0.472659 0.045571 0.213390
0.163671 0.044183 0.168439
0.524552 0.043225 0.250222
0.326868 0.056004 0.897074
0.292541 0.055359 0.793541
0.365867 0.031173 0.763453
0.294488 0.047946 0.831099
0.351011 0.038268 0.409815
0.261770 0.056423 0.515448
0.368341 0.133848 0.119563
0.278494 0.065041 0.154575
0.337823 0.034736 0.537933
0.374387 0.042874 0.318136
0.393119 0.043725 0.233002
0.344236 0.080466 0.040942
0.388771 0.191999 0.114150
0.381517 0.036746 0.457973
0.284685 0.085566 0.557312
0.350312 0.111191 0.620853
0.516490 0.042535 0.281121
0.287949 0.084324 0.159218
0.369407 0.040733 0.288111
0.194343 0.045925 0.344006
0.366358 0.087887 0.451063
0.249413 0.046383 0.324854
0.163029 0.044474 0.177792
0.400424 0.043007 0.304968
0.388728 0.191142 0.065739
0.291623 0.087505 0.643738
0.397833 0.042843 0.313867
0.289768 0.085605 0.477082
0.507127 0.040149 0.387527
0.314016 0.040722 0.289239
0.344551 0.113550 0.464628
0.206145 0.041068 0.367719
0.280516 0.046686 0.364878
0.341345 0.029998 0.857674
0.152224 0.043749 0.357491
0.311399 0.029067 0.864352
0.291668 0.090032 0.581381
0.291846 0.079884 0.724658
0.078252 0.043682 0.206331
0.294928 0.048860 0.025000
0.305855 0.082059 0.062074
0.356297 0.062633 0.671099
0.185464 0.043718 0.225892
0.240784 0.043355 0.280252
0.341782 0.081273 0.794882
0.224518 0.044824 0.407168
0.081175 0.041813 0.293323
0.347567 0.118500 0.582944
0.586220 0.042447 0.289774
0.379977 0.060264 0.506450
0.286403 0.070014 0.535894
0.380110 0.029938 0.741378
0.536547 0.045250 0.269727
0.397240 0.040939 0.389779
0.290338 0.094019 0.150435
0.381617 0.071079 0.484748
0.291951 0.090866 0.554038
0.123244 0.045349 0.262389
0.113309 0.041652 0.346650
0.291315 0.068098 0.611956
0.319606 0.090246 0.132661
0.523638 0.043827 0.179110
0.301590 0.101385 0.405582
0.286592 0.040632 0.298180
0.541704 0.042354 0.278853
0.458682 0.043819 0.183809
0.373770 0.066312 0.313660
0.291320 0.092706 0.161681
0.286932 0.111480 0.199435
0.399470 0.222263 0.095224
0.299938 0.041378 0.186622
0.120279 0.042425 0.281049
0.359728 0.042537 0.121184
0.367971 0.132068 0.181739
0.287840 0.065797 0.568482
0.334488 0.129611 0.565634
0.056942 0.043828 0.178625
0.200392 0.041469 0.349275
0.292371 0.062540 0.786976
0.372024 0.066470 0.329530
0.367452 0.124060 0.149255
0.170430 0.045734 0.285589
0.327869 0.117584 0.438149
0.315643 0.089287 0.105323
0.291371 0.051616 0.637093
0.297245 0.110706 0.630749
0.293464 0.048476 0.040390
0.359933 0.110569 0.177456
0.356354 0.069762 0.733232
0.381194 0.046591 0.322329
0.355203 0.044520 0.070374
0.374997 0.043720 0.235710
0.310002 0.042601 0.118839
0.081892 0.043010 0.243436
0.356309 0.061521 0.728743
0.323230 0.028452 0.731602
0.326303 0.037809 0.415521
0.467057 0.043558 0.243434
0.447147 0.043278 0.274059
0.348873 0.092205 0.362925
0.308701 0.039102 0.945857
0.298551 0.033210 0.645515
0.300058 0.089703 0.209442
0.284087 0.077856 0.102797
0.562660 0.042156 0.279801
0.287012 0.112362 0.164535
0.276483 0.079510 0.251648
0.291351 0.057194 0.669027
0.370046 0.084629 0.304248
0.400298 0.222126 0.085896
0.532260 0.041693 0.309957
0.499698 0.041857 0.314307
0.355764 0.050457 0.772555
0.490246 0.043844 0.170751
0.303693 0.126907 0.610141
0.312872 0.106852 0.355940
0.409480 0.046315 0.289584
0.342045 0.101734 0.726424
0.597698 0.044728 0.195486
0.344125 0.043223 0.098920
0.354301 0.094010 0.127900
0.501439 0.041099 0.380172
0.277965 0.085205 0.281309
0.336290 0.040724 0.289006
0.300699 0.105675 0.425989
0.339178 0.035724 0.502394
0.189286 0.045888 0.322671
0.343379 0.118832 0.493736
0.265345 0.042036 0.357519
0.366613 0.083131 0.600673
0.470397 0.042496 0.300692
0.312360 0.090971 0.765232
0.299026 0.050147 0.880750
0.420167 0.046201 0.306615
0.337466 0.045762 0.053937
0.130055 0.043736 0.211499
0.304430 0.033748 0.622091
0.350140 0.040324 0.319095
0.284387 0.034781 0.627678
0.239099 0.046078 0.392750
0.284287 0.041434 0.173259
0.259562 0.061278 0.559516
0.383449 0.055654 0.483653
0.306420 0.035040 0.534866
0.581386 0.043808 0.188475
0.348351 0.092053 0.377457
0.074494 0.043911 0.159474
0.263018 0.044905 0.512037
0.284121 0.114445 0.078006
0.297821 0.096022 0.399128
0.333067 0.127476 0.536232
0.268438 0.036689 0.544028
0.512332 0.045015 0.318213
0.302818 0.041059 0.255802
0.269662 0.066633 0.445883
0.337657 0.055816 0.894849
0.339445 0.042427 0.125186
0.364053 0.038205 0.567226
0.354019 0.072859 0.778118
0.287281 0.078191 0.085405
0.330909 0.026482 0.811760
0.300095 0.092420 0.244607
0.390405 0.028729 0.724267
0.372436 0.046775 0.410267
0.338293 0.120769 0.485590
0.328340 0.056695 0.033914
0.179734 0.043868 0.159055
0.426293 0.041549 0.354315
0.240570 0.046174 0.233196
0.313075 0.031344 0.667331
0.329831 0.034418 0.531178
0.100844 0.045024 0.194991
0.191268 0.045595 0.214138
0.278647 0.049786 0.150698
0.355544 0.094629 0.659282
0.399656 0.222411 0.067753
0.146856 0.045555 0.244545
0.289120 0.080468 0.093853
0.437280 0.046084 0.250361
0.286031 0.034638 0.671118
0.277206 0.073646 0.506450
0.387480 0.043738 0.226260
0.325670 0.105894 0.721452
0.332277 0.047153 0.064495
0.361009 0.068075 0.620044
0.257931 0.051178 0.557489
0.291543 0.078679 0.710859
0.340462 0.100591 0.336662
0.346612 0.041280 0.209609
0.363539 0.038742 0.380072
0.388591 0.040462 0.416606
0.266065 0.046589 0.326257
0.291370 0.051417 0.675746
0.272410 0.033582 0.693322
0.351245 0.042356 0.127761
0.374037 0.057112 0.263954
0.516772 0.045404 0.208758
0.295416 0.045125 0.844134
0.266449 0.045474 0.210680
0.315846 0.041077 0.966234
0.330755 0.074624 0.824147
0.283486 0.122280 0.183459
0.242996 0.038536 0.490486
0.264991 0.041637 0.372497
0.369361 0.135968 0.066237
0.344315 0.029878 0.842582
0.324562 0.048182 0.057692
0.456018 0.045923 0.255488
0.284068 0.033060 0.661589
0.351471 0.090350 0.739789
0.430499 0.046106 0.334560
0.267137 0.036763 0.457288
0.283580 0.057389 0.067595
0.293461 0.070700 0.778812
0.316241 0.082475 0.795478
0.272031 0.038639 0.403904
0.153222 0.044094 0.165586
0.360520 0.103683 0.133878
0.366242 0.031427 0.733126
0.347981 0.036936 0.529056
0.254017 0.201712 0.098523
0.355116 0.083353 0.512267
0.540832 0.043805 0.190542
0.264457 0.046619 0.276570
0.291993 0.096030 0.598300
0.206233 0.043664 0.236810
0.225913 0.043765 0.212202
0.344810 0.094951 0.346530
0.263140 0.177535 0.150771
0.364556 0.040359 0.317082
0.273318 0.051552 0.286805
0.505056 0.044547 0.180336
0.312926 0.124854 0.669775
0.370463 0.056866 0.506450
0.229366 0.040752 0.389227
0.358678 0.089310 0.264607
0.304942 0.115165 0.453362
0.290945 0.078145 0.071442
0.075948 0.044958 0.224755
0.433220 0.043868 0.158840
0.459069 0.040127 0.402821
0.353950 0.086957 0.468289
0.363027 0.116481 0.049887
0.218236 0.043754 0.218021
0.534969 0.042912 0.259514
0.365387 0.046113 0.087640
0.336639 0.040556 0.305755
0.493092 0.043757 0.214544
0.327212 0.090787 0.148067
0.285004 0.065448 0.051660
0.311639 0.040420 0.313596
0.257461 0.039327 0.467638
0.071898 0.041349 0.311648
0.352594 0.037642 0.739353
0.291375 0.048364 0.757591
0.159686 0.043814 0.186677
0.333033 0.028740 0.729967
0.287788 0.050378 0.608103
0.283738 0.073782 0.092632
0.267778 0.044676 0.184974
0.511497 0.041451 0.327409
0.382265 0.168129 0.106846
0.269634 0.082382 0.478300
0.336524 0.042989 0.104787
0.396176 0.209400 0.083477
0.151143 0.042026 0.308523
0.150725 0.045588 0.228774
0.291447 0.060838 0.576451
0.278943 0.035110 0.545640
0.219707 0.043017 0.294903
0.399760 0.220042 0.076281
0.248064 0.221353 0.105729
0.387129 0.182455 0.113570
0.412418 0.045688 0.217538
0.297969 0.114192 0.555637
0.523806 0.041845 0.306388
0.451621 0.042377 0.312576
0.405130 0.046359 0.278280
0.321050 0.027912 0.861671
0.339433 0.038876 0.375268
0.562685 0.041106 0.326609
0.285648 0.087719 0.325500
0.282600 0.084321 0.198521
0.313427 0.041173 0.234733
0.300710 0.040386 0.315514
0.283492 0.042387 0.126610
0.315439 0.103614 0.312998
0.359767 0.084393 0.576285
0.298221 0.036634 0.574696
0.091210 0.041039 0.331474
0.368959 0.085899 0.263294
0.278422 0.046667 0.381377
0.293728 0.103035 0.613649
0.342649 0.097016 0.289235
0.144055 0.041329 0.335020
0.152930 0.041400 0.335104
0.356974 0.031001 0.795277
0.384797 0.175480 0.125365
0.356332 0.071683 0.672837
0.291294 0.072125 0.668904
0.104069 0.042668 0.265303
0.276487 0.030961 0.752800
0.291726 0.089174 0.654274
0.396239 0.213095 0.098575
0.541952 0.041041 0.336071
