0.450122 0.782946 0.189433
0.439635 0.949804 0.215669
0.465524 0.474898 0.209935
0.429957 0.049294 0.243886
0.470770 0.517792 0.243886
0.046846 0.333726 0.244306
0.503206 0.367310 0.172632
0.508207 0.399637 0.176437
0.447174 0.287348 0.243886
0.597792 0.669947 0.244306
0.454953 0.318140 0.119863
0.632408 0.711130 0.244306
0.432764 0.426681 0.148616
0.619803 0.685983 0.244306
0.409181 0.941033 0.263657
0.374501 0.390011 0.173248
0.218200 0.789886 0.243886
0.491306 0.413554 0.094001
0.421409 0.531646 0.201258
0.459100 0.491009 0.249654
0.415773 0.455489 0.201258
0.505634 0.451357 0.113497
0.492985 0.362656 0.188166
0.529020 0.420446 0.244447
0.449590 0.487880 0.158620
0.410557 0.411468 0.080386
0.449595 0.314461 0.123524
0.491492 0.362588 0.104955
0.450666 0.367715 0.081255
0.456177 0.310372 0.158188
0.489522 0.333234 0.157759
0.425840 0.430159 0.233649
0.454798 0.483860 0.255854
0.192137 0.798369 0.244306
0.441451 0.553618 0.184589
0.441424 0.509452 0.090833
0.507887 0.472846 0.155979
0.480720 0.490986 0.098590
0.444163 0.562318 0.203664
0.447315 0.556539 0.112748
0.457983 0.337161 0.096609
0.432764 0.503892 0.178282
0.440658 0.827115 0.182755
0.433848 0.577065 0.179990
0.455410 0.332216 0.101397
0.439406 0.339172 0.201914
0.451997 0.438371 0.248092
0.399109 0.540582 0.155191
0.414514 0.506602 0.243886
0.438247 0.597725 0.185628
0.370085 0.958458 0.280330
0.403621 0.504093 0.193651
0.395681 0.399074 0.204782
0.425059 0.440808 0.076490
0.685314 0.386934 0.243886
0.432946 0.462283 0.217084
0.791301 0.360642 0.243886
0.478608 0.395838 0.085702
0.448594 0.454514 0.248092
0.255844 0.722384 0.244306
0.439882 0.545561 0.233649
0.480970 0.522266 0.115645
0.125204 0.362648 0.244306
0.460003 0.427608 0.201258
0.407858 0.510147 0.193155
0.439256 0.534534 0.102302
0.425382 0.457201 0.217212
0.512401 0.404390 0.127655
0.392994 0.524607 0.134964
0.487532 0.972370 0.258889
0.463234 0.347762 0.201882
0.395402 0.411120 0.089696
0.672095 0.381311 0.244447
0.468307 0.540350 0.114582
0.369587 0.395140 0.136675
0.434837 0.544839 0.168206
0.437061 0.579326 0.195449
0.434439 0.864918 0.189569
0.361772 0.432349 0.025140
0.423458 0.498147 0.243886
0.449500 0.192475 0.244306
0.372597 0.377039 0.147559
0.233552 0.735270 0.244306
0.478994 0.327194 0.168127
0.453695 0.461763 0.216435
0.389067 0.518464 0.156205
0.394523 0.373475 0.098118
0.510921 0.442878 0.126429
0.471345 0.340369 0.193806
0.427646 0.388657 0.077699
0.415145 0.434312 0.205292
0.368141 0.403415 0.158482
0.100056 0.363567 0.244000
0.688832 0.784479 0.244306
0.408555 0.546046 0.123801
0.426877 0.427838 0.248092
0.436663 0.349949 0.206977
0.472674 0.359627 0.091451
0.521150 0.483283 0.028085
0.449235 0.556579 0.182169
0.432764 0.502344 0.171329
0.427629 0.452579 0.260873
0.403484 0.323169 0.139886
0.491352 0.468578 0.194777
0.382560 0.501493 0.133701
0.222617 0.388076 0.244306
0.432168 0.417724 0.205695
0.679916 0.371006 0.243886
0.460483 0.540657 0.233080
0.433276 0.520634 0.185888
0.403373 0.374361 0.090967
0.430389 0.414620 0.220365
0.392641 0.395702 0.094076
0.450229 0.539648 0.105535
0.395682 0.500416 0.187826
0.185173 0.374882 0.244306
0.428757 0.528242 0.233649
0.449840 0.644921 0.151700
0.396478 0.531894 0.160796
0.489495 0.444847 0.093365
0.441659 0.541140 0.176787
0.453246 0.389306 0.243886
0.436765 0.305608 0.146002
0.393932 0.332979 0.159879
0.812718 0.329775 0.243886
0.444263 0.437661 0.220957
0.512178 0.423243 0.167246
0.416879 0.502653 0.233649
0.436476 0.483296 0.257649
0.371811 0.444760 0.125927
0.446743 0.260117 0.243886
0.474219 0.540244 0.120162
0.422819 0.572009 0.125819
0.395371 0.509525 0.181436
0.432034 0.342308 0.202896
0.462471 0.591163 0.152924
0.669186 0.756753 0.243886
0.432764 0.494298 0.147939
0.439635 0.913458 0.173669
0.448763 0.621870 0.158130
0.450125 0.715668 0.185364
0.464235 0.336494 0.100378
0.437227 0.581910 0.185294
0.430240 0.262048 0.244306
0.398988 0.439059 0.206925
0.396215 0.342002 0.114133
0.464875 0.365169 0.209897
0.498235 0.361802 0.114961
0.357672 0.336723 0.041095
0.478126 0.337383 0.109020
0.436999 0.741371 0.199188
0.321807 0.647385 0.244002
0.420092 0.525302 0.212251
0.455345 0.570762 0.216508
0.431194 0.941020 0.263657
0.462924 0.492257 0.088532
0.449590 0.436190 0.168459
0.485186 0.494279 0.103297
0.446795 0.902062 0.190943
0.432764 0.409015 0.153417
0.470115 0.506795 0.243886
0.387453 0.951141 0.263657
0.384938 0.359379 0.178268
0.492966 0.421430 0.199823
0.512440 0.430194 0.165408
0.489007 0.356559 0.188481
0.446383 0.785300 0.183377
0.453797 0.050105 0.244225
0.392996 0.441259 0.244306
0.521583 0.380230 0.025000
0.470428 0.482394 0.226415
0.442553 0.622181 0.147694
0.414208 0.556665 0.124778
0.433012 0.493754 0.250454
0.498475 0.506582 0.156323
0.380795 0.413949 0.105622
0.452672 0.547705 0.109721
0.432884 0.615317 0.152074
0.501086 0.350855 0.152153
0.401208 0.327080 0.132051
0.411705 0.522882 0.106394
0.444278 0.597861 0.152924
0.443857 0.542838 0.189499
0.368218 0.425408 0.138202
0.461216 0.531904 0.201258
0.401363 0.397922 0.087022
0.400999 0.940225 0.263038
0.386057 0.419263 0.195744
0.216147 0.750691 0.244306
0.513043 0.550095 0.243886
0.449639 0.595885 0.233649
0.401645 0.380160 0.204443
0.476523 0.439116 0.083909
0.425146 0.350121 0.205086
0.466133 0.572709 0.161016
0.434418 0.538348 0.151166
0.506801 0.950982 0.250044
0.319393 0.424267 0.243886
0.419841 0.567983 0.168970
0.379820 0.497210 0.139799
0.439567 0.508618 0.147694
0.510601 0.493183 0.057603
0.507123 0.491551 0.063637
0.372512 0.397201 0.170888
0.451165 0.565726 0.117730
0.429482 0.335140 0.097749
0.385153 0.347367 0.163457
0.591349 0.648228 0.243886
0.454109 0.314811 0.170242
0.449590 0.465554 0.187635
0.446537 0.317325 0.176922
0.404295 0.550300 0.137535
0.446612 0.436609 0.074416
0.426255 0.450803 0.201258
0.410079 0.466642 0.206692
0.443156 0.754129 0.181322
0.451120 0.640368 0.146353
0.506644 0.467439 0.168774
0.441335 0.645044 0.160886
0.451889 0.641348 0.195922
0.350183 0.565868 0.243886
0.458618 0.551584 0.214276
0.434561 0.467849 0.147694
0.469344 0.379611 0.084561
0.431818 0.628996 0.153793
0.417085 0.331325 0.107103
0.439972 0.318722 0.179446
0.432764 0.434023 0.148436
0.526151 0.363723 0.026017
0.439142 0.556108 0.112067
0.526151 0.501551 0.025126
0.460135 0.311690 0.137931
0.374843 0.365540 0.155809
0.537077 0.613015 0.243886
0.404014 0.395472 0.209387
0.449390 0.583410 0.124889
0.447507 0.505498 0.147694
0.418450 0.358230 0.088166
0.361037 0.491096 0.035878
0.440069 0.966441 0.263657
0.584575 0.679242 0.243978
0.273497 0.411183 0.243886
0.490667 0.516339 0.126821
0.525795 0.490711 0.025000
0.408915 0.511500 0.244306
0.440828 0.533186 0.179470
0.435746 0.496980 0.201258
0.487884 0.515785 0.120245
0.477267 0.531172 0.243886
0.258522 0.390640 0.244306
0.507741 0.958365 0.290439
0.425338 0.437101 0.233649
0.472926 0.493570 0.201732
0.395823 0.402712 0.089397
0.450072 0.341908 0.092744
0.438054 0.472009 0.261962
0.433082 0.315758 0.173724
0.448385 0.387033 0.218043
0.157925 0.364439 0.244306
0.504230 0.398094 0.184627
0.461368 0.520756 0.100075
0.464981 0.514310 0.206852
0.660565 0.767583 0.244306
0.408553 0.319460 0.152681
0.463106 0.517889 0.195756
0.439114 0.532830 0.233649
0.437815 0.866152 0.196592
0.036768 0.342200 0.244306
0.428097 0.462017 0.201258
0.453797 0.325580 0.244278
0.433959 0.531223 0.147753
0.473629 0.562680 0.151605
0.450774 0.417678 0.214738
0.418358 0.476129 0.255118
0.415005 0.347215 0.199973
0.509295 0.458778 0.127869
0.392150 0.421540 0.202276
0.472605 0.544254 0.174164
0.362092 0.352036 0.025302
0.424524 0.316441 0.170396
0.425278 0.374175 0.081316
0.241679 0.408509 0.244306
0.449590 0.500664 0.168274
0.418803 0.554966 0.119050
0.389288 0.381795 0.193778
0.361875 0.467439 0.028225
0.440062 0.625883 0.153584
0.418992 0.386776 0.214437
0.409687 0.356887 0.202155
0.444596 0.047073 0.243886
0.425295 0.509601 0.233649
0.418131 0.460662 0.257568
0.446683 0.530873 0.233649
0.399745 0.453893 0.088886
0.454884 0.604821 0.136166
0.492973 0.452288 0.096875
0.432764 0.503685 0.154539
0.436884 0.562145 0.114891
0.451346 0.594189 0.208134
0.223636 0.740785 0.243886
0.449250 0.518134 0.170253
0.465510 0.377462 0.212113
0.615099 0.691484 0.244306
0.432764 0.453550 0.169232
0.370071 0.451085 0.161564
0.449590 0.470118 0.165396
0.491253 0.505921 0.117295
0.821187 0.325470 0.244447
0.490554 0.490739 0.108185
0.434709 0.468944 0.215634
0.449148 0.637895 0.152940
0.459126 0.465661 0.233649
0.429191 0.483694 0.233649
0.494714 0.514223 0.134831
0.380899 0.488307 0.126687
0.452008 0.441836 0.075666
0.435870 0.560867 0.167349
0.858398 0.333526 0.244220
0.352190 0.595872 0.243886
0.450874 0.735818 0.188004
0.430073 0.356728 0.244306
0.406357 0.448281 0.248092
0.437908 0.350063 0.088108
0.430101 0.531745 0.193094
0.413777 0.488308 0.214991
0.365419 0.545324 0.243886
0.242811 0.744529 0.244306
0.420601 0.460504 0.201258
0.458974 0.549498 0.206919
0.501169 0.358062 0.126438
0.039409 0.334575 0.243886
0.425733 0.610329 0.142968
0.457507 0.478010 0.211790
0.393645 0.462846 0.096626
0.413858 0.336688 0.192772
0.435399 0.836460 0.186008
0.430486 0.643013 0.194816
0.377579 0.362546 0.163436
0.443128 0.480963 0.082029
0.614786 0.410157 0.243886
0.383369 0.366234 0.114598
0.418557 0.329504 0.186808
0.432610 0.585857 0.181295
0.318441 0.632813 0.244306
0.442687 0.422501 0.147694
0.423317 0.378783 0.214294
0.466775 0.503794 0.207981
0.449590 0.448581 0.168717
0.494095 0.347245 0.172250
0.446255 0.432811 0.248092
0.460483 0.940370 0.258889
0.328947 0.616637 0.244306
0.520963 0.526629 0.026930
0.440542 0.633319 0.177334
0.179720 0.802215 0.244258
0.510523 0.438248 0.170475
0.445113 0.972476 0.263627
0.448974 0.483997 0.233649
0.453992 0.555738 0.195500
0.429406 0.419765 0.074940
0.402511 0.362338 0.200667
0.439635 0.941934 0.219932
0.437946 0.440730 0.233649
0.436314 0.567744 0.163660
0.374454 0.468433 0.162367
0.448078 0.422473 0.244306
0.445547 0.513358 0.147694
0.439879 0.218237 0.243886
0.417298 0.548547 0.178632
0.032797 0.330589 0.244306
0.179761 0.809365 0.244306
0.439635 0.921017 0.194995
0.443380 0.481355 0.258862
0.511560 0.397808 0.167097
0.443213 0.709602 0.200724
0.379279 0.460251 0.114522
0.429637 0.634003 0.192206
0.482433 0.400353 0.208145
0.405189 0.518123 0.243886
0.452845 0.605977 0.185721
0.362755 0.552075 0.244306
0.407502 0.544744 0.170844
0.432764 0.462698 0.152381
0.443421 0.923930 0.203403
0.370675 0.444535 0.164781
0.439242 0.602011 0.212414
0.531805 0.595518 0.244306
0.454283 0.617347 0.142254
0.451303 0.185317 0.244306
0.422680 0.561146 0.119904
0.430503 0.673623 0.192295
0.421042 0.517485 0.233649
0.376140 0.452011 0.179106
0.490616 0.520550 0.163063
0.393400 0.529237 0.149712
0.338245 0.588994 0.243886
0.200920 0.813238 0.244306
0.398005 0.971768 0.258889
0.449973 0.592994 0.128263
0.513553 0.428014 0.157582
0.460312 0.541662 0.211755
0.452969 0.418841 0.075369
0.374424 0.466824 0.131447
0.525687 0.555911 0.244151
0.401945 0.531371 0.122021
0.371665 0.965490 0.234870
0.453182 0.596746 0.195198
0.480206 0.411976 0.210411
0.438612 0.603387 0.173506
0.383667 0.547461 0.244306
0.506671 0.447156 0.179480
0.480939 0.425651 0.085759
0.440538 0.658691 0.179247
0.470183 0.316875 0.145128
0.404200 0.490807 0.198690
0.252721 0.406092 0.244306
0.385703 0.369255 0.186189
0.477079 0.341019 0.189552
0.410070 0.318621 0.141718
0.505496 0.478369 0.130861
0.279144 0.395714 0.243886
0.422908 0.433763 0.251257
0.458648 0.551408 0.221683
0.458844 0.601776 0.141450
0.732395 0.362169 0.244447
0.433265 0.590412 0.200447
0.423621 0.423396 0.233649
0.440234 0.486906 0.211766
0.412589 0.439759 0.226022
0.708784 0.365334 0.243886
0.461615 0.483848 0.201258
0.280221 0.703729 0.244306
0.446707 0.558910 0.171180
0.440612 0.625230 0.135759
0.362092 0.459047 0.026730
0.437600 0.561995 0.201258
0.412011 0.476528 0.250765
0.554006 0.624622 0.243886
0.405675 0.524090 0.112424
0.457447 0.558444 0.201855
0.506760 0.434851 0.179997
0.459112 0.445369 0.233649
0.406966 0.330927 0.179216
0.427959 0.548959 0.192744
0.373319 0.972476 0.263259
0.440968 0.306483 0.140396
0.450762 0.720680 0.194213
0.370520 0.974989 0.290374
0.456495 0.309417 0.144220
0.444110 0.877144 0.196814
0.430162 0.576104 0.197089
0.521935 0.586365 0.244306
0.426873 0.490999 0.209244
0.509325 0.967173 0.249343
0.449590 0.455813 0.186972
0.432916 0.417673 0.147694
0.315567 0.432747 0.244306
0.285105 0.423671 0.244149
0.449590 0.489178 0.189764
0.432738 0.777551 0.188836
0.442716 0.342291 0.091692
0.502200 0.461534 0.182928
0.464714 0.532419 0.107547
0.432764 0.483942 0.184916
0.433974 0.531454 0.179467
0.495369 0.358409 0.181512
0.417413 0.573098 0.162190
0.372329 0.540301 0.243886
0.443421 0.927482 0.176993
0.182714 0.364350 0.244306
0.525860 0.437932 0.028085
0.446756 0.123453 0.243886
0.381879 0.972476 0.261356
0.459895 0.472365 0.082656
0.511959 0.393667 0.159591
0.509849 0.466515 0.152754
0.446417 0.887088 0.194997
0.439635 0.927813 0.193093
0.449956 0.705374 0.196525
0.418832 0.517923 0.207383
0.614842 0.716909 0.243886
0.715501 0.385498 0.244417
0.472643 0.355519 0.201711
0.713866 0.360015 0.244447
0.438137 0.631078 0.138767
0.398618 0.531115 0.167384
0.410500 0.556436 0.165254
0.439983 0.954459 0.123856
0.504456 0.444698 0.111168
0.216680 0.400987 0.244306
0.447252 0.218006 0.244306
0.449590 0.473544 0.186573
0.506801 0.971794 0.273722
0.443750 0.639432 0.157378
0.426016 0.567207 0.121036
0.490568 0.421593 0.093624
0.448748 0.591933 0.167838
0.370279 0.399862 0.164164
0.513949 0.400062 0.153858
0.380044 0.362750 0.122319
0.630589 0.742520 0.244228
0.412113 0.478559 0.211269
0.449154 0.769439 0.195286
0.429824 0.126339 0.243886
0.461750 0.492442 0.233649
0.375627 0.461996 0.122287
0.443421 0.927596 0.149628
0.449772 0.395776 0.244306
0.777025 0.362527 0.243886
0.372609 0.947866 0.251200
0.435132 0.857578 0.187329
0.547681 0.439939 0.243886
0.466487 0.322152 0.120439
0.368422 0.399412 0.143370
0.509325 0.955419 0.265681
0.321827 0.416887 0.243886
0.428633 0.334238 0.196325
0.450448 0.307224 0.150024
0.484288 0.335809 0.118783
0.356737 0.586646 0.243886
0.425923 0.559464 0.220026
0.511804 0.459332 0.151092
0.443421 0.909481 0.188726
0.507213 0.460941 0.171525
0.509811 0.406361 0.121232
0.485237 0.328281 0.145613
0.443012 0.315017 0.121254
0.498354 0.345989 0.140432
0.448010 0.489189 0.210876
0.519602 0.400764 0.041901
0.460962 0.549948 0.114522
0.439709 0.660520 0.201805
0.494906 0.490367 0.114086
0.438064 0.694359 0.180478
0.435017 0.604675 0.150489
0.480954 0.425291 0.209444
0.386395 0.477330 0.185473
0.497715 0.383117 0.188586
0.505067 0.426384 0.184302
0.440191 0.950792 0.138511
0.432624 0.467014 0.248092
0.459755 0.544922 0.219162
0.362092 0.340207 0.036917
0.362092 0.375131 0.027518
0.657377 0.749290 0.244306
0.679119 0.378920 0.244447
0.442114 0.629528 0.147694
0.441391 0.644153 0.171300
0.442004 0.469732 0.147694
0.432764 0.442620 0.171478
0.521637 0.369069 0.025000
0.437761 0.045133 0.244306
0.449415 0.618323 0.181377
0.383231 0.375442 0.183994
0.434011 0.635848 0.199850
0.441603 0.640756 0.181044
0.460598 0.391120 0.216565
0.415190 0.396483 0.080069
0.584461 0.671589 0.244306
0.468780 0.940225 0.263136
0.416804 0.336296 0.101050
0.606514 0.669438 0.243886
0.243261 0.713145 0.244306
0.444305 0.892390 0.184824
0.504952 0.419208 0.184742
0.379111 0.378339 0.177372
0.449845 0.351825 0.207587
0.450607 0.728735 0.194144
0.426367 0.460789 0.261353
0.460191 0.587951 0.135014
0.453944 0.579043 0.194274
0.455605 0.469140 0.260775
0.416809 0.350365 0.092651
0.400244 0.380963 0.091454
0.433699 0.624014 0.138016
0.369214 0.431639 0.134651
0.437479 0.052298 0.244306
0.504324 0.483222 0.163975
0.378666 0.483872 0.164251
0.073392 0.333166 0.243886
0.425469 0.467915 0.248092
0.575431 0.658864 0.243886
0.458218 0.461113 0.201258
0.431929 0.720819 0.193950
0.509325 0.952705 0.256887
0.448097 0.789207 0.196140
0.492073 0.484122 0.187649
0.508633 0.465999 0.130888
0.438213 0.718092 0.200170
0.451232 0.594855 0.215540
0.559332 0.602996 0.243886
0.368902 0.442408 0.157770
0.417908 0.456961 0.233649
0.414893 0.377654 0.083849
0.418420 0.515069 0.098052
0.659448 0.781377 0.244306
0.508843 0.429323 0.120248
0.444301 0.544050 0.199155
0.397989 0.518381 0.243886
0.435301 0.652302 0.200297
0.389909 0.457293 0.098709
0.463959 0.520293 0.211012
0.441914 0.635759 0.163514
0.451035 0.742699 0.189958
0.422277 0.461679 0.248092
0.424683 0.550414 0.112936
0.383850 0.492433 0.173249
0.608218 0.393989 0.243886
0.382119 0.441619 0.104765
0.402410 0.498208 0.099644
0.339931 0.431444 0.243886
0.444845 0.582244 0.147694
0.430297 0.446089 0.259762
0.432764 0.487052 0.191399
0.509325 0.951109 0.272804
0.433681 0.661090 0.182415
0.428691 0.569639 0.193911
0.490164 0.527237 0.148929
0.559308 0.619463 0.243886
0.429647 0.435774 0.219865
0.437732 0.352678 0.244306
0.701487 0.800015 0.244306
0.424961 0.392953 0.217627
0.238187 0.762453 0.243900
0.484089 0.451754 0.205901
0.501907 0.377615 0.114269
0.441493 0.589577 0.125302
0.345194 0.596606 0.244306
0.465576 0.467880 0.248092
0.440421 0.509344 0.187541
0.439574 0.618305 0.169774
0.448837 0.739074 0.196891
0.433823 0.172460 0.244306
0.454494 0.486153 0.210397
0.626297 0.695042 0.244306
0.580914 0.415263 0.244447
0.430300 0.972476 0.263200
0.415934 0.540658 0.181991
0.499595 0.358268 0.173023
0.450206 0.462279 0.201258
0.449590 0.509484 0.154987
0.384988 0.450138 0.101733
0.442530 0.840116 0.183066
0.369408 0.393712 0.155045
0.449590 0.499113 0.194322
0.453862 0.597813 0.163008
0.486100 0.427601 0.090084
0.508768 0.438611 0.120592
0.230781 0.758628 0.243886
0.443421 0.944846 0.225917
0.438301 0.598562 0.149252
0.455393 0.570480 0.224669
0.444930 0.469832 0.233649
0.636928 0.749904 0.243886
0.449590 0.433079 0.190785
0.510841 0.460086 0.137830
0.417863 0.468329 0.201258
0.446998 0.461586 0.248092
0.368748 0.449486 0.143539
0.628547 0.387342 0.243972
0.362092 0.492785 0.027716
0.414979 0.377858 0.211375
0.425600 0.501793 0.205823
0.450204 0.600880 0.227093
0.488613 0.332171 0.139236
0.501071 0.954190 0.258889
0.430081 0.284249 0.243886
0.398245 0.491764 0.096345
0.394328 0.512426 0.244306
0.449590 0.505918 0.161005
0.443132 0.345091 0.205125
0.409008 0.465051 0.086327
0.519703 0.491096 0.037254
0.401335 0.464957 0.204127
0.464267 0.428427 0.209191
0.481898 0.433549 0.086711
0.247380 0.707389 0.244040
0.406727 0.449289 0.083772
0.469750 0.571059 0.152045
0.372609 0.943022 0.272085
0.428608 0.575125 0.123631
0.449590 0.443407 0.183550
0.432764 0.419539 0.155134
0.495232 0.511944 0.161779
0.433765 0.819362 0.192885
0.437535 0.235142 0.243886
0.389465 0.342136 0.168960
0.513336 0.402897 0.049272
0.424008 0.548245 0.216538
0.132373 0.360140 0.244306
0.400471 0.390123 0.089293
0.431332 0.652191 0.185396
0.453797 0.068200 0.243989
0.553103 0.430207 0.243886
0.386273 0.455817 0.193217
0.502187 0.427240 0.107331
0.448072 0.537031 0.155006
0.419625 0.408163 0.217815
0.652901 0.767251 0.244306
0.414411 0.940225 0.259145
0.449590 0.417969 0.173946
0.434737 0.543296 0.178654
0.628554 0.405845 0.243886
0.411485 0.474880 0.224302
0.466305 0.319162 0.126826
0.555595 0.411224 0.244447
0.409294 0.462041 0.225767
0.462238 0.476186 0.248092
0.447804 0.444258 0.199155
0.282070 0.673188 0.243886
0.449666 0.519999 0.201258
0.449590 0.418668 0.158257
0.448494 0.530270 0.163345
0.436085 0.564200 0.192385
0.444441 0.446030 0.220798
0.195171 0.373115 0.244306
0.670318 0.388019 0.243886
0.394903 0.516916 0.174024
0.288393 0.408582 0.243886
0.782041 0.347919 0.244447
0.434672 0.420217 0.220577
0.385204 0.459435 0.104515
0.459083 0.367248 0.083071
0.478282 0.551744 0.140424
0.450611 0.627024 0.182955
0.506801 0.947167 0.240119
0.377260 0.366699 0.128555
0.432764 0.510109 0.186867
0.446602 0.548884 0.186216
0.438687 0.902678 0.187887
0.693955 0.798094 0.243886
0.432764 0.434471 0.164056
0.379847 0.385077 0.181446
0.427529 0.586571 0.166352
0.374765 0.388336 0.122189
0.410812 0.961942 0.263657
0.499655 0.446793 0.104577
0.436205 0.427944 0.220534
0.450318 0.463834 0.262377
0.512268 0.450816 0.131223
0.452202 0.612794 0.136784
0.215291 0.782776 0.243886
0.446560 0.373354 0.079359
0.512900 0.443074 0.135065
0.521417 0.496915 0.028085
0.543338 0.619690 0.244306
0.492890 0.406152 0.095094
0.444261 0.438552 0.257803
0.395367 0.418428 0.089899
0.615312 0.391671 0.244447
0.445839 0.313483 0.171075
0.449376 0.762382 0.195208
0.465103 0.450823 0.078861
0.441973 0.961211 0.258889
0.439635 0.919408 0.168370
0.445081 0.611231 0.132149
0.433854 0.308057 0.138538
0.414834 0.574080 0.155411
0.464663 0.499285 0.091193
0.110092 0.347274 0.243886
0.283206 0.402260 0.243886
0.141831 0.376990 0.244306
0.505155 0.378520 0.121685
0.459815 0.430741 0.249332
0.451442 0.593627 0.226995
0.432764 0.443528 0.191280
0.429265 0.362169 0.082853
0.459415 0.383600 0.080023
0.430862 0.090589 0.243886
0.366126 0.401009 0.040944
0.496694 0.354633 0.119573
0.432205 0.612313 0.144742
0.403832 0.545920 0.131960
0.441785 0.035245 0.244306
0.502782 0.493620 0.068883
0.443421 0.919271 0.179549
0.502627 0.537488 0.243886
0.398651 0.516679 0.180207
0.409568 0.514917 0.103492
0.417329 0.441679 0.079003
0.439473 0.069057 0.243886
0.478560 0.490352 0.198661
0.194470 0.816536 0.243886
0.395858 0.466815 0.199728
0.372609 0.956890 0.273997
0.263195 0.697466 0.243886
0.449590 0.436451 0.150342
0.449590 0.480729 0.187588
0.397480 0.360819 0.099572
0.445270 0.162136 0.243886
0.485488 0.524133 0.171624
0.476077 0.532900 0.117057
0.451171 0.641259 0.184192
0.404699 0.356137 0.096729
0.434077 0.601962 0.164927
0.452486 0.599110 0.184522
0.420478 0.527565 0.218872
0.361803 0.448400 0.025140
0.430081 0.658640 0.189094
0.448405 0.513227 0.202244
0.436434 0.411436 0.147694
0.648247 0.406968 0.243886
0.509297 0.932220 0.258372
0.499911 0.363067 0.178497
0.440225 0.930527 0.226261
0.440851 0.602011 0.223439
0.434662 0.750495 0.197097
0.138296 0.368306 0.244306
0.482617 0.402953 0.086659
0.481896 0.469018 0.202437
0.439566 0.573339 0.233649
0.450070 0.622336 0.151042
0.432764 0.465947 0.177607
0.449590 0.478433 0.161227
0.405404 0.437144 0.211121
0.452077 0.418137 0.206921
0.457073 0.608579 0.142422
0.440216 0.760798 0.181387
0.512464 0.440971 0.163531
0.377938 0.475278 0.169693
0.432764 0.426913 0.175962
0.380135 0.482671 0.171226
0.445505 0.699714 0.200252
0.447612 0.403416 0.244306
0.639299 0.383849 0.244153
0.444401 0.744826 0.199733
0.443463 0.499519 0.086435
0.393218 0.380475 0.097580
0.446339 0.796181 0.197525
0.380084 0.400773 0.065163
0.703494 0.806667 0.243886
0.453659 0.235716 0.243886
0.443421 0.910937 0.164486
0.428916 0.591299 0.192965
0.508677 0.949480 0.282574
0.421175 0.594543 0.153131
0.457060 0.475182 0.233649
0.205509 0.770435 0.243886
0.387631 0.361594 0.185664
0.436769 0.636113 0.157184
0.404597 0.429639 0.210812
0.077702 0.354619 0.243886
0.317233 0.613613 0.244306
0.449916 0.668590 0.183462
0.444391 0.596049 0.171821
0.512779 0.451267 0.244062
0.457760 0.431401 0.233649
0.423982 0.461929 0.233649
0.283846 0.680125 0.243886
0.538613 0.442849 0.243886
0.388183 0.483469 0.109964
0.409596 0.325626 0.121384
0.453685 0.570711 0.195418
0.371307 0.383998 0.145065
0.420606 0.940339 0.263657
0.418735 0.561676 0.172000
0.498455 0.418553 0.101763
0.362092 0.398733 0.026748
0.449882 0.375769 0.215655
0.717295 0.366539 0.244447
0.443421 0.938930 0.183284
0.494397 0.474421 0.106946
0.435422 0.140585 0.244306
0.359621 0.344784 0.030663
0.426866 0.419623 0.226756
0.510550 0.445597 0.169990
0.447597 0.498636 0.208683
0.434292 0.447329 0.147694
0.439635 0.950591 0.240633
0.428799 0.540651 0.195782
0.433981 0.531568 0.155059
0.483761 0.491527 0.194133
0.430384 0.457536 0.233649
0.432258 0.509493 0.233649
0.506903 0.364847 0.137632
0.368595 0.442123 0.140844
0.412272 0.371298 0.209207
0.385654 0.510518 0.138041
0.489826 0.462668 0.097436
0.439635 0.942024 0.142596
0.446131 0.614192 0.161894
0.452134 0.589574 0.220531
0.425177 0.515866 0.096297
0.413778 0.566877 0.161377
0.436500 0.570632 0.157302
0.382339 0.460890 0.186176
0.476951 0.497616 0.197758
0.401629 0.406584 0.085727
0.440879 0.336271 0.095251
0.534221 0.579568 0.244306
0.452179 0.177749 0.244306
0.429916 0.560164 0.183945
0.473882 0.385113 0.085618
0.460011 0.462666 0.248092
0.407328 0.479392 0.091286
0.437058 0.892569 0.185808
0.432764 0.479915 0.167466
0.454202 0.577454 0.209283
0.469455 0.365099 0.087554
0.397384 0.328750 0.155188
0.342074 0.415973 0.244190
0.449321 0.443264 0.259315
0.453602 0.374612 0.243886
0.439268 0.809568 0.198492
0.426799 0.564600 0.206007
0.444180 0.573924 0.203414
0.443368 0.612452 0.177586
0.563660 0.625208 0.244306
0.448655 0.398447 0.220135
0.463089 0.468518 0.201258
0.432764 0.503403 0.196338
0.391834 0.344628 0.119219
0.456700 0.510260 0.093257
0.400073 0.534016 0.243886
0.509325 0.963737 0.284566
0.449267 0.602011 0.203150
0.414652 0.576231 0.147848
0.379860 0.440784 0.187035
0.433741 0.485574 0.147694
0.432635 0.494901 0.209286
0.176641 0.388442 0.244006
0.398164 0.485747 0.099788
0.503424 0.446127 0.185729
0.786336 0.336571 0.243886
0.436673 0.579323 0.122543
0.420640 0.434800 0.077752
0.372214 0.448908 0.170732
0.468107 0.495991 0.208622
0.445813 0.116451 0.243886
0.374444 0.462933 0.167764
0.480035 0.444413 0.209622
0.430174 0.584370 0.227104
0.430834 0.680720 0.193015
0.455790 0.389763 0.078118
0.430242 0.541243 0.233649
0.498124 0.382991 0.107340
0.626755 0.398539 0.244447
0.491906 0.449091 0.199937
0.506801 0.956303 0.283420
0.421379 0.470060 0.258053
0.465890 0.508983 0.201963
0.436849 0.807772 0.183706
0.507777 0.427034 0.177943
0.435721 0.782655 0.183897
0.449590 0.478750 0.169049
0.638682 0.743138 0.243886
0.473081 0.403702 0.081445
0.472090 0.410925 0.081121
0.385447 0.391167 0.102871
0.375295 0.426817 0.244306
0.541110 0.419976 0.243886
0.488164 0.530699 0.142929
0.573914 0.635509 0.243886
0.428465 0.608383 0.136760
0.727683 0.381536 0.243949
0.496786 0.401797 0.099386
0.449710 0.252725 0.244306
0.422835 0.345455 0.093291
0.471238 0.361490 0.205576
0.462193 0.460942 0.258813
0.443215 0.408506 0.148398
0.491232 0.440719 0.243886
0.432764 0.476500 0.187904
0.436042 0.847076 0.195633
0.359106 0.565245 0.243886
0.679928 0.768520 0.243886
0.416183 0.450823 0.215679
0.418925 0.518465 0.222274
0.424462 0.484623 0.254092
0.517523 0.439507 0.243886
0.458708 0.497308 0.244077
0.431868 0.608005 0.182744
0.502079 0.363338 0.121574
0.476590 0.504309 0.243886
0.470070 0.454505 0.233649
0.513613 0.405208 0.160747
0.436312 0.827482 0.196484
0.439581 0.497684 0.248092
0.436846 0.451853 0.262197
0.449590 0.458122 0.195701
0.443628 0.492918 0.233649
0.450102 0.447715 0.248092
0.432764 0.452776 0.179002
0.404036 0.531431 0.176185
0.367702 0.406762 0.147929
0.099374 0.338253 0.244306
0.436684 0.597664 0.128168
0.432157 0.756650 0.191690
0.484399 0.329825 0.132912
0.387962 0.374725 0.190443
0.448650 0.847963 0.192543
0.444276 0.606197 0.138656
0.071680 0.340131 0.244306
0.377234 0.965915 0.263657
0.465247 0.429976 0.233649
0.468677 0.551382 0.174033
0.759278 0.371027 0.244447
0.500463 0.436214 0.243886
0.468645 0.435580 0.228357
0.433050 0.601218 0.219247
0.431620 0.705421 0.194036
0.416851 0.506315 0.206458
0.494233 0.491199 0.080528
0.452313 0.648921 0.194401
0.445294 0.581579 0.184390
0.495967 0.539673 0.243886
0.319703 0.639807 0.243886
0.383275 0.431852 0.244306
0.477575 0.541014 0.169840
0.434356 0.537378 0.190338
0.403542 0.343227 0.105711
0.433412 0.605863 0.200137
0.433464 0.772074 0.194700
0.677147 0.775613 0.243886
0.494311 0.516791 0.153015
0.506359 0.406193 0.182832
0.467631 0.532264 0.185959
0.449590 0.467247 0.173284
0.434366 0.537530 0.174573
0.447456 0.361061 0.082583
0.440549 0.488745 0.248092
0.431610 0.592781 0.224792
0.474837 0.347641 0.195549
0.376515 0.477102 0.162237
0.435728 0.702115 0.199329
0.266664 0.712949 0.244306
0.470108 0.484271 0.216974
0.513497 0.409273 0.133119
0.389064 0.347445 0.173699
0.398232 0.327470 0.144460
0.635676 0.719419 0.244306
0.561278 0.646630 0.244306
0.617936 0.698202 0.244306
0.429432 0.363275 0.212957
0.427606 0.310626 0.134719
0.433817 0.376244 0.244306
0.498331 0.484090 0.178763
0.367679 0.580182 0.244306
0.503851 0.544432 0.243886
0.438624 0.399584 0.074809
0.499189 0.462978 0.108988
0.420199 0.415775 0.217817
0.380643 0.452175 0.108403
0.480139 0.354596 0.099666
0.442240 0.605240 0.147694
0.495456 0.503475 0.123055
0.442874 0.620372 0.176954
0.433008 0.609671 0.161860
0.446477 0.855699 0.195847
0.432764 0.489816 0.156980
0.447943 0.602737 0.179753
0.445455 0.546070 0.107562
0.429787 0.345872 0.243886
0.384411 0.483965 0.116755
0.371464 0.938133 0.266664
0.437241 0.582129 0.152762
0.377689 0.436285 0.243886
0.397664 0.510714 0.112078
0.451478 0.505482 0.090041
0.388581 0.353078 0.178625
0.432573 0.455237 0.201258
0.488213 0.425383 0.203539
0.386298 0.407703 0.098821
0.456750 0.565501 0.175016
0.469385 0.370799 0.208959
0.443219 0.812546 0.182555
0.439635 0.940827 0.150126
0.504072 0.453236 0.183726
0.498731 0.395870 0.104038
0.445323 0.581113 0.193936
0.433703 0.278145 0.243886
0.443081 0.565452 0.116075
0.475808 0.450843 0.217341
0.569687 0.628867 0.244306
0.487559 0.500501 0.187196
0.493653 0.554209 0.244246
0.626657 0.736572 0.244306
0.491634 0.395106 0.199396
0.474332 0.320531 0.137199
0.459980 0.595245 0.139002
0.461811 0.484930 0.252198
0.440031 0.408506 0.177796
0.372619 0.419038 0.120576
0.442644 0.373140 0.244306
0.443421 0.934725 0.159840
0.439635 0.933262 0.153320
0.438789 0.420257 0.074407
0.437298 0.560194 0.233649
0.441182 0.621280 0.160660
0.455750 0.578882 0.126667
0.455604 0.451693 0.076818
0.654090 0.774558 0.244306
0.453974 0.325194 0.186602
0.441693 0.560096 0.181674
0.498459 0.946877 0.258889
0.325714 0.429340 0.243886
0.455216 0.616694 0.151061
0.290127 0.667316 0.244306
0.369458 0.409236 0.163111
0.401812 0.507802 0.105802
0.436204 0.404665 0.243886
0.446593 0.601109 0.165806
0.055510 0.349098 0.244202
0.465603 0.453321 0.243886
0.505810 0.483726 0.142772
0.429258 0.272771 0.244101
0.425782 0.478469 0.257369
0.430176 0.613414 0.195594
0.442192 0.581663 0.203635
0.403914 0.486426 0.095389
0.507213 0.571950 0.244306
0.461289 0.484457 0.209391
0.483830 0.508372 0.186273
0.359281 0.407791 0.025140
0.783460 0.359680 0.244447
0.625083 0.711217 0.244306
0.402616 0.458425 0.206797
0.432234 0.506177 0.089867
0.484747 0.533886 0.161552
0.269687 0.706506 0.244306
0.139501 0.358642 0.244306
0.395411 0.332886 0.129946
0.384331 0.412515 0.194074
0.493132 0.357438 0.111559
0.513957 0.434949 0.142519
0.362106 0.448681 0.244287
0.394416 0.331773 0.138554
0.437019 0.731700 0.181669
0.678616 0.389540 0.243886
0.474994 0.398344 0.211988
0.447196 0.205241 0.243886
0.449369 0.516238 0.160231
0.432764 0.473121 0.169495
0.458875 0.550080 0.233560
0.394377 0.947043 0.263657
0.801102 0.350130 0.243886
0.198479 0.381688 0.243886
0.473693 0.463264 0.213801
0.466176 0.394962 0.079835
0.392737 0.354793 0.186359
0.411357 0.519329 0.190492
0.473137 0.546701 0.123664
0.502350 0.492465 0.161924
0.448552 0.823609 0.187222
0.454886 0.438692 0.233649
0.399564 0.525028 0.120415
0.415405 0.497843 0.211992
0.438234 0.597525 0.157229
0.435889 0.463475 0.233649
0.382465 0.354001 0.129330
0.429959 0.250640 0.244306
0.494173 0.338655 0.135401
0.506587 0.402856 0.064408
0.434827 0.388549 0.077116
0.421289 0.485149 0.233649
0.465122 0.419919 0.217167
0.377069 0.419512 0.112514
0.337904 0.421805 0.243886
0.463294 0.524193 0.202494
0.457538 0.408565 0.076021
0.617866 0.725022 0.243963
0.439777 0.949311 0.208572
0.442336 0.476930 0.147694
0.477501 0.405260 0.211825
0.426359 0.325263 0.185597
0.374564 0.366425 0.146125
0.266047 0.391279 0.244108
0.436336 0.309724 0.131996
0.372609 0.965504 0.276291
0.428215 0.572893 0.208071
0.434904 0.473613 0.199155
0.407928 0.473256 0.206054
0.481853 0.541146 0.159967
0.455304 0.536921 0.201258
0.432764 0.420767 0.190584
0.514998 0.405640 0.145573
0.427256 0.567272 0.227987
0.440047 0.791067 0.182011
0.505858 0.390536 0.177734
0.380577 0.359925 0.170204
0.636014 0.400570 0.243886
0.428444 0.565743 0.187811
0.369856 0.417938 0.163835
0.432764 0.503089 0.185889
0.434667 0.338813 0.243886
0.445373 0.576379 0.121505
0.177376 0.381534 0.243886
0.372609 0.933491 0.250686
0.442535 0.640943 0.202319
0.437268 0.470952 0.233649
0.392644 0.366367 0.101985
0.434209 0.481629 0.199155
0.789443 0.343614 0.244447
0.436752 0.652537 0.179982
0.451169 0.539335 0.189750
0.482199 0.521786 0.178234
0.432912 0.354733 0.086173
0.481554 0.459669 0.089580
0.230204 0.390012 0.244306
0.430453 0.533613 0.201258
0.417805 0.447393 0.201258
0.432764 0.443716 0.178409
0.123789 0.345987 0.244306
0.439635 0.949916 0.130992
0.397606 0.453761 0.204878
0.805844 0.331619 0.244447
0.449590 0.425073 0.174159
0.424460 0.580184 0.166278
0.443421 0.940650 0.213876
0.650972 0.380086 0.243886
0.511381 0.383077 0.147110
0.600193 0.398799 0.243886
0.736983 0.352284 0.244447
0.512159 0.395733 0.132850
0.409959 0.486907 0.091755
0.501536 0.487972 0.168241
0.412541 0.341906 0.099996
0.421275 0.532237 0.211483
0.499824 0.389803 0.107535
0.512824 0.423403 0.130252
0.366132 0.492378 0.040915
0.449590 0.425375 0.162139
0.371806 0.382477 0.137508
0.490466 0.350843 0.113410
0.436982 0.436318 0.220421
0.443181 0.948367 0.252466
0.444860 0.716781 0.180948
0.706475 0.372760 0.243886
0.372040 0.426177 0.123377
0.719857 0.378746 0.244447
0.445070 0.233453 0.243886
0.446605 0.324845 0.244306
0.485448 0.350805 0.106544
0.494859 0.405907 0.198635
0.453700 0.281993 0.243886
0.445645 0.575940 0.188626
0.509924 0.378259 0.142098
0.447709 0.843929 0.186569
0.436777 0.610508 0.156008
0.390456 0.522748 0.150368
0.508131 0.446016 0.119368
0.511812 0.412058 0.126670
0.432764 0.510897 0.179740
0.370876 0.404815 0.169076
0.430033 0.641333 0.187978
0.509325 0.959743 0.246493
0.439635 0.944194 0.246134
0.443641 0.430075 0.074349
0.479882 0.466448 0.090299
0.388786 0.492449 0.182353
0.448490 0.630838 0.139330
0.458185 0.310001 0.150992
0.506043 0.437905 0.113478
0.426141 0.309363 0.150487
0.461488 0.534773 0.212595
0.323501 0.606093 0.244306
0.484722 0.380094 0.093825
0.409984 0.563167 0.156454
0.231746 0.382529 0.244306
0.449590 0.478823 0.176039
0.381755 0.539761 0.244306
0.356904 0.542610 0.026264
0.351395 0.605752 0.244306
0.418825 0.438755 0.201258
0.431921 0.032978 0.244306
0.297227 0.427609 0.244086
0.490288 0.508996 0.176954
0.419196 0.371433 0.083730
0.562083 0.415735 0.244447
0.122652 0.369471 0.243886
0.442584 0.531381 0.147694
0.391804 0.440235 0.201272
0.589680 0.685252 0.243886
0.506801 0.957425 0.275327
0.469913 0.331961 0.109353
0.441543 0.945736 0.123856
0.488602 0.437842 0.092439
0.482483 0.461823 0.204144
0.498748 0.487167 0.119105
0.439145 0.611659 0.193332
0.448306 0.861803 0.192600
0.507042 0.385978 0.172459
0.432764 0.496233 0.194396
0.575614 0.410036 0.243886
0.507546 0.969087 0.255890
0.432023 0.628403 0.197987
0.502561 0.468119 0.178456
0.234242 0.726601 0.243886
0.115761 0.367168 0.244306
0.439896 0.464359 0.248092
0.834081 0.346815 0.244447
0.432764 0.434359 0.180767
0.396515 0.536054 0.147789
0.406666 0.366618 0.204688
0.432328 0.555317 0.233649
0.419130 0.485493 0.201258
0.427538 0.568925 0.220733
0.378898 0.355618 0.150807
0.380791 0.434581 0.106737
0.441879 0.388037 0.076807
0.471907 0.337090 0.104028
0.448547 0.820578 0.194093
0.448351 0.870870 0.191293
0.362092 0.413928 0.028003
0.385017 0.437561 0.194042
0.513274 0.397415 0.139895
0.210698 0.373355 0.244306
0.405341 0.405765 0.211960
0.467577 0.438835 0.201258
0.442729 0.682145 0.201405
0.437274 0.725434 0.199773
0.448668 0.527473 0.156792
0.448877 0.442245 0.233649
0.513438 0.435940 0.157032
0.450911 0.310459 0.163594
0.453456 0.580710 0.201258
0.504933 0.378769 0.174103
0.371802 0.437170 0.125226
0.440109 0.061923 0.244306
0.467703 0.433572 0.220900
0.440177 0.452870 0.219886
0.370782 0.955855 0.290439
0.621557 0.719119 0.243886
0.450559 0.676318 0.196716
0.430798 0.098591 0.243886
0.433839 0.603680 0.130960
0.369493 0.446419 0.135008
0.425681 0.611683 0.150582
0.434505 0.459801 0.262783
0.439485 0.522970 0.147694
0.442460 0.627011 0.186619
0.439635 0.934474 0.143276
0.435830 0.897225 0.193600
0.439808 0.408506 0.154905
0.481302 0.385020 0.089833
0.469372 0.466255 0.254414
0.455387 0.373205 0.081178
0.368144 0.415042 0.157419
0.465494 0.427972 0.216783
0.056713 0.337346 0.243886
0.478070 0.408089 0.083973
0.684438 0.774438 0.243886
0.449098 0.482132 0.212379
0.443774 0.951459 0.258889
0.347862 0.434107 0.243886
0.441786 0.689350 0.201372
0.432308 0.766180 0.189701
0.433104 0.517960 0.148296
0.370223 0.958528 0.233089
0.502781 0.409936 0.187999
0.430270 0.665158 0.191668
0.430709 0.462407 0.078354
0.445366 0.404982 0.073742
0.395071 0.433949 0.090466
0.487907 0.455955 0.093758
0.053655 0.330042 0.243886
0.443578 0.355918 0.210523
0.453764 0.364536 0.243886
0.389198 0.475823 0.105888
0.437024 0.440083 0.147694
0.442421 0.940225 0.261326
0.383050 0.470601 0.112833
0.447370 0.548287 0.164433
0.378476 0.357973 0.157904
0.440849 0.398448 0.244306
0.443421 0.941126 0.189924
0.753119 0.366820 0.243886
0.722395 0.372218 0.243886
0.451244 0.965628 0.258889
0.453732 0.290793 0.244306
0.414399 0.364210 0.208519
0.420293 0.541491 0.110931
0.432650 0.684827 0.184347
0.076410 0.345532 0.244306
0.394761 0.516045 0.120658
0.207500 0.762994 0.243886
0.393112 0.460240 0.199052
0.479144 0.549181 0.155837
0.699498 0.371744 0.244447
0.441640 0.571577 0.147694
0.466658 0.476995 0.201258
0.390317 0.389186 0.196928
0.383593 0.561419 0.243886
0.084312 0.356795 0.244306
0.457713 0.470732 0.213496
0.225422 0.763554 0.243886
0.442241 0.408506 0.196964
0.494451 0.498969 0.116925
0.502927 0.485370 0.128787
0.368319 0.434992 0.154634
0.453533 0.626058 0.190766
0.440436 0.437257 0.243886
0.414304 0.459012 0.248092
0.510194 0.422970 0.123295
0.416122 0.451717 0.079851
0.522847 0.564446 0.244306
0.432764 0.428272 0.186801
0.432764 0.449300 0.186882
0.106820 0.365610 0.243886
0.490847 0.373319 0.194688
0.448936 0.750400 0.196348
0.854579 0.325511 0.243886
0.356904 0.528798 0.026205
0.445191 0.583230 0.162815
0.439358 0.748173 0.181234
0.454897 0.561042 0.190715
0.399506 0.369075 0.200582
0.500541 0.420239 0.190614
0.604325 0.414918 0.244447
0.539813 0.605342 0.244306
0.437749 0.413818 0.243886
0.377594 0.400784 0.111745
0.454015 0.543719 0.196138
0.427981 0.472591 0.214224
0.326910 0.640362 0.244099
0.467139 0.560456 0.169241
0.465862 0.966713 0.258889
0.427803 0.601241 0.134458
0.449361 0.812253 0.188648
0.449684 0.089309 0.243886
0.509325 0.945424 0.253947
0.438010 0.548219 0.108563
0.643125 0.400469 0.244447
0.372609 0.965765 0.244733
0.372609 0.932462 0.258396
0.317553 0.620961 0.243886
0.495271 0.482338 0.111354
0.546815 0.584986 0.244306
0.505587 0.972476 0.262057
0.438979 0.305871 0.243886
0.584174 0.648113 0.243886
0.380673 0.490682 0.165607
0.439164 0.511843 0.233649
0.452385 0.210186 0.243886
0.443421 0.928541 0.142249
0.429307 0.077128 0.243886
0.390070 0.493620 0.082606
0.495782 0.513819 0.142551
0.332573 0.632570 0.244131
0.434645 0.420994 0.233649
0.676759 0.796609 0.243886
0.440001 0.709192 0.180323
0.447129 0.761135 0.183221
0.387742 0.499461 0.118303
0.447075 0.416375 0.228172
0.424898 0.592462 0.161385
0.444590 0.592862 0.161422
0.442378 0.628323 0.163388
0.427610 0.456098 0.077236
0.375708 0.395503 0.117104
0.448036 0.537613 0.163119
0.387487 0.398246 0.098830
0.419527 0.478817 0.248092
0.429418 0.107915 0.243886
0.446465 0.140051 0.244306
0.432579 0.450888 0.233649
0.359016 0.423185 0.243886
0.485258 0.542665 0.244197
0.796536 0.344880 0.243886
0.618898 0.397579 0.243886
0.086832 0.333458 0.243886
0.459308 0.438289 0.254253
0.421583 0.424701 0.205959
0.441550 0.209447 0.244306
0.697392 0.812176 0.243886
0.450885 0.599629 0.130841
0.488371 0.331357 0.151056
0.511470 0.563846 0.243886
0.444715 0.590856 0.153692
0.484722 0.533115 0.132510
0.302682 0.410699 0.243886
0.435827 0.560189 0.174825
0.474283 0.452398 0.250436
0.446260 0.096098 0.244306
0.590717 0.668533 0.243886
0.453674 0.578729 0.186196
0.469251 0.489290 0.206629
0.438959 0.119043 0.244306
0.430798 0.319884 0.179563
0.414903 0.430840 0.079498
0.453140 0.347788 0.090421
0.432764 0.453791 0.193255
0.259248 0.715905 0.244306
0.431247 0.469559 0.261637
0.470911 0.479565 0.211952
0.434339 0.537111 0.160825
0.449599 0.805370 0.192433
0.505355 0.359566 0.143172
0.484318 0.449766 0.089149
0.272324 0.396910 0.244306
0.405570 0.452980 0.210239
0.434529 0.764707 0.196527
0.432764 0.427349 0.162024
0.356303 0.435423 0.244306
0.455729 0.511745 0.233649
0.468596 0.404180 0.215975
0.434695 0.542644 0.198983
0.433771 0.426248 0.249152
0.432764 0.441454 0.162925
0.356904 0.454274 0.025963
0.413060 0.483994 0.248483
0.499986 0.480423 0.117896
0.413952 0.489330 0.222020
0.438856 0.254769 0.244306
0.370085 0.964417 0.269652
0.442888 0.549424 0.204193
0.460546 0.322038 0.115944
0.538715 0.594180 0.243886
0.418899 0.428468 0.220887
0.524471 0.441911 0.244447
0.443621 0.608399 0.154850
0.419994 0.580756 0.160404
0.384825 0.371733 0.109869
0.504992 0.489561 0.147666
0.472295 0.323373 0.124457
0.465994 0.955832 0.263657
0.237621 0.388079 0.243886
0.627197 0.725773 0.243886
0.480265 0.347213 0.190861
0.506116 0.418167 0.112528
0.437795 0.417097 0.201258
0.326458 0.436318 0.244306
0.467187 0.316378 0.136325
0.432764 0.418883 0.162794
0.429258 0.304628 0.244104
0.375528 0.370168 0.162160
0.453797 0.061031 0.244088
0.622284 0.391283 0.244447
0.436180 0.103446 0.243886
0.431490 0.477371 0.248092
0.432204 0.692378 0.185543
0.442687 0.526645 0.181707
0.444490 0.467823 0.201258
0.459019 0.533652 0.233649
0.194277 0.783575 0.243886
0.392204 0.525686 0.243886
0.449569 0.433957 0.233649
0.436388 0.368605 0.214579
0.456452 0.526277 0.201258
0.487697 0.463384 0.199479
0.449747 0.676566 0.183512
0.663458 0.402423 0.244420
0.360575 0.536415 0.025140
0.463227 0.588122 0.141728
0.357385 0.420378 0.028225
0.382306 0.420587 0.103524
0.443421 0.927368 0.158668
0.397037 0.471758 0.096093
0.428237 0.443611 0.201258
0.443421 0.947194 0.145579
0.183498 0.389861 0.244306
0.390554 0.350634 0.115492
0.325480 0.625479 0.244306
0.448897 0.506289 0.205337
0.436953 0.432522 0.248092
0.203702 0.374399 0.243886
0.439491 0.644866 0.138344
0.459599 0.417191 0.076653
0.383897 0.508359 0.153559
0.442019 0.324362 0.107648
0.471932 0.323856 0.172137
0.441318 0.605423 0.129936
0.265565 0.416887 0.243886
0.374601 0.401119 0.177932
0.483823 0.353311 0.191802
0.442038 0.540789 0.147694
0.447368 0.531064 0.101025
0.439279 0.608040 0.164396
0.827091 0.347886 0.243886
0.429834 0.321616 0.113257
0.443421 0.930471 0.206355
0.472947 0.448904 0.244447
0.440975 0.859551 0.197796
0.475748 0.940225 0.263058
0.451064 0.590858 0.199055
0.750030 0.373253 0.244447
0.378688 0.493133 0.149918
0.615706 0.679703 0.244089
0.208358 0.398433 0.244306
0.370224 0.964146 0.290439
0.372609 0.951666 0.235479
0.501310 0.403729 0.105230
0.852350 0.338931 0.243886
0.280142 0.687374 0.244306
0.263832 0.727163 0.244010
0.507646 0.964521 0.233089
0.453124 0.465448 0.248092
0.429641 0.620004 0.193417
0.356904 0.379755 0.025440
0.471373 0.564098 0.158324
0.464694 0.579915 0.138759
0.448930 0.708846 0.183408
0.407607 0.450378 0.216834
0.439380 0.458447 0.201258
0.416488 0.490162 0.233649
0.377761 0.367749 0.169204
0.446069 0.487020 0.255857
0.444984 0.627074 0.178875
0.369248 0.409176 0.132411
0.434189 0.636594 0.181252
0.372609 0.957581 0.252011
0.831053 0.323927 0.243886
0.397564 0.367390 0.096611
0.507206 0.412589 0.180297
0.409380 0.369381 0.088312
0.400210 0.479270 0.095684
0.508209 0.371769 0.137616
0.402849 0.514706 0.109241
0.259887 0.412262 0.244306
0.446963 0.853572 0.185719
0.483360 0.402784 0.099971
0.441743 0.638504 0.190993
0.367366 0.424188 0.244258
0.429094 0.550497 0.201258
0.423298 0.352547 0.089555
0.829428 0.332604 0.244447
0.517115 0.557387 0.244306
0.187762 0.814723 0.244306
0.449590 0.445545 0.161448
0.150177 0.370266 0.244306
0.505799 0.385509 0.119826
0.462072 0.531350 0.219565
0.456918 0.326196 0.108898
0.462719 0.436553 0.233649
0.373373 0.407878 0.176367
0.418225 0.499709 0.204180
0.453212 0.544016 0.183558
0.430028 0.468298 0.233649
0.438765 0.738907 0.181227
0.436020 0.563192 0.150650
0.448053 0.455027 0.219163
0.435325 0.334909 0.198266
0.473090 0.413225 0.213656
0.412563 0.971396 0.263657
0.449390 0.368401 0.214366
0.451471 0.499369 0.201258
0.464820 0.411918 0.217518
0.399192 0.518700 0.115699
0.446455 0.330921 0.194186
0.435373 0.488508 0.199155
0.447529 0.449341 0.074881
0.429538 0.580647 0.205124
0.458418 0.445060 0.248092
0.494180 0.387080 0.194527
0.524175 0.332364 0.046414
0.043869 0.343024 0.244306
0.375873 0.412588 0.180846
0.434623 0.423962 0.199155
0.083492 0.345724 0.243886
0.482958 0.527089 0.244306
0.449376 0.322256 0.111248
0.134925 0.349058 0.243886
0.646752 0.742891 0.243886
0.430136 0.153302 0.243886
0.433212 0.519635 0.176916
0.522566 0.577138 0.243886
0.473101 0.445075 0.210626
0.445904 0.419050 0.074002
0.398497 0.348336 0.107307
0.426605 0.396078 0.076538
0.445084 0.675578 0.201012
0.471190 0.441003 0.217311
0.450717 0.478189 0.259236
0.445957 0.472967 0.261761
0.405834 0.520848 0.185191
0.388586 0.402154 0.079914
0.446827 0.416832 0.147694
0.445832 0.572950 0.194929
0.489296 0.387937 0.199576
0.468316 0.574894 0.145166
0.446082 0.523391 0.097240
0.443212 0.434563 0.147694
0.433284 0.704303 0.184173
0.123493 0.354684 0.243886
0.422349 0.465475 0.214124
0.368422 0.434841 0.140823
0.449590 0.427051 0.183168
0.439177 0.461944 0.077727
0.359879 0.578317 0.243886
0.694769 0.365994 0.244447
0.379519 0.959205 0.263657
0.471198 0.391121 0.083079
0.392307 0.414450 0.202683
0.501953 0.414014 0.106514
0.415451 0.498114 0.220581
0.510465 0.390209 0.165792
0.470109 0.568831 0.139544
0.424203 0.604626 0.152990
0.422345 0.506985 0.092992
0.185102 0.383011 0.244306
0.506801 0.948631 0.266109
0.501116 0.428855 0.189522
0.431287 0.616399 0.137232
0.385950 0.349236 0.125207
0.432764 0.448107 0.160932
0.330155 0.608235 0.244306
0.462421 0.437546 0.248092
0.421917 0.535995 0.219100
0.448696 0.527022 0.185909
0.092356 0.358553 0.243886
0.437974 0.593490 0.165057
0.416416 0.323265 0.177191
0.423655 0.603054 0.142463
0.412669 0.481812 0.204313
0.458854 0.540456 0.186466
0.510284 0.454830 0.167821
0.246420 0.720851 0.243886
0.452673 0.426575 0.201258
0.389178 0.372127 0.104020
0.428129 0.518627 0.233649
0.239169 0.755563 0.244306
0.324649 0.410313 0.244008
0.575767 0.649220 0.244306
0.502054 0.370905 0.117619
0.461043 0.458065 0.233649
0.429908 0.601134 0.185813
0.437204 0.581550 0.175757
0.379486 0.412544 0.187605
0.359487 0.594917 0.244306
0.456887 0.531536 0.191795
0.459879 0.435799 0.218259
0.430615 0.553992 0.112600
0.414817 0.421593 0.215895
0.451424 0.624367 0.197357
0.443421 0.945210 0.236134
0.426042 0.384819 0.216383
0.430431 0.628807 0.144267
0.506465 0.425169 0.113836
0.443762 0.415207 0.208491
0.379043 0.527343 0.243886
0.449590 0.470281 0.157903
0.425937 0.493425 0.248795
0.051554 0.342718 0.244306
0.598078 0.697657 0.243886
0.474423 0.330501 0.115151
0.836144 0.335841 0.243886
0.255701 0.738353 0.244169
0.372609 0.948992 0.276144
0.405777 0.556676 0.150131
0.214434 0.765247 0.244306
0.412399 0.549231 0.173347
0.400222 0.508213 0.187555
0.313558 0.646702 0.244306
0.463800 0.517345 0.233649
0.446239 0.809106 0.197260
0.431762 0.437862 0.075225
0.453422 0.381710 0.243886
0.030194 0.320859 0.243886
0.530706 0.586034 0.244306
0.334641 0.413766 0.244306
0.043616 0.327403 0.243886
0.445371 0.414044 0.244306
0.390486 0.396247 0.199064
0.416771 0.576225 0.136863
0.373530 0.456273 0.170605
0.389692 0.543383 0.244306
0.402223 0.336827 0.111831
0.170012 0.378099 0.244306
0.339544 0.582071 0.244306
0.242412 0.401258 0.243886
0.441357 0.387274 0.218457
0.380590 0.500836 0.148594
0.442579 0.516063 0.199155
0.650838 0.757038 0.244306
0.502105 0.499740 0.143422
0.370537 0.458244 0.143404
0.502992 0.385012 0.182110
0.499539 0.550088 0.244306
0.509097 0.468226 0.139429
0.448406 0.538355 0.201411
0.426421 0.449187 0.076269
0.413444 0.412922 0.215654
0.443351 0.936373 0.234849
0.390856 0.404512 0.093919
0.710656 0.380479 0.244447
0.410329 0.468107 0.230909
0.437708 0.485397 0.083410
