0.506647 0.140559 0.484558
0.503091 0.129452 0.477805
0.320134 0.134413 0.181179
0.487607 0.252046 0.309108
0.311121 0.040213 0.597711
0.182353 0.205890 0.692022
0.353498 0.294622 0.521351
0.338687 0.687448 0.495884
0.168425 0.731690 0.510611
0.607698 0.656225 0.534429
0.159374 0.144982 0.585493
0.323647 0.067807 0.700016
0.175114 0.648276 0.536915
0.189208 0.170823 0.688516
0.353036 0.542482 0.560302
0.344057 0.118551 0.792254
0.374340 0.072284 0.314928
0.308885 0.032576 0.481915
0.386085 0.062841 0.645218
0.321967 0.230360 0.092775
0.487592 0.178384 0.659008
0.283500 0.055286 0.373930
0.187861 0.114309 0.393102
0.173393 0.215094 0.520629
0.288464 0.108461 0.234011
0.333025 0.620661 0.507288
0.230302 0.056129 0.525254
0.191068 0.214379 0.338682
0.514414 0.477402 0.554800
0.151116 0.176190 0.417707
0.278510 0.146681 0.800774
0.251694 0.214387 0.641551
0.207115 0.104143 0.631056
0.199234 0.106981 0.382077
0.133735 0.241824 0.599321
0.432795 0.556057 0.553453
0.463906 0.184992 0.286847
0.508109 0.188037 0.396614
0.263982 0.131167 0.228876
0.439577 0.638529 0.545203
0.133534 0.257573 0.447328
0.383738 0.065928 0.340447
0.387115 0.214392 0.747343
0.204481 0.108832 0.364630
0.343303 0.214380 0.398669
0.612816 0.696394 0.522486
0.383180 0.066440 0.662071
0.264386 0.138224 0.777988
0.191292 0.233478 0.295549
0.464855 0.214380 0.404103
0.113307 0.399627 0.545520
0.333759 0.081864 0.162446
0.621439 0.730135 0.507111
0.330857 0.259924 0.974037
0.364423 0.214380 0.377947
0.412647 0.462208 0.559623
0.260631 0.109403 0.743341
0.064977 0.681781 0.526337
0.287767 0.155342 0.818544
0.309636 0.108984 0.776555
0.170127 0.233479 0.325846
0.315403 0.703050 0.524837
0.339279 0.098744 0.766990
0.248004 0.070041 0.357008
0.354717 0.214379 0.367584
0.333237 0.454250 0.554594
0.319943 0.225985 0.104908
0.158335 0.189014 0.382631
0.518368 0.215428 0.593596
0.458153 0.657303 0.539280
0.166979 0.383103 0.542761
0.176145 0.144218 0.637190
0.259962 0.215130 0.517368
0.245750 0.215152 0.515387
0.163147 0.425816 0.549898
0.151739 0.589421 0.553457
0.528290 0.264737 0.428773
0.231210 0.145949 0.746471
0.192463 0.214387 0.637803
0.361726 0.039010 0.425335
0.339229 0.437253 0.551819
0.194913 0.104047 0.599362
0.184679 0.132616 0.358517
0.325495 0.214642 0.561799
0.255480 0.104296 0.273770
0.407960 0.233475 0.215460
0.518307 0.605713 0.546025
0.309291 0.094533 0.754907
0.391726 0.214648 0.561251
0.527124 0.443959 0.557975
0.235430 0.071055 0.621339
0.310817 0.055565 0.344309
0.234064 0.145309 0.249802
0.158653 0.128913 0.491774
0.397893 0.050532 0.412047
0.194755 0.093960 0.534045
0.443037 0.071286 0.565464
0.180416 0.130711 0.373359
0.341181 0.260534 0.066432
0.485524 0.214441 0.580130
0.368325 0.040717 0.573063
0.460469 0.619342 0.548995
0.323722 0.083166 0.738381
0.204649 0.162335 0.715731
0.254721 0.455337 0.559556
0.459489 0.179530 0.719669
0.291072 0.039370 0.542515
0.143555 0.187909 0.511633
0.280476 0.233491 0.798579
0.451857 0.181046 0.736039
0.236083 0.349969 0.539849
0.338903 0.344701 0.532867
0.389489 0.102833 0.252760
0.382916 0.176043 0.178709
0.369409 0.063235 0.335103
0.327684 0.255511 0.930918
0.220605 0.214387 0.650620
0.440156 0.658259 0.538977
0.286028 0.042784 0.429662
0.333760 0.067475 0.137984
0.332313 0.332654 0.528838
0.310360 0.035931 0.568404
0.369334 0.214390 0.717089
0.319698 0.258458 0.100998
0.395742 0.504656 0.555025
0.248862 0.280873 0.511521
0.153074 0.226632 0.494242
0.166402 0.195043 0.646407
0.269567 0.099420 0.737151
0.473529 0.211180 0.729159
0.339737 0.029403 0.527354
0.498969 0.214799 0.413333
0.331659 0.041165 0.157433
0.232547 0.053357 0.511954
0.450839 0.082831 0.411049
0.207287 0.214660 0.560127
0.467517 0.230548 0.291201
0.273209 0.203211 0.175064
0.383322 0.056141 0.376687
0.188796 0.129149 0.643616
0.358927 0.121999 0.209421
0.479647 0.214380 0.382430
0.323323 0.624702 0.543172
0.276884 0.169993 0.816651
0.359689 0.214379 0.299795
0.481250 0.140681 0.649987
0.319942 0.219703 0.244456
0.387266 0.112573 0.234753
0.255962 0.130713 0.762154
0.233320 0.337846 0.535796
0.095924 0.580475 0.549781
0.458454 0.107398 0.628358
0.441159 0.723808 0.504481
0.167199 0.726402 0.523163
0.232127 0.054163 0.478408
0.362014 0.158763 0.166561
0.359197 0.610100 0.550372
0.349609 0.235607 0.146406
0.208636 0.132160 0.309412
0.171945 0.214380 0.409406
0.184262 0.700761 0.525552
0.444545 0.233476 0.233979
0.463597 0.321232 0.530253
0.233831 0.279197 0.516187
0.389903 0.214994 0.529800
0.397127 0.069374 0.658064
0.163142 0.233479 0.337941
0.456924 0.473696 0.554766
0.273894 0.214389 0.701396
0.528459 0.222723 0.500041
0.168385 0.220844 0.395267
0.356138 0.450488 0.559057
0.146708 0.476984 0.554777
0.540591 0.412546 0.547701
0.278405 0.233475 0.213379
0.560786 0.587229 0.548794
0.437491 0.131414 0.713432
0.330995 0.386771 0.543383
0.458313 0.214386 0.599530
0.327062 0.472087 0.508427
0.305176 0.311708 0.521834
0.189793 0.595368 0.552569
0.191123 0.105765 0.406132
0.275890 0.112659 0.233984
0.251728 0.571117 0.556202
0.207268 0.500653 0.554981
0.412016 0.308116 0.520639
0.199214 0.214921 0.463736
0.323737 0.251475 0.067340
0.372207 0.519216 0.560105
0.547618 0.427876 0.550263
0.342049 0.031055 0.540887
0.231275 0.215855 0.755536
0.484937 0.132455 0.623124
0.530757 0.228974 0.417136
0.130034 0.245411 0.559971
0.291475 0.214380 0.380522
0.269537 0.043064 0.511712
0.139109 0.670503 0.529899
0.194980 0.536091 0.560239
0.188256 0.135341 0.343473
0.247381 0.206778 0.795427
0.385121 0.214386 0.610180
0.533822 0.240822 0.446332
0.506869 0.222614 0.556154
0.312752 0.233491 0.817521
0.484613 0.236404 0.292628
0.379504 0.412380 0.547665
0.563177 0.554801 0.553648
0.592034 0.722847 0.504246
0.274596 0.189258 0.823473
0.339814 0.233490 0.755860
0.314589 0.548911 0.554517
0.572314 0.564452 0.552204
0.494615 0.123613 0.555365
0.325951 0.259911 0.945978
0.336724 0.386017 0.488000
0.217765 0.278883 0.515629
0.392551 0.412544 0.552719
0.339992 0.527491 0.503428
0.298147 0.214387 0.634134
0.202310 0.128866 0.325600
0.166304 0.124999 0.447205
0.469365 0.103016 0.591537
0.381400 0.503171 0.555012
0.197708 0.125434 0.343066
0.369945 0.204892 0.156199
0.311584 0.225083 0.139088
0.203816 0.143274 0.301625
0.191558 0.132607 0.658351
0.238694 0.214389 0.691557
0.494989 0.125286 0.569691
0.316257 0.224185 0.869245
0.464049 0.345066 0.532995
0.358815 0.049384 0.623673
0.517660 0.402422 0.546008
0.230477 0.402650 0.551057
0.329970 0.387946 0.510815
0.404533 0.214379 0.356640
0.387557 0.099637 0.740935
0.547821 0.665127 0.536816
0.420237 0.134119 0.746998
0.596797 0.577216 0.551039
0.267135 0.659313 0.538635
0.178134 0.122621 0.397564
0.411955 0.102600 0.286585
0.445500 0.219197 0.238215
0.428454 0.147598 0.752901
0.159527 0.220899 0.525946
0.577944 0.489464 0.555707
0.360849 0.214391 0.734306
0.366733 0.173561 0.838197
0.249555 0.170502 0.788044
0.499988 0.221137 0.399725
0.499096 0.188980 0.631183
0.284727 0.158117 0.182227
0.332178 0.214391 0.744648
0.381947 0.085216 0.710550
0.332377 0.595725 0.552523
0.331100 0.282521 0.025204
0.383678 0.214391 0.728300
0.380790 0.133826 0.209368
0.445023 0.317999 0.529171
0.329297 0.575320 0.489144
0.282952 0.203182 0.163900
0.114175 0.632432 0.541911
0.430907 0.670813 0.535015
0.458647 0.699822 0.520665
0.241459 0.119930 0.727194
0.328657 0.133924 0.132864
0.197513 0.224623 0.699400
0.310654 0.171760 0.146368
0.323888 0.579904 0.549878
0.277644 0.050694 0.602432
0.520140 0.233918 0.436632
0.361991 0.215197 0.488728
0.164574 0.295980 0.519937
0.321706 0.596468 0.497599
0.492360 0.348738 0.539451
0.172443 0.123773 0.409230
0.165056 0.186680 0.636211
0.388182 0.427993 0.550274
0.396236 0.233491 0.798208
0.403011 0.233476 0.229465
0.307701 0.233476 0.241553
0.422725 0.357040 0.536996
0.443526 0.154090 0.737397
0.335937 0.214802 0.547249
0.105079 0.419585 0.549254
0.530217 0.433209 0.551154
0.323041 0.445386 0.489915
0.324248 0.146677 0.162333
0.240703 0.647678 0.537107
0.463921 0.169542 0.294000
0.414254 0.233475 0.199088
0.506814 0.151859 0.443541
0.401637 0.564374 0.552207
0.318833 0.233491 0.801791
0.448210 0.197282 0.751009
0.241347 0.155599 0.769168
0.234580 0.131927 0.732592
0.342259 0.378380 0.503010
0.307113 0.033008 0.517259
0.487490 0.217669 0.682335
0.511335 0.158331 0.512806
0.145550 0.186645 0.536883
0.341437 0.653894 0.535151
0.209472 0.127185 0.684017
0.362948 0.728313 0.522382
0.109313 0.432154 0.550955
0.241369 0.144700 0.759280
0.457628 0.166698 0.282386
0.416145 0.214390 0.713688
0.331559 0.795043 0.491591
0.388116 0.660704 0.533005
0.329650 0.039024 0.612649
0.146102 0.176299 0.494288
0.478519 0.429945 0.550605
0.232558 0.214391 0.742651
0.316602 0.228544 0.499599
0.488408 0.114531 0.526056
0.459714 0.194491 0.273856
0.511670 0.636384 0.545884
0.223022 0.429632 0.555565
0.307840 0.071137 0.302943
0.219049 0.066484 0.511474
0.199595 0.732918 0.513577
0.175899 0.207980 0.320095
0.432499 0.646686 0.537430
0.467807 0.214379 0.367526
0.339020 0.451569 0.507182
0.334469 0.672874 0.505955
0.504854 0.199502 0.378008
0.248780 0.079480 0.325294
0.527630 0.351552 0.537931
0.184980 0.225586 0.325369
0.463791 0.091223 0.449211
0.260108 0.233475 0.208924
0.271837 0.435417 0.551509
0.403669 0.214379 0.268857
0.399569 0.214388 0.668724
0.190256 0.229038 0.308137
0.354055 0.419722 0.548890
0.089414 0.714441 0.510453
0.457409 0.221919 0.278968
0.371725 0.310042 0.521280
0.249834 0.052661 0.568750
0.232361 0.221897 0.218786
0.231780 0.230309 0.755536
0.465502 0.233654 0.741020
0.442324 0.214379 0.287218
0.296734 0.132126 0.197037
0.281204 0.040398 0.519520
0.302213 0.290021 0.514583
0.195026 0.149835 0.310115
0.456144 0.281032 0.511585
0.441853 0.068569 0.550133
0.511817 0.206254 0.606230
0.437090 0.084776 0.371762
0.220751 0.201212 0.761844
0.166848 0.127304 0.585020
0.413205 0.051934 0.443104
0.415209 0.214389 0.690509
0.081177 0.700147 0.520542
0.347074 0.214508 0.426370
0.356227 0.433984 0.556300
0.380560 0.095724 0.263563
0.473575 0.098147 0.484610
0.365204 0.098693 0.244324
0.533853 0.550356 0.554312
0.456554 0.672195 0.534580
0.454803 0.152384 0.283185
0.411296 0.479072 0.554809
0.434189 0.214379 0.244509
0.320634 0.318814 0.490786
0.199765 0.157595 0.703425
0.124482 0.661792 0.537846
0.285969 0.214390 0.708597
0.224586 0.356280 0.536732
0.317028 0.214919 0.536581
0.406760 0.214379 0.310173
0.572555 0.580208 0.554858
0.443240 0.124620 0.305616
0.152662 0.546001 0.559956
0.265583 0.153568 0.206792
0.283992 0.214389 0.686899
0.338012 0.085694 0.744669
0.366810 0.214389 0.701007
0.340322 0.054898 0.335186
0.284805 0.065998 0.666615
0.331984 0.189582 0.113642
0.126121 0.633734 0.546700
0.477814 0.532757 0.560226
0.131095 0.203960 0.428919
0.326688 0.606767 0.545857
0.224230 0.557903 0.558178
0.246447 0.088141 0.315345
0.232363 0.091446 0.336206
0.465810 0.117615 0.634583
0.357690 0.139724 0.184414
0.515408 0.192225 0.417450
0.241918 0.214388 0.660705
0.333962 0.589183 0.489703
0.258727 0.160077 0.791467
0.262993 0.214672 0.441276
0.138865 0.356657 0.542080
0.459567 0.123696 0.334770
0.441314 0.148149 0.267845
0.383673 0.214508 0.573971
0.220546 0.343924 0.537827
0.171875 0.438937 0.557118
0.382523 0.214387 0.636189
0.148584 0.175085 0.461563
0.394107 0.639569 0.539674
0.121383 0.488394 0.554872
0.474342 0.128884 0.359537
0.511050 0.229001 0.427673
0.375486 0.233475 0.190681
0.211666 0.214875 0.459628
0.085570 0.508297 0.555040
0.334679 0.181138 0.125720
0.304106 0.214379 0.362472
0.352116 0.215177 0.513136
0.324235 0.736558 0.496238
0.438696 0.507756 0.555054
0.140053 0.543337 0.555341
0.339685 0.477097 0.505878
0.250933 0.073244 0.342265
0.254934 0.556786 0.553335
0.597481 0.713283 0.513277
0.338468 0.618003 0.493003
0.565342 0.655285 0.534724
0.384867 0.313445 0.522419
0.391739 0.222571 0.175701
0.409143 0.071458 0.653353
0.164663 0.217118 0.556901
0.051371 0.666682 0.535399
0.410858 0.048355 0.483849
0.219117 0.075724 0.409170
0.137786 0.211098 0.513237
0.254638 0.214654 0.560669
0.316894 0.084754 0.262517
0.489439 0.723403 0.504316
0.375903 0.152903 0.811029
0.320032 0.041067 0.389674
0.509450 0.516183 0.560087
0.232806 0.663158 0.532222
0.141770 0.576638 0.550357
0.411068 0.085386 0.311552
0.443459 0.701653 0.525284
0.355395 0.365903 0.544923
0.319097 0.293887 0.493654
0.360976 0.039631 0.585323
0.503070 0.216040 0.468744
0.185365 0.202927 0.303342
0.473981 0.258284 0.272187
0.326780 0.259918 0.961638
0.284044 0.132410 0.206308
0.171062 0.284303 0.516091
0.459014 0.214661 0.560095
0.423672 0.548478 0.559600
0.156249 0.646934 0.542536
0.526330 0.259116 0.578182
0.474666 0.214886 0.539635
0.331948 0.725955 0.505364
0.312697 0.298536 0.517430
0.268165 0.339943 0.536499
0.402705 0.629804 0.542413
0.373889 0.233476 0.231317
0.246980 0.214380 0.378126
0.486104 0.214385 0.598509
0.434383 0.122197 0.295243
0.459659 0.090038 0.417707
0.292023 0.057674 0.356219
0.361140 0.233475 0.191021
0.223785 0.104388 0.328128
0.293661 0.091451 0.263733
0.502324 0.136046 0.436841
0.415994 0.214379 0.364236
0.129866 0.246686 0.440609
0.444901 0.688564 0.524216
0.488111 0.211931 0.696431
0.509394 0.385434 0.543169
0.356483 0.348566 0.539386
0.130543 0.233734 0.565807
0.354739 0.568590 0.551573
0.312363 0.083864 0.732022
0.536213 0.651525 0.541107
0.339329 0.372879 0.488895
0.273108 0.416873 0.548410
0.383520 0.148381 0.201946
0.519684 0.201379 0.446837
0.100726 0.731304 0.509674
0.588121 0.718529 0.522715
0.439346 0.567749 0.556716
0.153811 0.620172 0.543841
0.227992 0.062340 0.564152
0.327975 0.103570 0.777085
0.130172 0.413770 0.547884
0.532406 0.207449 0.563059
0.276246 0.505102 0.555023
0.258300 0.466769 0.554696
0.483174 0.111351 0.448615
0.289018 0.215066 0.476947
0.343653 0.210872 0.491738
0.164722 0.145334 0.602454
0.403558 0.214379 0.328323
0.158907 0.519314 0.560095
0.340551 0.059411 0.322546
0.299206 0.036895 0.460249
0.400190 0.214519 0.573020
0.482632 0.169317 0.667594
0.500950 0.233065 0.340454
0.129622 0.709056 0.517733
0.130611 0.206381 0.566589
0.492435 0.239851 0.312291
0.055322 0.695089 0.522137
0.168938 0.124231 0.425346
0.391216 0.581949 0.549575
0.382728 0.070481 0.675088
0.476753 0.152955 0.327657
0.398917 0.726454 0.505575
0.117101 0.726374 0.505527
0.340539 0.542653 0.501592
0.490386 0.713017 0.514826
0.340999 0.643965 0.543483
0.291178 0.233476 0.223481
0.218231 0.072585 0.565102
0.148628 0.182313 0.432227
0.312403 0.233475 0.211957
0.436083 0.542547 0.555349
0.094294 0.646535 0.537460
0.375483 0.088028 0.721597
0.180470 0.161878 0.335717
0.223299 0.145602 0.266843
0.250122 0.056987 0.402515
0.175216 0.131584 0.615891
0.189460 0.098499 0.475837
0.161727 0.206722 0.640942
0.231643 0.105730 0.687562
0.297164 0.215188 0.512077
0.330703 0.238514 0.067388
0.484704 0.216092 0.639827
0.456013 0.214393 0.416025
0.360758 0.057968 0.654221
0.223923 0.730589 0.507955
0.173807 0.211801 0.301617
0.276963 0.215030 0.526467
0.503735 0.144971 0.576171
0.453450 0.193741 0.261338
0.404555 0.062607 0.625514
0.363994 0.214385 0.596478
0.269762 0.214391 0.730375
0.191877 0.654349 0.540198
0.275221 0.078055 0.691044
0.100784 0.546004 0.554941
0.378239 0.122318 0.782601
0.413954 0.214388 0.663416
0.100398 0.483304 0.554828
0.521744 0.457629 0.554633
0.148905 0.173063 0.535594
0.281028 0.061440 0.646042
0.357811 0.403848 0.546237
0.415233 0.065974 0.372923
0.452448 0.214379 0.315185
0.277870 0.214379 0.247120
0.458448 0.214387 0.630135
0.415384 0.214420 0.755546
0.179752 0.176184 0.328087
0.175250 0.170162 0.345315
0.207748 0.227908 0.247984
0.218078 0.156070 0.260866
0.245254 0.054832 0.581399
0.429094 0.116060 0.703993
0.242591 0.183675 0.783411
0.514427 0.731035 0.509048
0.170159 0.237313 0.313194
0.170282 0.224035 0.379074
0.290645 0.214379 0.366663
0.309410 0.222381 0.755540
0.146819 0.420975 0.549089
0.481077 0.342327 0.537307
0.371048 0.097684 0.748634
0.336830 0.316068 0.487064
0.314442 0.720387 0.523470
0.292839 0.214380 0.393707
0.340824 0.214380 0.413588
0.466481 0.123301 0.646356
0.232954 0.718373 0.522631
0.489624 0.192005 0.663079
0.426042 0.108855 0.301802
0.515391 0.188189 0.432742
0.329966 0.220695 0.927730
0.176736 0.149158 0.357051
0.385965 0.158707 0.804122
0.352765 0.126204 0.799033
0.026801 0.730880 0.508648
0.320195 0.214387 0.646826
0.473080 0.190473 0.302379
0.187084 0.500843 0.559939
0.387990 0.043593 0.461416
0.204262 0.214379 0.357622
0.466950 0.634579 0.541252
0.065671 0.731160 0.519368
0.514803 0.169570 0.503033
0.201481 0.085182 0.515838
0.356591 0.730440 0.507601
0.188625 0.233975 0.727364
0.506541 0.223707 0.580238
0.326529 0.655424 0.534667
0.197848 0.091977 0.546832
0.409677 0.074544 0.335823
0.402117 0.599478 0.546952
0.434520 0.339414 0.536331
0.102762 0.570653 0.556264
0.324773 0.095620 0.763910
0.540364 0.498041 0.559934
0.318129 0.237791 0.110215
0.225717 0.121176 0.702271
0.285166 0.047837 0.400528
0.141342 0.234295 0.544690
0.588176 0.561118 0.552704
0.189039 0.179261 0.307647
0.353935 0.233492 0.824295
0.413012 0.161636 0.780497
0.325554 0.403656 0.488290
0.375357 0.182734 0.834004
0.430902 0.053906 0.484501
0.320578 0.214919 0.463608
0.468882 0.214386 0.612622
0.309162 0.205112 0.137859
0.322365 0.398687 0.507514
0.394895 0.233476 0.240294
0.179218 0.112710 0.564196
0.506515 0.231540 0.641606
0.204977 0.214379 0.342331
0.211557 0.077881 0.451712
0.126125 0.720164 0.523368
0.160804 0.673215 0.534243
0.135896 0.222612 0.470434
0.455799 0.214380 0.375584
0.304774 0.214380 0.376287
0.203022 0.214742 0.447570
0.347997 0.085276 0.735787
0.271784 0.565020 0.552103
0.376361 0.727664 0.522651
0.415619 0.219560 0.796108
0.368602 0.321951 0.525262
0.458065 0.130469 0.679642
0.143065 0.527183 0.555203
0.152049 0.174563 0.586248
0.179389 0.214464 0.422417
0.345833 0.139921 0.178051
0.224109 0.656050 0.539663
0.414963 0.062685 0.615256
0.341951 0.463237 0.500877
0.468529 0.215258 0.494261
0.437645 0.078093 0.389775
0.503419 0.139735 0.560785
0.503561 0.218660 0.640580
0.331567 0.277022 0.484337
0.235703 0.375956 0.546596
0.215848 0.215164 0.514299
0.321233 0.452820 0.559445
0.285038 0.524294 0.555186
0.353920 0.062893 0.323353
0.430675 0.165144 0.234833
0.198602 0.426445 0.550005
0.211634 0.080545 0.577950
0.341894 0.219310 0.755542
0.244137 0.214379 0.351577
0.341642 0.039473 0.395335
0.487594 0.360730 0.543460
0.331425 0.547010 0.559815
0.136145 0.218155 0.484471
0.356537 0.045533 0.611495
0.491277 0.122790 0.415810
0.366650 0.037571 0.462732
0.581139 0.502855 0.556187
0.378622 0.326859 0.532130
0.400041 0.214390 0.719886
0.446121 0.214379 0.303843
0.353617 0.137045 0.813627
0.228987 0.215068 0.522984
0.261855 0.214390 0.711402
0.231040 0.214379 0.352250
0.344310 0.255171 0.101738
0.323007 0.054819 0.334316
0.132576 0.259579 0.558610
0.431726 0.233476 0.231713
0.361963 0.034496 0.512900
0.192348 0.157880 0.688464
0.454774 0.214956 0.466988
0.142467 0.199752 0.541001
0.501786 0.167274 0.606408
0.348486 0.153800 0.159473
0.154664 0.633646 0.541530
0.387266 0.214923 0.463979
0.348542 0.115029 0.214529
0.333806 0.235669 0.146029
0.333760 0.146097 0.134990
0.371100 0.431024 0.555806
0.452266 0.075854 0.513910
0.424130 0.214380 0.374951
0.375395 0.163165 0.180677
0.173991 0.198710 0.671419
0.280090 0.214385 0.593847
0.234236 0.716092 0.507025
0.414951 0.633638 0.546745
0.415116 0.069635 0.359360
0.500377 0.153351 0.400046
0.288943 0.042982 0.584292
0.287384 0.205281 0.841508
0.164265 0.540813 0.555320
0.405298 0.701644 0.525285
0.231166 0.220225 0.779531
0.288735 0.189917 0.840558
0.340465 0.233492 0.826974
0.497300 0.668318 0.530608
0.510346 0.161985 0.542224
0.359037 0.214753 0.448585
0.313502 0.214379 0.312109
0.426326 0.398187 0.550321
0.529003 0.259583 0.416187
0.153175 0.717591 0.522303
0.307597 0.214742 0.552735
0.449553 0.135996 0.298765
0.403238 0.214380 0.390491
0.289217 0.101027 0.244677
0.135501 0.211422 0.410909
0.080605 0.580617 0.549759
0.449492 0.214379 0.363456
0.099306 0.631872 0.542087
0.353543 0.214389 0.694198
0.367391 0.356960 0.536966
0.334827 0.214388 0.678103
0.314893 0.039060 0.402711
0.317385 0.229461 0.121462
0.177649 0.220959 0.637351
0.159167 0.222271 0.644680
0.325479 0.666100 0.491997
0.309287 0.044371 0.611609
0.255949 0.214386 0.607910
0.220461 0.080116 0.605354
0.525214 0.211162 0.505022
0.319182 0.381738 0.500633
0.129373 0.216994 0.445295
0.285077 0.636399 0.540668
0.155590 0.372499 0.540989
0.405121 0.170893 0.204296
0.070813 0.593399 0.552857
0.322138 0.638941 0.499047
0.447444 0.184919 0.253068
0.502638 0.620551 0.548816
0.315108 0.385721 0.543206
0.480920 0.115582 0.593103
0.279697 0.214763 0.449469
0.526407 0.249431 0.424578
0.320463 0.234538 0.488346
0.357788 0.233476 0.232125
0.494289 0.214724 0.554376
0.262478 0.647391 0.542397
0.435791 0.095347 0.657797
0.129277 0.519709 0.555139
0.283478 0.408087 0.546942
0.324746 0.029435 0.535156
0.196351 0.214985 0.530583
0.481347 0.105032 0.502006
0.328728 0.041163 0.082222
0.490499 0.334819 0.529570
0.145268 0.188385 0.460712
0.201294 0.231632 0.280258
0.336532 0.364088 0.509443
0.357494 0.037217 0.566247
0.334489 0.118439 0.201795
0.470552 0.130705 0.346037
0.246363 0.214608 0.435421
0.425299 0.122181 0.280559
0.423245 0.189109 0.779530
0.162405 0.132642 0.415354
0.290529 0.050593 0.615583
0.222821 0.485005 0.554849
0.304648 0.208870 0.860579
0.381304 0.219512 0.836368
0.270101 0.050402 0.406589
0.293529 0.214386 0.619398
0.254319 0.065177 0.368169
0.345375 0.233475 0.188710
0.160089 0.221072 0.541700
0.402249 0.515439 0.560075
0.429050 0.413392 0.552862
0.339347 0.226358 0.510213
0.339314 0.128788 0.189914
0.127487 0.363120 0.539092
0.302309 0.214916 0.536847
0.360694 0.229418 0.244458
0.404815 0.214387 0.653788
0.366743 0.093953 0.257247
0.390859 0.144387 0.212281
0.128905 0.221662 0.547052
0.206192 0.587040 0.553816
0.452647 0.564045 0.552258
0.386614 0.210859 0.171757
0.385145 0.353862 0.535932
0.326328 0.233475 0.210800
0.303029 0.214379 0.304448
0.297028 0.035482 0.487227
0.424385 0.301158 0.523539
0.506590 0.730289 0.521496
0.321419 0.324134 0.507988
0.278282 0.042680 0.539125
0.220776 0.071150 0.578183
0.212189 0.555786 0.553482
0.498736 0.125215 0.525425
0.339848 0.650926 0.497450
0.519326 0.200887 0.556755
0.416164 0.097218 0.302529
0.188313 0.233489 0.714299
0.355320 0.041376 0.597457
0.168933 0.232210 0.688689
0.191970 0.094796 0.513007
0.341909 0.343913 0.492031
0.280959 0.621006 0.543723
0.369197 0.233492 0.831000
0.232399 0.059555 0.582518
0.419791 0.062883 0.388891
0.173197 0.175225 0.652264
0.397990 0.233474 0.180073
0.425619 0.131194 0.732724
0.193640 0.215534 0.324829
0.281249 0.424684 0.554742
0.382536 0.214379 0.285218
0.509697 0.203655 0.389373
0.469798 0.729855 0.506987
0.511448 0.226849 0.470011
0.510101 0.331754 0.533773
0.284683 0.214392 0.748459
0.501309 0.682396 0.531364
0.114438 0.563973 0.552252
0.495809 0.311335 0.521719
0.512988 0.197471 0.404025
0.437960 0.406384 0.546666
0.295698 0.056131 0.641971
0.416395 0.050132 0.519412
0.467830 0.491420 0.559874
0.190473 0.214388 0.659406
0.104832 0.719416 0.505641
0.174967 0.319345 0.529607
0.323553 0.428286 0.550320
0.189840 0.167047 0.312101
0.331769 0.550200 0.508799
0.238792 0.475619 0.554770
0.442383 0.144172 0.724560
0.352500 0.214379 0.354152
0.481229 0.505847 0.555040
0.292870 0.233476 0.238507
0.195129 0.173030 0.701673
0.461204 0.432239 0.556013
0.264200 0.717338 0.520325
0.078489 0.684568 0.530656
0.291932 0.096780 0.747406
0.301283 0.217082 0.143719
0.299128 0.641216 0.544348
0.232277 0.214386 0.614713
0.138386 0.596806 0.552351
0.342469 0.491324 0.498674
0.123128 0.546532 0.554863
0.280413 0.233475 0.198443
0.114607 0.712830 0.514344
0.357022 0.464685 0.559641
0.156185 0.139381 0.483306
0.313150 0.514248 0.555103
0.342371 0.207023 0.886058
0.455430 0.214385 0.586920
0.283492 0.314927 0.522909
0.508448 0.144121 0.498444
0.475425 0.123105 0.624178
0.223072 0.160467 0.247723
0.540053 0.439237 0.557187
0.624300 0.715584 0.507723
0.101628 0.690150 0.528896
0.433208 0.486978 0.554877
0.246481 0.343055 0.532311
0.150832 0.186351 0.591858
0.589194 0.732984 0.513756
0.423857 0.091759 0.676372
0.174480 0.662021 0.537776
0.099386 0.658990 0.538729
0.470418 0.149817 0.316439
0.178801 0.214380 0.380700
0.333759 0.156741 0.158234
0.434403 0.438630 0.557080
0.323209 0.218598 0.910502
0.053662 0.642943 0.543328
0.154846 0.225148 0.513251
0.413765 0.214391 0.728434
0.218591 0.157201 0.741538
0.383515 0.715806 0.520815
0.397750 0.080588 0.311106
0.208503 0.190089 0.263196
0.494177 0.223879 0.627899
0.243389 0.214379 0.271854
0.216594 0.095550 0.634143
0.501471 0.692610 0.522942
0.160327 0.136039 0.566360
0.487268 0.228138 0.340880
0.430125 0.214390 0.715305
0.338075 0.727286 0.522806
0.315031 0.210202 0.871521
0.199928 0.176563 0.713203
0.179166 0.519648 0.560099
0.321317 0.233481 0.916830
0.242093 0.133542 0.746995
0.349977 0.214379 0.321883
0.384536 0.115201 0.770040
0.234830 0.496729 0.554950
0.477910 0.143536 0.662632
0.465168 0.088975 0.489401
0.231493 0.214391 0.729032
0.338322 0.214380 0.383273
0.307279 0.215032 0.473822
0.480003 0.415720 0.553254
0.309977 0.214379 0.253066
0.548112 0.557896 0.558197
0.137764 0.725842 0.523394
0.444461 0.088568 0.381847
0.452535 0.515915 0.555124
0.450649 0.214529 0.428322
0.257012 0.177149 0.799017
0.375224 0.344767 0.532890
0.305710 0.455354 0.559559
0.338318 0.214387 0.654035
0.210766 0.727626 0.506050
0.245261 0.173971 0.216021
0.328994 0.702130 0.525128
0.402869 0.353555 0.541057
0.209536 0.215312 0.499195
0.197399 0.160870 0.299788
0.416601 0.214380 0.388298
0.553789 0.443748 0.557941
0.202372 0.220127 0.297635
0.216602 0.144884 0.278687
0.417816 0.082632 0.327559
0.255982 0.096377 0.285671
0.484612 0.214380 0.401831
0.176766 0.223155 0.311006
0.151012 0.207788 0.390499
0.065733 0.656867 0.539397
0.342489 0.614954 0.549645
0.511435 0.228275 0.447164
0.316453 0.236796 0.874706
0.513235 0.183723 0.582385
0.178929 0.154887 0.654384
0.214946 0.220924 0.733146
0.325088 0.298669 0.510048
0.255012 0.049079 0.538741
0.458866 0.081602 0.501456
0.374231 0.109452 0.233395
0.444004 0.426675 0.555083
0.413881 0.731166 0.509358
0.419383 0.343473 0.537687
0.317862 0.238278 0.887665
0.249287 0.214809 0.244453
0.203314 0.348966 0.534285
0.410714 0.049418 0.531499
0.338107 0.214379 0.316168
0.462935 0.164806 0.705807
0.390067 0.219292 0.825426
0.337694 0.127941 0.809920
0.365641 0.214583 0.567144
0.521327 0.519786 0.555160
0.142624 0.234413 0.461322
0.220107 0.215192 0.488298
0.517974 0.545372 0.560070
0.338091 0.198749 0.895008
0.206426 0.214380 0.399010
0.242183 0.596102 0.552462
0.180707 0.195791 0.683642
0.385083 0.168386 0.812897
0.528259 0.640944 0.539247
0.548402 0.580979 0.554742
0.242998 0.671859 0.534675
0.369502 0.214389 0.686736
0.213281 0.218942 0.273684
0.235850 0.135444 0.260515
0.157917 0.135979 0.470215
0.479147 0.233488 0.687635
0.281362 0.341733 0.531871
0.324867 0.511411 0.506965
0.458561 0.084690 0.538986
0.445201 0.582124 0.554565
0.555751 0.731299 0.509686
0.180795 0.112057 0.424912
0.466881 0.214526 0.572340
0.566747 0.497604 0.554974
0.491622 0.161744 0.366329
0.139308 0.209862 0.531962
0.277478 0.714887 0.519330
0.215108 0.335112 0.529654
0.404957 0.106907 0.267240
0.506556 0.219159 0.490235
0.330293 0.160483 0.129675
0.176385 0.117429 0.584443
0.100519 0.506258 0.555023
0.172212 0.151907 0.368965
0.328760 0.214379 0.329603
0.360863 0.098445 0.757198
0.278398 0.489852 0.559851
0.432218 0.587164 0.548797
0.351796 0.721700 0.524016
0.306004 0.330039 0.527963
0.316794 0.663940 0.537178
0.516733 0.187950 0.453966
0.182310 0.129967 0.629584
0.228947 0.055910 0.491385
0.221081 0.167675 0.751679
0.175529 0.116259 0.438651
0.154025 0.219211 0.626969
0.156700 0.469546 0.559672
0.135117 0.399917 0.545569
0.157034 0.230642 0.400961
0.476780 0.445806 0.553256
0.243950 0.112083 0.281045
0.339808 0.078866 0.726227
0.437052 0.214805 0.547005
0.445623 0.084163 0.604739
0.409529 0.149083 0.773569
0.302077 0.143952 0.821060
0.271949 0.636616 0.545798
0.114983 0.504941 0.555013
0.524403 0.630938 0.547262
0.563203 0.641613 0.539038
0.606479 0.636971 0.545703
0.272556 0.386129 0.548298
0.471481 0.652648 0.535551
0.242269 0.053103 0.454163
0.389246 0.214388 0.657809
0.192251 0.445685 0.553220
0.257074 0.052444 0.412504
0.067615 0.713192 0.515226
0.257326 0.165062 0.207029
0.181434 0.204163 0.286990
0.502334 0.397281 0.545148
0.384435 0.529214 0.555233
0.218574 0.214386 0.603547
0.174099 0.257504 0.698833
0.225952 0.133570 0.720875
0.293923 0.213749 0.849836
0.504637 0.141413 0.451007
0.262611 0.045309 0.484077
0.161392 0.221083 0.570001
0.450202 0.158703 0.270822
0.365767 0.214388 0.672609
0.264950 0.214387 0.640754
0.339243 0.233491 0.777688
0.400050 0.181846 0.806253
0.217177 0.069531 0.477282
0.353328 0.167109 0.847590
0.614018 0.710381 0.522430
0.284784 0.214387 0.637035
0.186226 0.105536 0.435335
0.325927 0.214379 0.280900
0.364365 0.134354 0.805242
0.346128 0.220002 0.869672
0.282286 0.230626 0.160101
0.263099 0.077194 0.319736
0.350664 0.055733 0.343264
0.205522 0.214496 0.575121
0.637010 0.721468 0.523934
0.041230 0.727439 0.522727
0.337433 0.275949 0.039052
0.136275 0.640048 0.539509
0.231137 0.214379 0.366519
0.295285 0.433851 0.551248
0.273446 0.233490 0.776084
0.328901 0.233491 0.816481
0.182660 0.118217 0.603256
0.291009 0.714494 0.516026
0.514120 0.229423 0.483694
0.338617 0.237396 0.486702
0.387543 0.339347 0.536305
0.198627 0.096014 0.588786
0.216852 0.143476 0.719790
0.240486 0.214981 0.469221
0.385513 0.190061 0.174139
0.408306 0.202717 0.800158
0.484870 0.225119 0.695644
0.142470 0.209026 0.421584
0.224939 0.117746 0.304609
0.309736 0.279399 0.516259
0.320479 0.214385 0.590568
0.351651 0.131184 0.193578
0.246766 0.099321 0.703240
0.253393 0.378919 0.547092
0.529963 0.235939 0.458447
0.143932 0.515230 0.560059
0.353053 0.091811 0.251839
0.444211 0.279744 0.516381
0.371046 0.600557 0.546789
0.216124 0.707908 0.518100
0.533207 0.219504 0.558137
0.293251 0.204874 0.153067
0.292355 0.214379 0.352640
0.331981 0.179005 0.143720
0.203822 0.225062 0.743068
0.232929 0.191628 0.226098
0.498082 0.639745 0.544822
0.472353 0.246125 0.280115
0.328657 0.081844 0.131594
0.421714 0.050690 0.493466
0.429417 0.082823 0.356329
0.294605 0.538317 0.555306
0.486453 0.256480 0.694550
0.228364 0.388166 0.548636
0.154140 0.156878 0.552685
0.397869 0.233491 0.781586
0.381701 0.716097 0.507031
0.178397 0.189670 0.324130
0.439777 0.219779 0.768471
0.333224 0.233506 0.159090
0.418308 0.071132 0.642874
0.368844 0.059417 0.349023
0.488757 0.144137 0.629123
0.316600 0.675775 0.528245
0.522227 0.199838 0.493121
0.516374 0.358363 0.537443
0.465918 0.094888 0.434097
0.489276 0.142361 0.373835
0.330152 0.236482 0.868460
0.522905 0.213254 0.549732
0.332961 0.299859 0.523100
0.485273 0.401088 0.550809
0.420782 0.055514 0.422645
0.399971 0.233475 0.197210
0.374143 0.209212 0.842188
0.334474 0.471809 0.488270
0.519481 0.191356 0.483705
0.311656 0.159875 0.154078
0.320321 0.078026 0.276857
0.194498 0.214398 0.416378
0.253734 0.047614 0.513660
0.388916 0.205344 0.824342
0.313330 0.500611 0.554987
0.201199 0.085029 0.488710
0.098818 0.618796 0.549057
0.208667 0.625263 0.548095
0.402872 0.214379 0.295349
0.488854 0.698807 0.520986
0.325588 0.240359 0.134392
0.341559 0.692921 0.528034
0.138642 0.467400 0.559652
0.411516 0.190358 0.206442
0.458073 0.116811 0.347870
0.216953 0.084104 0.393708
0.193184 0.248146 0.264375
0.323590 0.406352 0.546654
0.252111 0.056178 0.596484
0.247324 0.219909 0.201963
0.521922 0.198968 0.508212
0.357611 0.206584 0.144694
0.323473 0.247268 0.486961
0.389633 0.129248 0.776469
0.557404 0.724871 0.523818
0.468179 0.507814 0.560013
0.397119 0.654471 0.540170
0.267968 0.056787 0.384550
0.428046 0.215215 0.490417
0.414982 0.220388 0.202915
0.183583 0.280206 0.512509
0.403190 0.214734 0.553417
0.519018 0.233481 0.410106
0.294402 0.061194 0.659097
0.176745 0.356373 0.536760
0.322510 0.275192 0.070122
0.222793 0.214475 0.576970
0.319488 0.029442 0.515696
0.204971 0.214379 0.373061
0.312234 0.036376 0.418164
0.508061 0.177244 0.595215
0.333279 0.534719 0.555277
0.475049 0.624632 0.548203
0.346367 0.178878 0.137016
0.438160 0.392075 0.549300
0.208786 0.076700 0.506794
0.315645 0.197323 0.872356
0.329005 0.606362 0.507344
0.542206 0.389084 0.543780
0.328175 0.686031 0.525009
0.220048 0.221617 0.253862
0.410100 0.131415 0.758551
0.285621 0.041752 0.445608
0.383109 0.133426 0.787284
0.444927 0.214681 0.442023
0.312968 0.075313 0.711123
0.349373 0.201619 0.135900
0.342782 0.037142 0.594616
0.396816 0.214380 0.404287
0.430158 0.217675 0.221015
0.291626 0.355644 0.536523
0.409111 0.075189 0.667157
0.280411 0.214468 0.577627
0.371636 0.472467 0.554751
0.507829 0.144848 0.514150
0.259173 0.689048 0.524054
0.169744 0.122337 0.562718
0.428423 0.177114 0.229466
0.320227 0.214380 0.408336
0.168723 0.206188 0.661582
0.380241 0.589903 0.548384
0.327113 0.205396 0.906147
0.280241 0.068434 0.329366
0.214166 0.320814 0.530100
0.181279 0.204968 0.712058
0.555611 0.702433 0.525044
0.494027 0.519286 0.555155
0.401504 0.528339 0.555227
0.453645 0.296666 0.522039
0.464624 0.191136 0.714537
0.325869 0.172633 0.133238
0.358268 0.659141 0.533496
0.340126 0.443915 0.491110
0.541522 0.730018 0.521685
0.434002 0.142841 0.735790
0.212585 0.214387 0.640189
0.358211 0.233491 0.794748
0.411589 0.535662 0.560247
0.448741 0.214379 0.272986
0.185931 0.215145 0.516029
0.430449 0.061270 0.412368
0.570389 0.616883 0.549368
0.517196 0.180369 0.491573
0.055515 0.723266 0.524457
0.155537 0.167536 0.408484
0.326166 0.439342 0.557193
0.149054 0.565619 0.552007
0.412665 0.047984 0.503985
0.480726 0.732995 0.513778
0.348156 0.214387 0.641120
0.273152 0.215170 0.513756
0.217893 0.067079 0.494725
0.163594 0.163640 0.386473
0.530721 0.235592 0.586540
0.474629 0.214544 0.670573
0.274409 0.517600 0.560086
0.194504 0.237879 0.738908
0.219401 0.130648 0.293784
0.322145 0.521424 0.493998
0.308491 0.688853 0.524118
0.296798 0.164082 0.834160
0.159889 0.221115 0.461720
0.097651 0.438578 0.553352
0.489215 0.212974 0.323289
0.251090 0.214379 0.362829
0.533031 0.252950 0.438790
0.466587 0.418734 0.548731
0.305326 0.351446 0.540347
0.327876 0.419647 0.509502
0.511010 0.182968 0.409233
0.308949 0.214386 0.618985
0.246424 0.214391 0.744058
0.387820 0.042125 0.518795
0.505371 0.138871 0.528124
0.212328 0.198657 0.748141
0.333764 0.233476 0.243610
0.274604 0.046545 0.421180
0.159253 0.183325 0.615708
0.532573 0.230658 0.565385
0.341607 0.239441 0.911734
0.407813 0.061089 0.383338
0.327030 0.248122 0.120069
0.332497 0.547222 0.488508
0.228150 0.215212 0.509940
0.342284 0.053736 0.658213
0.310005 0.234109 0.851454
0.533514 0.210424 0.443397
0.331325 0.026522 0.480086
0.233069 0.436906 0.551755
0.508246 0.233481 0.395833
0.081998 0.651431 0.535915
0.506783 0.152353 0.558751
0.337733 0.436922 0.507921
0.086619 0.663695 0.537243
0.398139 0.182503 0.191214
0.246419 0.233475 0.221425
0.209706 0.097155 0.379668
0.563119 0.480265 0.554827
0.337945 0.214385 0.593369
0.344215 0.074966 0.713040
0.423712 0.214386 0.613575
0.317507 0.150678 0.838713
0.550035 0.514297 0.560073
0.167987 0.366068 0.539915
0.275996 0.214387 0.650212
0.339718 0.202713 0.112050
0.420474 0.207081 0.787331
0.516332 0.192523 0.569684
0.210968 0.075721 0.519983
0.401510 0.170141 0.798529
0.466455 0.158955 0.304088
0.296999 0.214390 0.717087
0.254443 0.214379 0.290962
0.311662 0.630321 0.547343
0.506358 0.233487 0.627189
0.248078 0.233476 0.243848
0.219179 0.214747 0.552243
0.132390 0.233394 0.586943
0.361652 0.086812 0.728895
0.137063 0.259509 0.416301
0.355568 0.214380 0.389796
0.380708 0.198938 0.833399
0.152277 0.228776 0.534547
0.333335 0.029497 0.552195
0.210335 0.156349 0.275703
0.281017 0.214379 0.290914
0.480173 0.122748 0.611808
0.320901 0.549698 0.497959
0.230910 0.177656 0.232308
0.471801 0.214385 0.585278
0.320952 0.358318 0.505701
0.226655 0.214379 0.317505
0.457361 0.085722 0.437705
0.291662 0.233491 0.778078
0.398564 0.214391 0.735372
0.383433 0.040558 0.486004
0.138737 0.234752 0.478250
0.504525 0.574830 0.550647
0.608992 0.729651 0.521841
0.219788 0.586246 0.553936
0.307189 0.532727 0.555259
0.227314 0.088986 0.645398
0.136663 0.238113 0.400369
0.239478 0.233490 0.766927
0.348653 0.214388 0.681230
0.323594 0.203376 0.109171
0.340274 0.238700 0.926292
0.391880 0.054440 0.391605
0.525103 0.245462 0.412162
0.328659 0.056682 0.092704
0.599738 0.666331 0.536439
0.195358 0.234130 0.260197
0.482841 0.598960 0.552047
0.408834 0.108276 0.727791
0.129244 0.232800 0.446521
0.352444 0.199005 0.863627
0.457697 0.214379 0.329905
0.168971 0.214785 0.451427
0.141418 0.715860 0.515587
0.342052 0.072257 0.291981
0.337215 0.215075 0.477726
0.245451 0.389690 0.543866
0.402572 0.050728 0.580520
0.517514 0.720214 0.523409
0.235845 0.214380 0.387248
0.338603 0.067653 0.699204
0.439205 0.214390 0.415687
0.231122 0.603305 0.546370
0.361769 0.070857 0.309788
0.525988 0.222823 0.460594
0.183635 0.231449 0.682150
0.384949 0.215283 0.503495
0.080533 0.604248 0.546221
0.435919 0.066174 0.585895
0.228679 0.203823 0.772100
0.158588 0.145379 0.424167
0.328674 0.062438 0.191628
0.343469 0.327516 0.495242
0.507201 0.163623 0.587327
0.348415 0.035920 0.582369
0.606470 0.684773 0.530619
0.093961 0.606985 0.545812
0.121930 0.436667 0.556736
0.399984 0.214555 0.430667
0.354035 0.214380 0.414686
0.486307 0.214608 0.564891
0.342387 0.224603 0.489144
0.456308 0.726349 0.505534
0.341433 0.220864 0.103084
0.205119 0.096638 0.392840
0.533658 0.256201 0.552978
0.385602 0.465626 0.559650
0.379364 0.041901 0.451761
0.341608 0.239992 0.135070
0.264286 0.224034 0.818195
0.280032 0.123126 0.219038
0.494684 0.178904 0.362770
0.351569 0.715466 0.507992
0.345043 0.214379 0.264548
0.185773 0.310930 0.521567
0.153327 0.146918 0.502408
0.433598 0.060248 0.447946
0.278228 0.325230 0.531580
0.195903 0.216283 0.681561
0.341479 0.214386 0.627056
0.497849 0.298931 0.518455
0.436679 0.214546 0.429826
0.213116 0.214385 0.588192
0.170803 0.503417 0.559960
0.425842 0.214396 0.416261
0.343530 0.214225 0.117987
0.175298 0.302266 0.523897
0.191366 0.220160 0.716405
0.480566 0.202195 0.688508
0.348803 0.066102 0.687696
0.489777 0.114154 0.505981
0.402258 0.214934 0.535204
0.216811 0.185721 0.248786
0.143041 0.235086 0.494957
0.462771 0.214816 0.546005
0.326704 0.527817 0.507495
0.299491 0.214385 0.590524
0.521722 0.383795 0.547921
0.167825 0.232974 0.641230
0.328656 0.127886 0.147888
0.469343 0.137198 0.671816
0.336335 0.256954 0.511030
0.308219 0.035261 0.551452
0.326447 0.234152 0.852203
0.451379 0.080870 0.424264
0.184522 0.214386 0.611343
0.194463 0.215287 0.503069
0.148909 0.233766 0.571184
0.326802 0.485311 0.508134
0.378087 0.214388 0.668061
0.474786 0.241289 0.726689
0.444879 0.232469 0.765888
0.302091 0.674317 0.533903
0.384360 0.214380 0.376702
0.402258 0.214392 0.752713
0.497781 0.192393 0.362136
0.362931 0.202783 0.850867
0.240285 0.319106 0.529531
0.444480 0.175221 0.748500
0.351676 0.044159 0.388421
0.324407 0.621305 0.491920
0.414374 0.711141 0.522289
0.462566 0.151789 0.700563
0.567150 0.510006 0.560037
0.328998 0.265941 0.043161
0.051070 0.733226 0.514312
0.268976 0.214389 0.685148
0.310569 0.586439 0.553912
0.562779 0.668447 0.530571
0.379475 0.214538 0.429076
0.235792 0.233254 0.212965
0.092052 0.452739 0.558268
0.487291 0.632254 0.541987
0.226596 0.142803 0.734653
0.392945 0.214386 0.620831
0.500484 0.410304 0.552350
0.155257 0.226728 0.556824
0.508823 0.463852 0.559642
0.195911 0.205083 0.718687
0.411047 0.050466 0.544781
0.350887 0.683369 0.525850
0.300694 0.050420 0.625601
0.465480 0.214388 0.660791
0.323445 0.214388 0.666907
0.155778 0.178576 0.601080
0.340274 0.579801 0.549894
0.461464 0.099535 0.602515
0.445684 0.215172 0.513603
0.497873 0.217370 0.343275
0.273124 0.216325 0.827047
0.395809 0.088642 0.709278
0.559712 0.690687 0.528751
0.406216 0.214386 0.619464
0.461031 0.205716 0.728615
0.366243 0.216320 0.244459
0.340734 0.168495 0.142480
0.395205 0.233490 0.766693
0.319539 0.214702 0.116257
0.211066 0.142617 0.290783
0.262555 0.143238 0.219421
0.509974 0.153403 0.485415
0.238580 0.210108 0.785726
0.386206 0.046109 0.420765
0.317025 0.250593 0.499872
0.247815 0.214899 0.538424
0.345427 0.591816 0.548096
0.387316 0.075186 0.316841
0.332708 0.026521 0.514790
0.262253 0.082428 0.307800
0.518330 0.203156 0.580532
0.533872 0.225699 0.446799
0.450820 0.076198 0.466290
0.212318 0.104194 0.643940
0.440290 0.214388 0.678192
0.248023 0.309141 0.520972
0.158570 0.164346 0.598435
0.425417 0.214388 0.679534
0.256406 0.117385 0.252113
0.491192 0.656871 0.539418
0.255508 0.214388 0.659344
0.342990 0.214391 0.728095
0.473138 0.140213 0.329721
0.587898 0.547224 0.559796
0.573780 0.731469 0.510096
0.469125 0.214420 0.418471
0.161082 0.218247 0.503114
0.342073 0.252070 0.078437
0.460699 0.714840 0.509510
0.260268 0.214386 0.621206
0.200224 0.214387 0.650207
0.451582 0.389190 0.548819
0.401280 0.339994 0.531296
0.382322 0.233475 0.203224
0.438866 0.214812 0.453882
0.492615 0.214599 0.434593
0.489097 0.127847 0.602160
0.341910 0.415345 0.494452
0.335175 0.497905 0.508123
0.179626 0.730272 0.521518
0.223623 0.103682 0.670465
0.328657 0.120598 0.134529
0.395141 0.077466 0.683237
0.263444 0.317047 0.523617
0.309948 0.035209 0.442794
0.610424 0.671805 0.530562
0.507365 0.314741 0.527372
0.320549 0.287109 0.518837
0.212600 0.215877 0.720277
0.375735 0.214379 0.318247
0.294092 0.214500 0.574754
0.426487 0.382484 0.542671
0.314543 0.214729 0.446422
0.431210 0.054794 0.521333
0.264487 0.214817 0.454330
0.354530 0.188236 0.856611
0.333791 0.454730 0.487748
0.154419 0.533092 0.560211
0.305163 0.482778 0.559792
0.097034 0.715961 0.521625
0.106813 0.450056 0.553946
0.338434 0.601956 0.492379
0.182996 0.542261 0.555334
0.349976 0.233475 0.200969
0.187776 0.187582 0.693947
0.446026 0.223747 0.253169
0.284942 0.135492 0.797472
0.273299 0.138483 0.212266
0.236826 0.124416 0.274145
0.384924 0.044348 0.439566
0.393651 0.061378 0.367925
0.175556 0.401749 0.545877
0.343028 0.295238 0.503974
0.340514 0.137567 0.822124
0.058001 0.613534 0.547226
0.131619 0.222700 0.578112
0.256776 0.214391 0.730146
0.399523 0.154821 0.212073
0.191473 0.214386 0.624852
0.046459 0.716419 0.516250
0.194617 0.214541 0.429390
0.292318 0.040067 0.556644
0.411934 0.233490 0.776142
0.441427 0.214386 0.614387
0.336876 0.031477 0.565576
0.251806 0.214380 0.402201
0.171348 0.141618 0.379864
0.278230 0.214379 0.360453
0.503872 0.203862 0.628270
0.477672 0.227870 0.721022
0.113865 0.652281 0.535648
0.430375 0.053140 0.507054
0.365823 0.214379 0.288285
0.174720 0.215079 0.478114
0.472706 0.174039 0.690421
0.262312 0.095087 0.721731
0.495278 0.607412 0.550782
0.223292 0.309922 0.526459
0.324677 0.044778 0.370670
0.328894 0.312744 0.522182
0.466803 0.540275 0.560289
0.489896 0.211649 0.303100
0.320976 0.250309 0.915111
0.336120 0.062131 0.687382
0.447330 0.440836 0.552424
0.265108 0.214380 0.405059
0.397748 0.215109 0.519258
0.244617 0.214379 0.310062
0.327368 0.214386 0.626438
0.446811 0.140711 0.712477
0.332402 0.212154 0.918341
0.328655 0.086154 0.175845
0.302309 0.145407 0.176965
0.213174 0.301612 0.523680
0.390088 0.215224 0.491174
0.372733 0.215032 0.473849
0.219042 0.221748 0.765337
0.259699 0.392701 0.544370
0.420320 0.191892 0.216371
0.197751 0.214386 0.607454
0.342670 0.379995 0.542251
0.448238 0.620377 0.543826
0.338327 0.358494 0.488279
0.250303 0.726469 0.505573
0.247812 0.632893 0.546955
0.437030 0.079449 0.615175
0.331203 0.467119 0.554703
0.469077 0.281628 0.511786
0.264393 0.085788 0.701590
0.223384 0.366634 0.545038
0.175369 0.674591 0.528611
0.087089 0.531316 0.560193
0.236239 0.075324 0.634165
0.323661 0.047001 0.636714
0.531451 0.209429 0.578209
0.323518 0.247545 0.940334
0.266290 0.214379 0.330497
0.332762 0.247257 0.958642
0.316603 0.417403 0.553527
0.504497 0.221288 0.360176
0.476781 0.214681 0.442019
0.216911 0.229326 0.235262
0.352472 0.214379 0.287212
0.484825 0.109353 0.490139
0.190843 0.214379 0.353955
0.090877 0.679873 0.526940
0.353966 0.620993 0.543729
0.526978 0.221043 0.516670
0.349476 0.030661 0.507946
0.429451 0.717088 0.522109
0.428342 0.214386 0.601439
0.188010 0.100062 0.524727
0.328883 0.174860 0.160926
0.295896 0.697674 0.521334
0.338333 0.243809 0.939892
0.169291 0.117859 0.507666
0.130847 0.717240 0.506544
0.242041 0.061933 0.607169
0.485586 0.187618 0.328352
0.203653 0.279818 0.513425
0.395962 0.232406 0.821949
0.453865 0.227751 0.734471
0.444067 0.214390 0.703198
0.328022 0.028982 0.458688
0.461574 0.141556 0.309490
0.317221 0.045423 0.623946
0.341412 0.214379 0.364645
0.322988 0.282465 0.040636
0.276374 0.108825 0.760918
0.340612 0.193013 0.122957
0.348744 0.052612 0.646909
0.332065 0.255022 0.051642
0.175089 0.618037 0.544162
0.343952 0.476376 0.559740
0.411811 0.690587 0.523576
0.375079 0.214880 0.540179
0.378409 0.233475 0.216353
0.384576 0.547949 0.559677
0.298219 0.343253 0.532380
0.333090 0.215183 0.512562
0.516584 0.700431 0.520476
0.179532 0.167654 0.665741
0.220186 0.613442 0.549865
0.188615 0.106124 0.588276
0.332961 0.073914 0.095050
0.205315 0.722016 0.524139
0.175244 0.247894 0.690268
0.138205 0.207401 0.494545
0.378203 0.049641 0.395363
0.172579 0.118289 0.550031
0.384850 0.214389 0.681833
0.283458 0.177077 0.827873
0.321697 0.361959 0.489682
0.390199 0.225300 0.755544
0.458890 0.224959 0.257876
0.302058 0.069471 0.688769
0.227887 0.060406 0.543288
0.421358 0.154949 0.232981
0.320882 0.049774 0.355641
0.240044 0.222944 0.790217
0.499149 0.201078 0.640325
0.483386 0.114140 0.578727
0.240536 0.214379 0.287192
0.486087 0.174670 0.339083
0.399954 0.046567 0.466422
0.343519 0.357568 0.500676
0.225375 0.074297 0.396555
0.507977 0.593949 0.547785
0.233945 0.069076 0.387493
0.354815 0.226932 0.857020
0.513922 0.167776 0.490253
0.299258 0.039923 0.418633
0.204992 0.226130 0.717851
0.260391 0.044763 0.500370
0.498667 0.225043 0.384550
0.204525 0.123306 0.668778
0.276856 0.045852 0.577798
0.239488 0.058887 0.593394
0.297360 0.585791 0.554008
0.262524 0.173596 0.196390
0.324171 0.032551 0.425360
0.293787 0.036489 0.514156
0.359152 0.233474 0.166205
0.394301 0.214387 0.642975
0.277245 0.214380 0.373580
0.523774 0.213076 0.535336
0.333758 0.054571 0.169671
0.292531 0.214532 0.428533
0.185526 0.103813 0.462795
0.226608 0.086086 0.363732
0.310203 0.443589 0.552876
0.339907 0.567899 0.502263
0.233521 0.636829 0.540530
0.536374 0.624184 0.543261
0.393967 0.214379 0.319369
0.477193 0.184046 0.313562
0.355038 0.053713 0.355712
0.489908 0.729043 0.522087
0.298847 0.085303 0.274254
0.149446 0.199631 0.598132
0.159226 0.134841 0.545196
0.152008 0.701829 0.520015
0.416962 0.121321 0.733185
0.327596 0.033874 0.409106
0.469620 0.462759 0.559630
0.156442 0.156072 0.414879
0.504932 0.422975 0.554467
0.485406 0.317279 0.528932
0.288525 0.188833 0.159897
0.440800 0.450546 0.559071
0.318815 0.200463 0.126770
0.331380 0.050126 0.343619
0.326143 0.036346 0.598772
0.193083 0.726296 0.523208
0.280849 0.364588 0.544699
0.406160 0.054894 0.595576
0.358808 0.214379 0.275013
0.380619 0.078415 0.304646
0.269471 0.214386 0.603112
0.151895 0.228893 0.471509
0.472394 0.116756 0.383406
0.150405 0.233013 0.415308
0.494818 0.160861 0.622955
0.324010 0.282529 0.056585
0.344203 0.034773 0.417332
0.386115 0.128786 0.220006
0.256507 0.215228 0.491566
0.457771 0.099725 0.388047
0.187305 0.458855 0.559582
0.534012 0.585479 0.554067
0.333824 0.233476 0.228534
0.145007 0.407594 0.551879
0.133360 0.607239 0.545776
0.419005 0.102916 0.701072
0.310165 0.214390 0.713340
0.290442 0.083028 0.714270
0.104981 0.494619 0.559882
0.194490 0.626683 0.547882
0.139231 0.209824 0.469419
0.355565 0.084736 0.271462
0.463426 0.554651 0.558678
0.372579 0.676420 0.528044
0.255767 0.298638 0.522688
0.457344 0.137789 0.691581
0.236654 0.705367 0.524101
0.194567 0.206913 0.283172
0.266274 0.178637 0.810578
0.210264 0.075668 0.488040
0.378729 0.085549 0.286448
0.163083 0.200445 0.359619
0.388566 0.301414 0.518397
0.250490 0.200895 0.202442
0.341882 0.044221 0.377526
0.547281 0.685228 0.530473
0.270847 0.531652 0.555248
0.296603 0.233490 0.763171
0.453963 0.215685 0.719401
0.329164 0.118890 0.184411
0.340115 0.407742 0.507191
0.306015 0.214855 0.457817
0.227816 0.214379 0.262353
0.326713 0.233492 0.831767
0.232626 0.167489 0.767031
0.267704 0.150221 0.792445
0.503726 0.134262 0.464829
