0.363603 0.489639 0.631649
0.297694 0.306391 0.896606
0.130295 0.174441 0.796374
0.267409 0.141252 0.259817
0.458564 0.291101 0.804334
0.429809 0.226643 0.242114
0.080336 0.207574 0.717286
0.074993 0.130187 0.772098
0.083652 0.348670 0.660739
0.426706 0.245273 0.744943
0.335085 0.322276 0.234080
0.286336 0.357019 0.357780
0.358039 0.322284 0.300940
0.428308 0.032893 0.768465
0.422147 0.241648 0.796272
0.094308 0.066965 0.680331
0.459290 0.081080 0.188275
0.175657 0.141500 0.221303
0.119696 0.107105 0.109122
0.081008 0.333286 0.527424
0.399765 0.189040 0.677757
0.473787 0.262593 0.756586
0.470541 0.145551 0.635675
0.304505 0.306874 0.122374
0.294853 0.298922 0.079594
0.294842 0.142133 0.383436
0.344778 0.287183 0.071583
0.407850 0.139195 0.199416
0.438778 0.379480 0.560155
0.445831 0.353004 0.362815
0.272254 0.305938 0.868968
0.337450 0.323252 0.282006
0.121938 0.071727 0.156904
0.086804 0.041695 0.239875
0.419986 0.441898 0.402989
0.063240 0.157890 0.836670
0.270898 0.495380 0.658945
0.096963 0.176912 0.091850
0.212067 0.152689 0.716319
0.422358 0.200008 0.229957
0.461396 0.203911 0.415279
0.266580 0.167119 0.870267
0.280943 0.281579 0.067043
0.414717 0.330244 0.339901
0.369710 0.194273 0.053491
0.057869 0.199731 0.097638
0.068881 0.202419 0.464139
0.189242 0.470886 0.422848
0.457584 0.286046 0.583815
0.424627 0.193552 0.695527
0.297931 0.157625 0.768941
0.262403 0.280878 0.066467
0.352048 0.303560 0.917263
0.456645 0.285818 0.375439
0.097788 0.215195 0.261270
0.159829 0.341836 0.684910
0.094649 0.306223 0.881185
0.409999 0.107804 0.817044
0.381746 0.207821 0.925250
0.090451 0.374507 0.539598
0.073493 0.308562 0.603389
0.076540 0.143513 0.479079
0.460400 0.198840 0.658211
0.109381 0.305813 0.859888
0.379686 0.303869 0.144982
0.409139 0.128271 0.711159
0.335220 0.493139 0.605988
0.165216 0.167948 0.879861
0.475836 0.184573 0.866906
0.458625 0.271912 0.561090
0.448211 0.149028 0.841745
0.422517 0.205770 0.104599
0.431629 0.035392 0.229983
0.078397 0.051556 0.251699
0.354950 0.165784 0.855648
0.128215 0.235541 0.189588
0.156898 0.141617 0.342990
0.131652 0.205389 0.926945
0.057561 0.171240 0.233610
0.069685 0.219619 0.091142
0.317550 0.144603 0.563587
0.448056 0.303277 0.202364
0.081705 0.187009 0.095857
0.400032 0.243574 0.779860
0.401771 0.190908 0.282729
0.452663 0.077829 0.833041
0.457281 0.201110 0.146661
0.120374 0.181060 0.225429
0.056166 0.244527 0.735657
0.101558 0.431976 0.425343
0.476382 0.212356 0.845827
0.165076 0.141358 0.246610
0.214579 0.167009 0.868752
0.382477 0.469765 0.422089
0.067844 0.230434 0.318046
0.057634 0.076671 0.793720
0.088915 0.369534 0.380143
0.396113 0.430899 0.673638
0.310703 0.483108 0.498185
0.425896 0.111496 0.095815
0.131102 0.469465 0.421918
0.148953 0.303867 0.776063
0.285789 0.143829 0.506590
0.118192 0.184710 0.707610
0.261533 0.152720 0.716804
0.469635 0.157131 0.084042
0.072706 0.092865 0.740170
0.165256 0.407714 0.385488
0.296575 0.144204 0.534097
0.443218 0.174939 0.091108
0.219207 0.229194 0.050928
0.065650 0.250219 0.247570
0.106426 0.452618 0.458061
0.192894 0.163223 0.827969
0.192052 0.167182 0.027066
0.399780 0.244230 0.741046
0.399765 0.191244 0.707330
0.061549 0.155975 0.310908
0.152850 0.490135 0.584074
0.304310 0.222047 0.925186
0.449066 0.256856 0.916888
0.338361 0.166607 0.915110
0.343174 0.155302 0.744450
0.095411 0.197624 0.096339
0.149217 0.488641 0.638109
0.070307 0.175354 0.428114
0.073503 0.170500 0.831245
0.462882 0.109575 0.800929
0.094384 0.394956 0.578772
0.434522 0.233729 0.813499
0.301899 0.211487 0.048001
0.132234 0.303781 0.689794
0.187718 0.156188 0.918917
0.437549 0.283141 0.084965
0.409356 0.062041 0.145219
0.384004 0.143354 0.474110
0.446192 0.340078 0.448243
0.369068 0.402377 0.678095
0.354739 0.143445 0.480166
0.439514 0.292684 0.106531
0.328251 0.491388 0.586337
0.432812 0.409801 0.580052
0.285030 0.409838 0.677629
0.409263 0.088435 0.739151
0.408938 0.083201 0.784277
0.416951 0.142566 0.417531
0.086095 0.359587 0.643449
0.103079 0.321567 0.687513
0.447708 0.318261 0.305855
0.459215 0.262354 0.629947
0.060509 0.166651 0.819788
0.381606 0.236497 0.928689
0.325960 0.141762 0.167771
0.130310 0.223884 0.820185
0.119264 0.111626 0.822402
0.433354 0.213673 0.738023
0.058020 0.053245 0.223835
0.187986 0.486539 0.540104
0.060285 0.200832 0.758499
0.100401 0.121820 0.845406
0.202373 0.387088 0.680860
0.459119 0.144278 0.165814
0.456834 0.093074 0.758247
0.194080 0.189416 0.050583
0.462523 0.191433 0.132498
0.278054 0.313242 0.156276
0.247094 0.365233 0.972603
0.230416 0.142131 0.108285
0.258530 0.160584 0.935287
0.431972 0.412768 0.528200
0.280957 0.144920 0.585832
0.275763 0.153630 0.726505
0.400206 0.220422 0.677308
0.060973 0.063151 0.697183
0.303503 0.142193 0.093583
0.121980 0.143733 0.234471
0.245833 0.239792 0.923105
0.459538 0.247131 0.621951
0.064326 0.254982 0.693175
0.058749 0.210949 0.857211
0.404911 0.235352 0.809985
0.060815 0.045296 0.729796
0.394881 0.289428 0.075604
0.422558 0.142870 0.062380
0.071298 0.105583 0.164006
0.364873 0.248158 0.057402
0.473252 0.202838 0.101297
0.100487 0.411007 0.661170
0.171475 0.477658 0.448831
0.234416 0.446342 0.407167
0.185517 0.306109 0.876585
0.472950 0.245002 0.682694
0.400962 0.177357 0.647643
0.415161 0.303373 0.713431
0.113461 0.245426 0.745602
0.419024 0.315107 0.254720
0.183237 0.304421 0.787981
0.242833 0.288217 0.920790
0.269749 0.142051 0.120082
0.319446 0.324609 0.267061
0.460336 0.247590 0.487412
0.031137 0.379285 0.405395
0.105281 0.349013 0.350179
0.470398 0.060770 0.118858
0.457358 0.111059 0.784682
0.424705 0.234757 0.196734
0.385000 0.487820 0.585276
0.406144 0.479925 0.580344
0.463271 0.160674 0.366769
0.326008 0.141309 0.246757
0.306005 0.268925 0.922905
0.445365 0.211730 0.187599
0.471628 0.117127 0.131067
0.057388 0.148883 0.249115
0.119672 0.142985 0.441644
0.432835 0.406743 0.452190
0.224688 0.141563 0.207724
0.142753 0.479244 0.477934
0.141525 0.415969 0.389792
0.056167 0.231896 0.264258
0.074015 0.149048 0.300720
0.100508 0.291492 0.081086
0.438393 0.385661 0.638401
0.174703 0.164162 0.837869
0.457714 0.277257 0.442111
0.093454 0.049025 0.125907
0.461274 0.235125 0.406026
0.214434 0.141059 0.303639
0.071388 0.254277 0.489107
0.175583 0.162414 0.819338
0.345110 0.348561 0.350099
0.181680 0.142227 0.094052
0.414755 0.472552 0.514804
0.120459 0.064972 0.235935
0.123835 0.143930 0.037785
0.059485 0.054684 0.126444
0.387760 0.360867 0.357805
0.433082 0.317931 0.768303
0.380069 0.142180 0.388729
0.402971 0.282513 0.926498
0.128362 0.199007 0.658271
0.120381 0.100283 0.749273
0.169723 0.142375 0.398326
0.202890 0.223944 0.050540
0.141762 0.342964 0.930906
0.412297 0.396919 0.678123
0.457319 0.167887 0.900443
0.070214 0.127210 0.233063
0.291856 0.145392 0.620368
0.068991 0.224756 0.525738
0.287166 0.142065 0.116743
0.248008 0.306087 0.116923
0.239439 0.323560 0.311313
0.108383 0.189864 0.044035
0.312433 0.161106 0.805897
0.452442 0.320953 0.665095
0.069945 0.279322 0.793445
0.170187 0.490707 0.585375
0.069974 0.114344 0.279326
0.310885 0.143691 0.042433
0.052414 0.204817 0.274639
0.430778 0.398611 0.691755
0.082374 0.342505 0.639502
0.424461 0.417402 0.674802
0.098739 0.366159 0.359582
0.351251 0.161301 0.808087
0.460002 0.250013 0.122303
0.467522 0.096909 0.667555
0.069243 0.222504 0.544915
0.150499 0.144184 0.529509
0.076030 0.311514 0.339032
0.461251 0.245485 0.755165
0.450791 0.046800 0.128149
0.379059 0.143119 0.456960
0.069455 0.247809 0.876698
0.092055 0.380626 0.445188
0.128227 0.284064 0.944535
0.308841 0.143402 0.476009
0.461346 0.220258 0.344256
0.421414 0.142790 0.433964
0.202021 0.303436 0.732265
0.078560 0.298956 0.264360
0.476041 0.224932 0.266474
0.386539 0.489436 0.610494
0.304373 0.489545 0.562512
0.129781 0.245885 0.751301
0.077563 0.122871 0.845495
0.137672 0.453511 0.410203
0.122155 0.098382 0.204612
0.059272 0.151710 0.267285
0.470613 0.254557 0.810479
0.471276 0.190040 0.148743
0.060247 0.250466 0.225223
0.088695 0.307190 0.182440
0.237859 0.141639 0.193788
0.288556 0.141273 0.254971
0.457723 0.293967 0.448313
0.419933 0.189623 0.096005
0.130295 0.173763 0.700911
0.459130 0.263138 0.136666
0.461436 0.204977 0.380369
0.071787 0.125281 0.170541
0.375868 0.439202 0.402188
0.430548 0.057379 0.817283
0.440440 0.370653 0.537393
0.168274 0.254655 0.056805
0.080523 0.206306 0.793496
0.098449 0.416092 0.642525
0.409422 0.151199 0.124832
0.456546 0.270717 0.116912
0.072249 0.290477 0.653979
0.080012 0.336366 0.449283
0.061732 0.172337 0.636391
0.285920 0.421063 0.393100
0.458951 0.262322 0.577537
0.330173 0.143420 0.477794
0.115287 0.069632 0.681059
0.059059 0.183144 0.717355
0.297993 0.248703 0.054203
0.321315 0.303400 0.694613
0.369855 0.270662 0.064083
0.355824 0.141435 0.223283
0.070534 0.240515 0.546005
0.319419 0.305109 0.826169
0.059798 0.173302 0.309139
0.400745 0.142397 0.404907
0.399769 0.202808 0.746798
0.307144 0.436097 0.401003
0.116769 0.042855 0.724908
0.121258 0.303460 0.703580
0.349052 0.145521 0.630979
0.130288 0.147943 0.649050
0.331009 0.305961 0.871084
0.070098 0.273107 0.862812
0.436987 0.393725 0.393600
0.057710 0.184967 0.752235
0.073581 0.300311 0.820231
0.125174 0.295301 0.095012
0.385791 0.145474 0.628381
0.061872 0.035687 0.743873
0.068917 0.259005 0.675019
0.122043 0.098880 0.225211
0.225263 0.376042 0.972662
0.187156 0.185553 0.028191
0.075170 0.204442 0.851384
0.435157 0.255561 0.064586
0.375516 0.303384 0.732006
0.074932 0.132083 0.735359
0.125991 0.221756 0.927276
0.399763 0.182560 0.730166
0.347446 0.370003 0.363690
0.128183 0.304468 0.789566
0.090657 0.231196 0.819232
0.360320 0.142611 0.419578
0.057592 0.240303 0.671664
0.204392 0.156962 0.761608
0.384318 0.306252 0.887157
0.320260 0.141094 0.284629
0.256903 0.473179 0.670480
0.411288 0.048603 0.132008
0.232049 0.141207 0.269523
0.057898 0.175799 0.787772
0.106404 0.213522 0.744710
0.083846 0.272028 0.071636
0.384017 0.167988 0.884862
0.188918 0.321338 0.224854
0.407959 0.085693 0.161814
0.168995 0.332475 0.341212
0.229427 0.357310 0.973229
0.058078 0.079006 0.147060
0.374877 0.486657 0.546956
0.069991 0.232599 0.570945
0.456815 0.296104 0.889721
0.245817 0.144187 0.531782
0.415036 0.313683 0.238097
0.401056 0.205451 0.926756
0.122035 0.150724 0.155557
0.178751 0.141083 0.293806
0.408994 0.169604 0.768610
0.457530 0.212662 0.737407
0.130294 0.171037 0.186674
0.186197 0.236470 0.926586
0.395548 0.142033 0.116726
0.130315 0.240493 0.730389
0.160527 0.141777 0.173720
0.270684 0.142985 0.444896
0.169319 0.146610 0.651717
0.442846 0.190312 0.690845
0.333280 0.142728 0.427517
0.444832 0.304559 0.674614
0.066567 0.168318 0.774747
0.413542 0.141399 0.332607
0.117461 0.196378 0.233564
0.475831 0.205298 0.662939
0.327421 0.474747 0.426462
0.432528 0.144189 0.535899
0.464265 0.161561 0.615749
0.126507 0.268459 0.927565
0.067378 0.165123 0.571197
0.162276 0.141676 0.191159
0.169504 0.489943 0.644345
0.460755 0.194269 0.494877
0.472352 0.060226 0.147121
0.419779 0.155634 0.837939
0.204980 0.377275 0.930617
0.335125 0.303396 0.728866
0.360199 0.163290 0.829213
0.422626 0.190861 0.282752
0.140540 0.305279 0.832324
0.369160 0.301564 0.918233
0.393591 0.141431 0.222031
0.061894 0.148612 0.362223
0.222230 0.142021 0.127883
0.341431 0.272492 0.924764
0.304870 0.412092 0.387759
0.094628 0.198873 0.234118
0.468047 0.144606 0.100948
0.326581 0.141323 0.325239
0.203836 0.336427 0.685603
0.074314 0.170440 0.294778
0.229987 0.257567 0.972602
0.478223 0.241699 0.801847
0.414527 0.212642 0.746104
0.407904 0.133791 0.159995
0.170731 0.277109 0.973062
0.152303 0.142268 0.390227
0.201215 0.178189 0.938143
0.260741 0.144218 0.032451
0.311191 0.303403 0.740871
0.169894 0.298940 0.081798
0.184764 0.303441 0.740008
0.314293 0.257062 0.055756
0.453230 0.311282 0.633649
0.058907 0.124755 0.132042
0.210544 0.142133 0.108887
0.121091 0.169415 0.773253
0.077316 0.316169 0.619981
0.080506 0.140135 0.278385
0.306463 0.156240 0.754276
0.201793 0.309937 0.145235
0.458422 0.113572 0.166380
0.122584 0.304239 0.956374
0.067480 0.201871 0.910485
0.365246 0.167168 0.871213
0.418975 0.191653 0.058341
0.333828 0.489622 0.568923
0.078796 0.143000 0.441819
0.242864 0.311094 0.146075
0.064812 0.094900 0.796019
0.311915 0.142135 0.383984
0.319020 0.303401 0.757648
0.472193 0.200549 0.905307
0.463936 0.161237 0.531409
0.130299 0.185698 0.109934
0.283391 0.342340 0.942596
0.173597 0.151972 0.708594
0.087041 0.313572 0.250901
0.083232 0.129591 0.095559
0.158815 0.385937 0.954706
0.072588 0.307093 0.487747
0.368005 0.363954 0.359924
0.381770 0.303383 0.758696
0.222357 0.143608 0.489170
0.084776 0.346393 0.549017
0.076249 0.289315 0.299225
0.088513 0.230057 0.227116
0.057408 0.088456 0.704715
0.224216 0.304762 0.806516
0.306251 0.451661 0.409881
0.144837 0.323549 0.314117
0.107923 0.058652 0.817228
0.298903 0.334409 0.686280
0.095305 0.166981 0.863800
0.458038 0.277478 0.517259
0.073671 0.190614 0.282957
0.364052 0.151419 0.703330
0.130299 0.187481 0.807896
0.092997 0.201644 0.660597
0.476801 0.227391 0.835405
0.430825 0.424963 0.615784
0.127984 0.284759 0.962469
0.235835 0.141942 0.368331
0.227911 0.159902 0.792862
0.427944 0.311592 0.688893
0.460812 0.179074 0.416123
0.081201 0.033085 0.224571
0.387392 0.318145 0.245154
0.202761 0.143654 0.492081
0.434167 0.234147 0.172732
0.261260 0.304762 0.807102
0.287156 0.323596 0.945069
0.158114 0.143967 0.513860
0.215242 0.144880 0.581509
0.292358 0.303409 0.737498
0.452335 0.325750 0.457903
0.058880 0.189644 0.083064
0.455537 0.180807 0.119863
0.399764 0.188093 0.112197
0.303856 0.251450 0.923678
0.231388 0.303427 0.765458
0.070145 0.178451 0.460933
0.109209 0.213294 0.761830
0.072358 0.272736 0.386351
0.085290 0.188051 0.249321
0.130294 0.168644 0.684213
0.187485 0.235639 0.052831
0.098839 0.417454 0.591658
0.471985 0.107537 0.243489
0.090933 0.186905 0.285128
0.101034 0.409299 0.681998
0.296890 0.142663 0.422071
0.405026 0.149311 0.080930
0.071730 0.282066 0.633584
0.111240 0.166976 0.875339
0.091443 0.279926 0.094625
0.295965 0.323896 0.279788
0.111914 0.227866 0.826468
0.130297 0.180375 0.841962
0.349980 0.479038 0.461382
0.071145 0.214148 0.756262
0.167396 0.141975 0.369221
0.202364 0.332518 0.341155
0.116504 0.069958 0.111277
0.418867 0.027515 0.179778
0.114281 0.211823 0.266856
0.453374 0.301157 0.300432
0.213114 0.299493 0.081402
0.307559 0.493104 0.640281
0.057217 0.127128 0.244397
0.117249 0.205748 0.104471
0.226888 0.324717 0.323934
0.153869 0.306340 0.689465
0.341772 0.187344 0.938759
0.459412 0.248123 0.604871
0.287303 0.318830 0.193595
0.084903 0.202971 0.933278
0.300121 0.149887 0.686880
0.145547 0.141946 0.366667
0.099453 0.433636 0.398777
0.121997 0.138451 0.141269
0.424176 0.457304 0.620712
0.437330 0.103679 0.843868
0.070589 0.259852 0.625554
0.112619 0.395992 0.377928
0.271530 0.168544 0.887403
0.460314 0.251522 0.307706
0.197545 0.292262 0.074286
0.448390 0.336283 0.581061
0.433781 0.268432 0.922253
0.338764 0.310150 0.145951
0.117772 0.220985 0.251655
0.237852 0.133927 0.931644
0.207514 0.146649 0.652252
0.106661 0.167294 0.296616
0.339356 0.425232 0.675603
0.374576 0.285434 0.072412
0.341997 0.143169 0.459773
0.460120 0.249172 0.505919
0.205342 0.145134 0.599734
0.059797 0.108985 0.242226
0.445154 0.313445 0.251458
0.313276 0.142448 0.406762
0.154698 0.485267 0.532237
0.228599 0.484447 0.669586
0.284382 0.199288 0.937993
0.438692 0.322878 0.752977
0.401661 0.306323 0.891168
0.451537 0.305514 0.269788
0.441741 0.305319 0.842664
0.071614 0.093125 0.779193
0.350741 0.317113 0.688262
0.399763 0.185026 0.227974
0.379206 0.481342 0.492822
0.214425 0.340976 0.929348
0.126736 0.309226 0.187600
0.315907 0.141480 0.217471
0.282453 0.142191 0.095040
0.454691 0.142527 0.301307
0.051666 0.222843 0.126883
0.209377 0.303433 0.754437
0.175595 0.492163 0.660810
0.333729 0.324920 0.256255
0.213880 0.399145 0.952293
0.470943 0.173292 0.123071
0.164055 0.305621 0.850643
0.120499 0.187489 0.208198
0.143443 0.320391 0.930654
0.146741 0.204328 0.053254
0.265753 0.306285 0.887056
0.070557 0.080210 0.176523
0.370949 0.483265 0.509919
0.274879 0.330151 0.931037
0.342528 0.149028 0.677912
0.308230 0.318948 0.199350
0.436442 0.195656 0.059486
0.465872 0.201571 0.636330
0.161128 0.186932 0.030007
0.415189 0.097248 0.276391
0.282148 0.489225 0.556440
0.151916 0.145646 0.635822
0.118375 0.146297 0.825296
0.099556 0.303636 0.918231
0.469766 0.141084 0.310934
0.464142 0.170885 0.035219
0.115323 0.177493 0.030625
0.423579 0.057411 0.118868
0.445196 0.162501 0.031888
0.068942 0.194588 0.545792
0.445501 0.280981 0.160227
0.095503 0.068362 0.827670
0.071426 0.293817 0.741520
0.119867 0.087707 0.698067
0.276237 0.296763 0.076837
0.409902 0.191994 0.170594
0.062338 0.243321 0.839936
0.232844 0.307987 0.689251
0.119270 0.035003 0.189779
0.206251 0.321699 0.224612
0.062875 0.128402 0.097580
0.453573 0.145372 0.622350
0.460799 0.234585 0.178498
0.167244 0.242812 0.927313
0.070731 0.103402 0.221441
0.369221 0.422612 0.392789
0.313477 0.363777 0.682911
0.111291 0.279527 0.927980
0.471467 0.172298 0.304318
0.141153 0.142709 0.068550
0.354835 0.144963 0.590511
0.119982 0.128278 0.758700
0.332557 0.304538 0.796416
0.415744 0.174735 0.827370
0.405054 0.234274 0.174263
0.137590 0.142058 0.125850
0.424951 0.446933 0.488028
0.078209 0.325697 0.348660
0.397362 0.142093 0.382777
0.375228 0.141311 0.243947
0.399769 0.203742 0.790260
0.109260 0.145016 0.589121
0.317020 0.305729 0.858698
0.230766 0.304468 0.929451
0.073306 0.291197 0.396238
0.141686 0.159423 0.787505
0.451480 0.066691 0.680954
0.219727 0.270064 0.923003
0.460616 0.258776 0.220048
0.461295 0.205388 0.588021
0.409247 0.151352 0.780103
0.443953 0.165629 0.644358
0.452611 0.083480 0.670628
0.106407 0.303464 0.719342
0.411023 0.200627 0.212300
0.399758 0.168419 0.235827
0.296588 0.119285 0.930191
0.460473 0.191282 0.541858
0.468387 0.176594 0.936109
0.442695 0.303988 0.798296
0.399769 0.204015 0.765137
0.456813 0.312467 0.566869
0.160613 0.143312 0.466271
0.372275 0.423464 0.675315
0.410380 0.185578 0.144848
0.174238 0.143466 0.477777
0.117096 0.142593 0.413075
0.449480 0.294522 0.221292
0.290169 0.395920 0.379171
0.452479 0.321156 0.589768
0.452366 0.320142 0.346382
0.252210 0.324866 0.324991
0.121650 0.305527 0.845072
0.465211 0.129131 0.178295
0.308640 0.186144 0.029826
0.457679 0.282956 0.544835
0.093423 0.388895 0.519024
0.328610 0.142329 0.398434
0.346545 0.487871 0.553029
0.108130 0.235681 0.191319
0.442698 0.357491 0.447947
0.229177 0.331012 0.929435
0.462098 0.216427 0.440055
0.051030 0.235807 0.174944
0.331697 0.141168 0.271084
0.390309 0.143572 0.490101
0.219668 0.141875 0.153530
0.164090 0.368666 0.363225
0.262643 0.160130 0.795385
0.138854 0.154218 0.732300
0.059912 0.252953 0.174036
0.353599 0.324576 0.260333
0.335265 0.143900 0.512808
0.430797 0.210168 0.174728
0.399763 0.182893 0.839271
0.475050 0.185179 0.916815
0.471871 0.104325 0.262072
0.069906 0.224614 0.131549
0.461785 0.209787 0.506990
0.458488 0.252243 0.897777
0.072187 0.295136 0.461443
0.233518 0.188751 0.047070
0.346563 0.255856 0.925913
0.061680 0.215368 0.292713
0.227407 0.207532 0.047846
0.466065 0.233097 0.848164
0.091206 0.228330 0.060284
0.094339 0.144146 0.525530
0.072194 0.276967 0.317123
0.104330 0.305376 0.836852
0.312116 0.322466 0.687650
0.368174 0.321292 0.687782
0.075308 0.109720 0.741636
0.183802 0.255741 0.925731
0.061666 0.046660 0.794763
0.446196 0.349952 0.652326
0.076439 0.306089 0.639559
0.175555 0.296076 0.973674
0.409128 0.053034 0.207268
0.461793 0.240684 0.864495
0.432306 0.410642 0.509205
0.458361 0.276795 0.246837
0.082989 0.169848 0.644821
0.091488 0.161495 0.669611
0.399778 0.233308 0.190407
0.063456 0.183747 0.039659
0.181412 0.158461 0.777433
0.180530 0.323252 0.243081
0.172490 0.205558 0.925885
0.165945 0.437104 0.675535
0.148853 0.251076 0.927910
0.441788 0.242123 0.795227
0.171062 0.143777 0.500348
0.353006 0.324264 0.321439
0.208513 0.348991 0.973792
0.189056 0.484604 0.519774
0.069360 0.112700 0.140358
0.471258 0.156332 0.260041
0.469532 0.128006 0.807762
0.361480 0.142263 0.078395
0.380078 0.304209 0.780958
0.154721 0.184934 0.939165
0.295545 0.283882 0.921535
0.436129 0.142937 0.444902
0.342446 0.159935 0.793573
0.413324 0.037689 0.229305
0.388460 0.298341 0.111060
0.447340 0.027250 0.167758
0.239368 0.303425 0.704606
0.222017 0.333122 0.341432
0.102610 0.205466 0.793974
0.296930 0.180917 0.938267
0.182202 0.353067 0.683468
0.250401 0.145498 0.627217
0.062144 0.128302 0.664016
0.418048 0.142003 0.376666
0.252472 0.143202 0.055227
0.055722 0.182875 0.293710
0.061843 0.189618 0.652157
0.189884 0.156054 0.751932
0.262328 0.143498 0.481994
0.233818 0.349633 0.930012
0.392912 0.221373 0.927223
0.454051 0.301653 0.649509
0.284262 0.339853 0.963904
0.302285 0.411871 0.677395
0.337012 0.219752 0.050213
0.282541 0.210659 0.924508
0.108967 0.167612 0.897867
0.362093 0.142060 0.113844
0.309655 0.304466 0.792302
0.065797 0.142251 0.387086
0.058892 0.144735 0.069967
0.460773 0.240859 0.471711
0.410517 0.152432 0.815466
0.317249 0.143177 0.459871
0.385347 0.144634 0.567266
0.073414 0.168875 0.264622
0.074967 0.313613 0.381550
0.408911 0.068525 0.773814
0.410212 0.118349 0.108911
0.332976 0.303397 0.745887
0.412273 0.142846 0.676594
0.178152 0.324643 0.263067
0.106880 0.141860 0.359530
0.068242 0.190826 0.439795
0.464256 0.129194 0.843605
0.424645 0.449598 0.535769
0.373603 0.321589 0.234344
0.211497 0.264364 0.973028
0.052556 0.219156 0.840131
0.253549 0.293929 0.073861
0.446594 0.209463 0.167486
0.211422 0.141273 0.259045
0.107275 0.056806 0.119721
0.279019 0.477942 0.443555
0.458162 0.235809 0.902496
0.154374 0.162561 0.820826
0.151000 0.476311 0.439322
0.145174 0.302210 0.133930
0.070401 0.170138 0.364305
0.377210 0.301574 0.128293
0.265476 0.142656 0.068957
0.271863 0.143286 0.466817
0.254005 0.170824 0.914740
0.459645 0.122821 0.706718
0.057666 0.136098 0.118750
0.460995 0.239644 0.432572
0.276425 0.358148 0.957568
0.065455 0.158840 0.789305
0.076689 0.047665 0.702158
0.461992 0.103690 0.277883
0.101374 0.431140 0.447123
0.082175 0.027343 0.167892
0.467873 0.150347 0.455996
0.056648 0.251003 0.205194
0.243741 0.485020 0.516560
0.461217 0.222757 0.523603
0.092624 0.084441 0.837386
0.199793 0.305101 0.823938
0.471419 0.174784 0.797170
0.457957 0.287773 0.638690
0.320199 0.152748 0.934295
0.458646 0.096818 0.173633
0.434207 0.114352 0.662099
0.116676 0.233065 0.208025
0.080084 0.142084 0.375245
0.247960 0.488655 0.552093
0.098359 0.034064 0.730815
0.091953 0.399346 0.378246
0.452123 0.322590 0.646784
0.146525 0.201149 0.935404
0.415270 0.037867 0.724776
0.405589 0.262158 0.928884
0.451015 0.312054 0.285853
0.293238 0.320617 0.211275
0.191981 0.377195 0.972711
0.100527 0.208401 0.164585
0.092883 0.210994 0.180150
0.385090 0.396232 0.678638
0.158532 0.339906 0.930286
0.451013 0.044392 0.706746
0.058784 0.098026 0.689825
0.413421 0.305820 0.864962
0.408587 0.172196 0.219825
0.328217 0.317898 0.194213
0.056950 0.112090 0.196926
0.061791 0.027804 0.184090
0.071111 0.269040 0.208278
0.381513 0.142226 0.083817
0.282828 0.387953 0.680139
0.199976 0.354650 0.683320
0.473333 0.167388 0.889965
0.143750 0.141240 0.315249
0.321041 0.134974 0.915110
0.130294 0.169879 0.136285
0.399769 0.204645 0.825782
0.442259 0.362253 0.568018
0.099220 0.206478 0.058512
0.408797 0.069450 0.230603
0.438027 0.163380 0.268966
0.147494 0.306678 0.916168
0.137675 0.483628 0.670801
0.132064 0.357198 0.948019
0.264998 0.489831 0.560859
0.470311 0.153477 0.821690
0.444011 0.370891 0.362525
0.461247 0.199121 0.360133
0.469872 0.051428 0.781746
0.371296 0.302110 0.111908
0.186309 0.141684 0.188545
0.409673 0.143267 0.762487
0.148331 0.362665 0.682238
0.241727 0.444814 0.673947
0.439189 0.214586 0.114587
0.111803 0.141812 0.301382
0.338668 0.485230 0.523902
0.149231 0.143653 0.044618
0.130305 0.206361 0.727538
0.290932 0.314974 0.167766
0.063547 0.121671 0.805725
0.315595 0.316800 0.182473
0.149315 0.469399 0.672366
0.142412 0.144477 0.550645
0.094303 0.183665 0.649951
0.461923 0.186964 0.327566
0.399755 0.159943 0.274626
0.156643 0.422697 0.393878
0.102216 0.436403 0.636228
0.104979 0.137426 0.663671
0.265153 0.141428 0.331568
0.094871 0.339197 0.671677
0.405578 0.143250 0.467047
0.320879 0.143012 0.059540
0.239129 0.184050 0.028341
0.203561 0.318503 0.197947
0.399774 0.221142 0.135471
0.461140 0.270466 0.801494
0.320879 0.146127 0.647071
0.242479 0.142411 0.402576
0.462224 0.217867 0.323476
0.356055 0.141752 0.167819
0.374235 0.457666 0.412667
0.448821 0.338074 0.514613
0.120479 0.133618 0.728981
0.130309 0.222260 0.202960
0.458007 0.297748 0.469688
0.425712 0.111219 0.279485
0.246077 0.143431 0.476768
0.069595 0.239148 0.422603
0.189554 0.200797 0.935550
0.113240 0.168483 0.915950
0.135915 0.481259 0.517680
0.216163 0.158122 0.773947
0.130307 0.211992 0.688691
0.304796 0.141244 0.319059
0.077330 0.321664 0.496098
0.388525 0.166514 0.863496
0.074186 0.268794 0.086280
0.370132 0.147145 0.658030
0.121566 0.061181 0.209942
0.089809 0.136725 0.844535
0.308914 0.141321 0.245560
0.067077 0.229214 0.858424
0.424337 0.150033 0.642831
0.409542 0.085024 0.251751
0.363792 0.141161 0.314289
0.454965 0.301561 0.729940
0.399758 0.168223 0.252831
0.458662 0.287897 0.688335
0.125129 0.142353 0.395778
0.257453 0.453177 0.672767
0.217073 0.141950 0.368475
0.071535 0.259767 0.437254
0.179769 0.471720 0.671733
0.127795 0.305986 0.869270
0.458190 0.189888 0.096017
0.406544 0.305171 0.830753
0.181198 0.384016 0.931027
0.461115 0.075113 0.754624
0.094124 0.232270 0.695711
0.227705 0.145125 0.599557
0.172339 0.390204 0.679303
0.130304 0.204238 0.203002
0.479263 0.245334 0.737273
0.191753 0.354624 0.973513
0.224733 0.161673 0.811627
0.124103 0.405677 0.676512
0.156023 0.492005 0.657828
0.241907 0.143670 0.494101
0.195708 0.271683 0.064082
0.148114 0.141086 0.294981
0.426281 0.441272 0.640230
0.301440 0.166221 0.860110
0.459483 0.254956 0.397803
0.151299 0.232162 0.928378
0.276692 0.406857 0.385477
0.207257 0.141812 0.165164
0.459950 0.176165 0.472428
0.225373 0.305919 0.867237
0.411523 0.048361 0.757185
0.375810 0.476232 0.437961
0.373189 0.489790 0.647353
0.091580 0.195229 0.135438
0.169596 0.188898 0.045623
0.409030 0.172068 0.785968
0.245125 0.250664 0.054271
0.057443 0.109174 0.119457
0.072870 0.291362 0.596261
0.377791 0.479647 0.474418
0.303122 0.303406 0.696479
0.471962 0.131408 0.113957
0.120997 0.135614 0.252691
0.270759 0.142074 0.378626
0.460231 0.238840 0.555045
0.397676 0.142639 0.422472
0.174081 0.272167 0.930389
0.120563 0.067435 0.138345
0.422055 0.231330 0.928886
0.439120 0.395809 0.375588
0.110864 0.230461 0.224517
0.176795 0.272186 0.064728
0.399073 0.320682 0.304509
0.468816 0.074420 0.155804
0.098713 0.416349 0.569166
0.391366 0.193046 0.938529
0.455399 0.309493 0.608412
0.120555 0.240067 0.929722
0.267987 0.269418 0.968329
0.060637 0.150358 0.103100
0.200206 0.316620 0.928537
0.274284 0.474935 0.670163
0.361734 0.485811 0.534377
0.325194 0.339529 0.344740
0.460609 0.164233 0.108475
0.461497 0.196885 0.617013
0.339302 0.236151 0.926453
0.068667 0.239625 0.640243
0.083814 0.343181 0.582333
0.226527 0.378147 0.369672
0.255955 0.303420 0.690118
0.074769 0.096598 0.277641
0.372441 0.141804 0.157930
0.284368 0.168931 0.936409
0.471992 0.112859 0.113447
0.225783 0.252865 0.923548
0.244012 0.146413 0.025459
0.164834 0.378635 0.931114
0.076058 0.072000 0.829147
0.165905 0.303446 0.701709
0.228536 0.277831 0.973294
0.214022 0.143384 0.472709
0.071977 0.266928 0.523622
0.468452 0.171284 0.824915
0.355859 0.150019 0.688459
0.473749 0.192197 0.649139
0.412243 0.198395 0.777185
0.070727 0.125786 0.151209
0.179186 0.333024 0.929498
0.199507 0.490274 0.576695
0.324512 0.150628 0.694818
0.229362 0.472657 0.423447
0.222821 0.143507 0.047748
0.247187 0.347888 0.973038
0.409697 0.089918 0.119809
0.406735 0.211203 0.059286
0.399763 0.186615 0.259553
0.113924 0.181251 0.093575
0.357812 0.288478 0.923573
0.185272 0.303440 0.759240
0.277496 0.144381 0.546531
0.186305 0.216766 0.926012
0.060040 0.091985 0.823580
0.306465 0.324632 0.323903
0.423699 0.144506 0.558761
0.127398 0.151467 0.300497
0.357998 0.210145 0.049523
0.086925 0.298158 0.144597
0.457467 0.287413 0.616756
0.411329 0.085653 0.690446
0.156615 0.142994 0.061228
0.461918 0.229850 0.821922
0.304526 0.492048 0.588722
0.130296 0.177279 0.823817
0.411335 0.059182 0.789924
0.411794 0.303374 0.744891
0.075635 0.037986 0.720951
0.068513 0.230627 0.875749
0.437065 0.389833 0.601506
0.428256 0.414546 0.658241
0.444785 0.342630 0.347196
0.259614 0.478345 0.447191
0.271080 0.324449 0.278862
0.283673 0.212510 0.047595
0.465158 0.126981 0.097181
0.068805 0.225551 0.626480
0.072863 0.298388 0.802497
0.418270 0.144057 0.525984
0.182079 0.240631 0.967958
0.446126 0.190207 0.041413
0.459792 0.177908 0.489801
0.270251 0.141461 0.223047
0.399760 0.173608 0.702718
0.246602 0.418885 0.392169
0.173228 0.156901 0.760865
0.178761 0.312142 0.929350
0.080146 0.032943 0.151209
0.472520 0.108040 0.698672
0.093470 0.303468 0.758494
0.130292 0.164074 0.744781
0.102694 0.313193 0.240720
0.367803 0.144166 0.532826
0.234051 0.407136 0.385585
0.407985 0.133090 0.228255
0.420354 0.243908 0.775505
0.145715 0.323663 0.272027
0.205054 0.141938 0.143257
0.250973 0.188860 0.047711
0.268458 0.305161 0.828105
0.459713 0.250321 0.373879
0.199863 0.159108 0.784348
0.148737 0.223345 0.064637
0.433635 0.363687 0.665657
0.452497 0.282509 0.909654
0.144390 0.143757 0.498316
0.256414 0.292897 0.930495
0.472419 0.184470 0.754439
0.082964 0.350219 0.351394
0.458628 0.263761 0.612358
0.154171 0.157374 0.765820
0.058012 0.044250 0.181816
0.462117 0.186035 0.344841
0.408438 0.174371 0.861577
0.198885 0.432174 0.676000
0.091192 0.142394 0.398058
0.070045 0.283046 0.758546
0.323713 0.154517 0.736058
0.119792 0.042056 0.206173
0.152256 0.141262 0.263926
0.089660 0.161681 0.299563
0.417257 0.206090 0.162929
0.294302 0.143145 0.457042
0.070859 0.308098 0.565264
0.155807 0.478562 0.461337
0.096514 0.412679 0.609885
0.472098 0.233548 0.666023
0.436082 0.391827 0.511700
0.439821 0.374746 0.580433
0.073954 0.277104 0.173215
0.404541 0.144511 0.558668
0.289665 0.141760 0.356233
0.385166 0.410882 0.385968
0.254908 0.145270 0.610722
0.058782 0.170489 0.250773
0.397919 0.303378 0.707152
0.242579 0.486797 0.534496
0.059533 0.199208 0.150560
0.458682 0.275150 0.229340
0.096843 0.327653 0.759203
0.342384 0.157386 0.766545
0.324719 0.169174 0.895157
0.059448 0.033711 0.163151
0.429557 0.426249 0.632810
0.103720 0.304565 0.794304
0.052290 0.236744 0.807184
0.233405 0.240766 0.937283
0.414406 0.245353 0.757028
0.068362 0.192894 0.411850
0.438556 0.029777 0.215400
0.261555 0.487455 0.537753
0.443756 0.353038 0.486442
0.078689 0.211523 0.057816
0.258822 0.150934 0.915110
0.081828 0.032405 0.739104
0.042355 0.358883 0.396646
0.242745 0.141114 0.285186
0.109862 0.317033 0.277787
0.085757 0.204329 0.152111
0.209071 0.324795 0.325145
0.358215 0.451036 0.409083
0.361027 0.488798 0.565493
0.070923 0.246382 0.527587
0.071157 0.257239 0.414305
0.432694 0.406994 0.431048
0.188328 0.456797 0.673324
0.407950 0.109768 0.226151
0.068088 0.183552 0.686112
0.444804 0.244287 0.734300
0.252194 0.305947 0.869127
0.188885 0.364449 0.930244
0.409803 0.110613 0.690863
0.282244 0.160710 0.801601
0.071288 0.268441 0.228143
0.203219 0.288063 0.923060
0.206946 0.325085 0.255492
0.108487 0.464768 0.543343
0.461108 0.229518 0.497947
0.060931 0.065143 0.175586
0.277135 0.306469 0.901191
0.235822 0.489635 0.563985
0.121153 0.161001 0.790286
0.219621 0.347707 0.349945
0.388201 0.375290 0.681300
0.413780 0.304526 0.797028
0.184418 0.316910 0.188362
0.450844 0.129460 0.662173
0.290078 0.310724 0.143005
0.153881 0.303450 0.749733
0.409273 0.104490 0.785833
0.078360 0.324215 0.644530
0.213374 0.484291 0.514193
0.114105 0.361620 0.682374
0.074123 0.295072 0.621108
0.238604 0.321343 0.216002
0.130542 0.303552 0.772254
0.199501 0.139920 0.933027
0.264870 0.305617 0.851982
0.307405 0.151376 0.702701
0.153514 0.251027 0.947885
0.385900 0.141716 0.172597
0.090665 0.181074 0.825623
0.115434 0.145247 0.606006
0.409020 0.167688 0.736250
0.070753 0.276776 0.666307
0.268664 0.494457 0.607336
0.073378 0.296532 0.703317
0.384848 0.491133 0.661551
0.409396 0.155159 0.247718
0.345133 0.304778 0.809195
0.430196 0.303368 0.703742
0.071143 0.253175 0.559832
0.330035 0.143719 0.041579
0.215719 0.427883 0.676255
0.364327 0.303388 0.708192
0.201717 0.144441 0.549265
0.072954 0.283308 0.484849
0.107505 0.461701 0.575671
0.404556 0.148708 0.028970
0.263137 0.145000 0.591265
0.104855 0.448873 0.420053
0.401378 0.322464 0.325739
0.274086 0.141588 0.200679
0.101638 0.382934 0.369222
0.226530 0.142872 0.435708
0.294828 0.154576 0.736592
0.462246 0.113054 0.663759
0.304413 0.325576 0.257180
0.436671 0.388401 0.488597
0.398302 0.480204 0.559768
0.133357 0.364047 0.360032
0.473089 0.097221 0.127371
0.197424 0.141493 0.221240
0.413521 0.089095 0.834003
0.071000 0.256933 0.394730
0.063362 0.040604 0.141131
0.076002 0.144357 0.540448
0.415837 0.210739 0.668737
0.263524 0.149862 0.686501
0.423470 0.457313 0.602894
0.277504 0.321733 0.217978
0.266014 0.492666 0.589210
0.398172 0.149584 0.683981
0.081350 0.102544 0.843579
0.399769 0.203613 0.143932
0.056651 0.169780 0.154420
0.442486 0.359713 0.502625
0.223083 0.144535 0.028858
0.092578 0.212009 0.729201
0.181810 0.419963 0.677492
0.322346 0.129195 0.932114
0.072617 0.274237 0.405268
0.225550 0.146961 0.655619
0.423037 0.457687 0.472420
0.258242 0.276865 0.920517
0.393993 0.142135 0.099039
0.212880 0.454874 0.411660
0.181352 0.179659 0.938467
0.113108 0.210394 0.847259
0.110602 0.307624 0.179776
0.343823 0.318694 0.204988
0.119037 0.176940 0.124814
0.281674 0.322668 0.687627
0.210285 0.141471 0.333519
0.130299 0.185678 0.177569
0.120617 0.148383 0.773329
0.399747 0.437611 0.401079
0.458022 0.290324 0.662333
0.459500 0.172145 0.432516
0.432314 0.067338 0.680304
0.128560 0.168138 0.899946
0.211560 0.143945 0.513392
0.297459 0.141603 0.196971
0.114478 0.244640 0.767300
0.184028 0.142631 0.417299
0.122068 0.126705 0.226798
0.368559 0.490937 0.589431
0.078179 0.326165 0.572134
0.470326 0.142712 0.429312
0.224822 0.310787 0.146850
0.120885 0.082837 0.768897
0.399759 0.168944 0.679507
0.358045 0.302024 0.099962
0.238713 0.418895 0.676962
0.399771 0.209869 0.118062
0.174288 0.142709 0.068282
0.228065 0.141736 0.353133
0.077281 0.129690 0.753861
0.451741 0.197003 0.807756
0.459207 0.261954 0.546349
0.130304 0.201154 0.706582
0.174871 0.142075 0.120808
0.125266 0.487040 0.626013
0.277753 0.141081 0.289115
0.299460 0.143635 0.492799
0.444323 0.124186 0.845925
0.191402 0.143841 0.505455
0.138420 0.305603 0.849308
0.411454 0.165171 0.692638
0.460607 0.179051 0.609495
0.309760 0.141928 0.139595
0.120971 0.109284 0.797647
0.408847 0.162724 0.716070
0.465367 0.168292 0.174737
0.416605 0.329603 0.686766
0.058951 0.201402 0.192318
0.175603 0.360354 0.973052
0.094231 0.396797 0.642685
0.092935 0.144679 0.301120
0.300958 0.141038 0.295469
0.459859 0.219267 0.898742
0.104649 0.294428 0.097555
0.283943 0.160741 0.026801
0.057980 0.183788 0.735277
0.461167 0.272996 0.749694
0.131833 0.145160 0.600067
0.063691 0.076141 0.776205
0.396450 0.142718 0.066402
0.461146 0.236562 0.449474
0.102108 0.433003 0.555881
0.326774 0.305435 0.843406
0.392037 0.303379 0.743429
0.386271 0.321815 0.263677
0.402530 0.167893 0.887473
0.290503 0.232114 0.923900
0.413961 0.306646 0.904667
0.468110 0.058081 0.813064
0.469923 0.212976 0.648566
0.071202 0.146997 0.183458
0.408037 0.066115 0.175116
0.404021 0.169081 0.030308
0.327137 0.144928 0.587421
0.408090 0.301701 0.141541
0.409987 0.293772 0.089103
0.090911 0.377529 0.574036
0.269339 0.145427 0.622448
0.168499 0.141983 0.137208
0.359416 0.143045 0.058411
0.463650 0.186462 0.817755
0.070367 0.278800 0.707011
0.097590 0.218381 0.675421
0.143270 0.372716 0.943317
0.449525 0.301983 0.695602
0.452457 0.302493 0.747047
0.448025 0.090063 0.099283
0.244550 0.149754 0.685303
0.390247 0.306752 0.906333
0.158074 0.371183 0.972343
0.180285 0.306426 0.894343
0.099179 0.425922 0.622736
0.300570 0.322532 0.230451
0.079711 0.330460 0.665161
0.291437 0.156012 0.915110
0.112008 0.303729 0.774289
0.288733 0.141472 0.220312
0.165684 0.208360 0.049688
0.193224 0.345123 0.929511
0.112456 0.208984 0.197122
0.068893 0.208931 0.890154
0.260370 0.255474 0.942031
0.458943 0.300323 0.522855
0.124707 0.141901 0.362951
0.386381 0.426735 0.394993
0.130293 0.166245 0.153545
0.098943 0.143852 0.504209
0.409038 0.077018 0.756562
0.281098 0.343939 0.685188
0.103950 0.037397 0.784105
0.178152 0.483253 0.506692
0.425578 0.168925 0.644680
0.297297 0.353335 0.684109
0.363509 0.304317 0.785282
0.459988 0.169193 0.515994
0.152918 0.273092 0.930889
0.252531 0.480264 0.467571
0.061741 0.204055 0.721654
0.122255 0.130814 0.182159
0.316950 0.308963 0.135518
0.151384 0.145186 0.602369
0.470191 0.093960 0.684304
0.072814 0.293851 0.874183
0.410382 0.072823 0.121789
0.159819 0.144769 0.572241
0.121957 0.079785 0.224773
0.271719 0.141831 0.361025
0.348603 0.299505 0.084296
0.383622 0.289730 0.923483
0.065153 0.201177 0.928133
0.417748 0.143806 0.507727
0.472372 0.188038 0.203073
0.405883 0.483833 0.661737
0.415266 0.475016 0.650408
0.459120 0.272998 0.203233
0.276500 0.147636 0.915110
0.092455 0.222513 0.834385
0.071277 0.140248 0.204655
0.156193 0.342775 0.346840
0.068810 0.230666 0.336044
0.453946 0.167371 0.880407
0.077568 0.248437 0.914072
0.247882 0.303422 0.745996
0.178605 0.481254 0.485745
0.257083 0.331592 0.930406
0.150760 0.147051 0.656343
0.121968 0.103846 0.136658
0.424176 0.216691 0.258628
0.415261 0.104670 0.841985
0.070425 0.220483 0.070384
0.321667 0.142203 0.090939
0.100313 0.026375 0.178624
0.328082 0.145526 0.630888
0.088888 0.366185 0.514940
0.291683 0.142355 0.076365
0.255624 0.178548 0.937799
0.338147 0.142700 0.067286
0.168218 0.315412 0.973649
0.121032 0.134750 0.706470
0.472088 0.084315 0.252952
0.320265 0.485894 0.527339
0.468903 0.163294 0.053538
0.134841 0.144054 0.519669
0.411312 0.145102 0.601795
0.078577 0.235297 0.186245
0.299307 0.450927 0.672907
0.084843 0.232367 0.920132
0.407921 0.151736 0.185481
0.360584 0.305064 0.824430
0.442349 0.244824 0.763701
0.276229 0.303414 0.691260
0.061058 0.149280 0.574812
0.194872 0.143410 0.474126
0.113340 0.467574 0.438145
0.120887 0.149787 0.720205
0.445214 0.219860 0.253360
0.281279 0.244752 0.053098
0.139542 0.141617 0.202673
0.182529 0.147944 0.026719
0.115559 0.123383 0.663180
0.068303 0.255634 0.857057
0.412700 0.470193 0.438353
0.424841 0.304984 0.821249
0.207715 0.141756 0.354186
0.130302 0.198052 0.122100
0.461748 0.071888 0.173515
0.404140 0.213932 0.844505
0.461889 0.214067 0.476411
0.194880 0.268955 0.924439
0.068839 0.202492 0.501002
0.215637 0.493674 0.656683
0.135782 0.354106 0.969153
0.410991 0.143565 0.490066
0.072628 0.296146 0.838824
0.099141 0.243918 0.776601
0.409267 0.130307 0.693708
0.123745 0.321078 0.312314
0.290353 0.168757 0.890033
0.458378 0.098025 0.193109
0.177014 0.322991 0.293525
0.119364 0.044413 0.224538
0.397532 0.141922 0.136097
0.409353 0.093786 0.770824
0.184954 0.144338 0.541423
0.350209 0.141166 0.270413
0.470318 0.180453 0.288843
0.135334 0.303455 0.755611
0.130303 0.199195 0.743679
0.170053 0.155330 0.744195
0.216836 0.349355 0.684285
0.101579 0.431817 0.525618
0.116641 0.449464 0.407757
0.401192 0.144021 0.522966
0.399773 0.218835 0.738410
0.460310 0.167944 0.455191
0.072589 0.281544 0.556893
0.378582 0.140995 0.298926
0.399773 0.218017 0.776047
0.091473 0.234638 0.198113
0.458622 0.367922 0.391173
0.221710 0.393416 0.377918
0.064218 0.102601 0.841732
0.367253 0.142879 0.439203
0.265728 0.306778 0.118523
0.408117 0.126804 0.245428
0.353776 0.141966 0.130580
0.263096 0.345116 0.685081
0.189937 0.142264 0.390725
0.070328 0.145620 0.152558
0.432541 0.360766 0.682483
0.226791 0.326984 0.686814
0.380553 0.344617 0.347551
0.204412 0.143340 0.052119
0.346175 0.144214 0.535894
0.457376 0.207578 0.106658
0.228643 0.293226 0.073873
0.242338 0.305662 0.854041
0.078947 0.143748 0.496227
0.089173 0.167154 0.881112
0.473521 0.137242 0.244534
0.462125 0.221206 0.416297
0.355655 0.305127 0.118272
0.292106 0.136296 0.931786
0.111423 0.471706 0.648685
0.338405 0.303395 0.764870
0.146845 0.397847 0.379558
0.427284 0.317834 0.289367
0.219597 0.130307 0.931018
0.264259 0.142162 0.100990
0.199828 0.482665 0.498481
0.078532 0.284318 0.251662
0.145622 0.166730 0.865162
0.374206 0.316814 0.193999
0.241929 0.346041 0.685273
0.326572 0.183999 0.028275
0.433531 0.352090 0.736002
0.458575 0.268176 0.323933
0.275503 0.170848 0.915100
0.158960 0.153618 0.726000
0.076774 0.202564 0.227057
0.352388 0.320950 0.225583
0.407037 0.374765 0.681072
0.147291 0.142251 0.091521
0.284829 0.158819 0.781556
0.410616 0.060336 0.245995
0.229711 0.141490 0.335320
0.085721 0.156494 0.272678
0.453065 0.142020 0.378647
0.339351 0.145962 0.645389
0.220361 0.362365 0.360579
0.195676 0.384902 0.373003
0.109774 0.142634 0.070678
0.162447 0.141109 0.306140
0.091573 0.384669 0.658393
0.226721 0.303428 0.748800
0.392656 0.169942 0.932270
0.071208 0.124604 0.215766
0.079289 0.191301 0.652784
0.223708 0.142609 0.416539
0.275491 0.157014 0.762390
0.097359 0.299383 0.130856
0.081457 0.337404 0.510433
0.418396 0.203227 0.711524
0.115765 0.303461 0.756937
0.212187 0.283172 0.068942
0.450440 0.201736 0.934180
0.471106 0.347194 0.391874
0.430318 0.203763 0.151313
0.114061 0.391341 0.678560
0.314970 0.441857 0.673835
0.344455 0.142062 0.114378
0.069054 0.251321 0.305161
0.460351 0.262650 0.647769
0.399767 0.196971 0.657164
0.091738 0.305780 0.857849
0.258850 0.144341 0.543201
0.408847 0.309944 0.689083
0.085029 0.345829 0.462766
0.071533 0.256902 0.507141
0.208441 0.141177 0.275919
0.062737 0.204050 0.217511
0.281162 0.302279 0.094296
0.289699 0.447063 0.407401
0.342737 0.141170 0.314450
0.298299 0.305580 0.916275
0.458857 0.135635 0.211328
0.250672 0.141105 0.307729
0.327213 0.493043 0.646522
0.176945 0.153809 0.728088
0.204396 0.492917 0.602215
0.299413 0.375014 0.681623
0.411001 0.141234 0.104857
0.412152 0.121964 0.674735
0.459592 0.256399 0.449523
0.311358 0.464638 0.670803
0.096766 0.319223 0.307148
0.270265 0.146692 0.652907
0.315415 0.141214 0.263908
0.069262 0.231265 0.356095
0.454072 0.285058 0.293316
0.130310 0.221260 0.737888
0.461109 0.192194 0.429300
0.344572 0.142225 0.085877
0.121720 0.486183 0.643852
0.412143 0.221295 0.123093
0.130286 0.143791 0.098727
0.411813 0.054284 0.719323
0.072287 0.284654 0.889032
0.459466 0.288520 0.759696
0.304076 0.167884 0.879592
0.428131 0.338674 0.745099
0.450914 0.333302 0.383034
0.399778 0.237644 0.763613
0.180975 0.490456 0.631149
0.134092 0.157277 0.764725
0.196757 0.143140 0.454576
0.116830 0.178343 0.688361
0.332049 0.141989 0.127716
0.106172 0.227409 0.241002
0.330045 0.161690 0.812146
0.416122 0.188880 0.651922
0.218385 0.235003 0.947194
0.411208 0.170667 0.808406
0.057702 0.061502 0.144114
0.121963 0.171384 0.167826
0.465339 0.330907 0.395284
0.303870 0.303406 0.768305
0.434823 0.402158 0.642632
0.070122 0.225159 0.895315
0.101887 0.242636 0.926217
0.198651 0.322814 0.296120
0.449002 0.144943 0.591061
0.119416 0.056472 0.736323
0.471154 0.054475 0.759863
0.260449 0.240705 0.051912
0.097294 0.142082 0.375519
0.081745 0.222580 0.249027
0.434193 0.196535 0.809296
0.145043 0.142494 0.406452
0.348824 0.490621 0.642786
0.333585 0.451899 0.672216
0.083902 0.214954 0.920630
0.223722 0.164772 0.844492
0.157039 0.292610 0.973021
0.148089 0.303452 0.705600
0.416572 0.212190 0.766850
0.225667 0.141240 0.317004
0.258446 0.253593 0.921698
0.210206 0.163401 0.026601
0.212958 0.149697 0.684599
0.130293 0.164896 0.277799
0.415917 0.397877 0.378772
0.244615 0.145059 0.595142
0.065560 0.194412 0.237824
0.353016 0.491902 0.596443
0.452071 0.325183 0.552529
0.121064 0.130774 0.811486
0.465719 0.207605 0.168541
0.099174 0.412721 0.386928
0.152178 0.357634 0.355613
0.437573 0.315562 0.270340
0.058240 0.167067 0.216604
0.466062 0.142653 0.665236
0.281631 0.141184 0.270882
0.288043 0.488189 0.667499
0.151976 0.483229 0.511747
0.424502 0.412308 0.385811
0.469465 0.105756 0.098176
0.195137 0.399131 0.955550
0.165891 0.152182 0.027167
0.181877 0.493641 0.613372
0.068822 0.208188 0.534933
0.068159 0.166145 0.109795
0.119247 0.475824 0.553669
0.089154 0.304772 0.804909
0.120880 0.087207 0.730173
0.445843 0.303054 0.713194
0.409816 0.137550 0.745885
0.058270 0.187219 0.222045
0.330841 0.301110 0.091893
0.465518 0.218575 0.675689
0.458653 0.265795 0.595064
0.435971 0.390263 0.412460
0.176501 0.380859 0.370379
0.116049 0.319165 0.295928
0.356583 0.482190 0.495511
0.315463 0.142742 0.428188
0.196214 0.234380 0.941394
0.416318 0.215342 0.926634
0.145945 0.305974 0.868894
0.070916 0.266596 0.248472
0.455879 0.293922 0.359007
0.280338 0.481094 0.475134
0.159030 0.144533 0.555067
0.108853 0.259274 0.929203
0.300829 0.141139 0.277784
0.410310 0.456280 0.411834
0.121112 0.165938 0.714104
0.074188 0.300554 0.759007
0.454078 0.316183 0.493243
0.202849 0.142658 0.419617
0.379888 0.143055 0.058017
0.298551 0.160116 0.795354
0.420300 0.305358 0.840798
0.461939 0.237526 0.805218
0.120776 0.143915 0.509253
0.064891 0.330170 0.393924
0.299466 0.487559 0.541497
0.133826 0.303456 0.715871
0.326466 0.145164 0.604544
0.450387 0.237398 0.706901
0.323529 0.142090 0.110608
0.460634 0.166604 0.395389
0.260217 0.141764 0.170822
0.444911 0.298510 0.161893
0.436088 0.390137 0.433931
0.277734 0.490995 0.573670
0.181668 0.292260 0.929626
0.250256 0.141697 0.350815
0.273209 0.303651 0.773929
0.245804 0.208539 0.046979
0.457913 0.233276 0.161556
0.080329 0.144007 0.515064
0.341021 0.163109 0.827235
0.255470 0.141581 0.202960
0.190243 0.303439 0.703363
0.144423 0.142147 0.109822
0.264068 0.167126 0.026974
0.056651 0.184839 0.926831
0.413549 0.181836 0.689098
0.167162 0.285324 0.070995
0.116803 0.106508 0.669740
0.161611 0.482094 0.496209
0.188570 0.253026 0.056034
0.235842 0.393645 0.949610
0.247420 0.321092 0.973394
0.227811 0.340385 0.973766
0.084649 0.142139 0.663219
0.382963 0.303382 0.716054
0.120725 0.079387 0.245149
0.070235 0.268384 0.645952
0.311678 0.143829 0.507135
0.096587 0.357388 0.681126
0.081501 0.190880 0.049944
0.076170 0.144721 0.566931
0.099917 0.036730 0.143748
0.422529 0.462956 0.582009
0.399273 0.143789 0.506060
0.086763 0.278685 0.918091
0.120959 0.077398 0.748445
0.073648 0.149808 0.745990
0.375609 0.305972 0.872338
0.071352 0.259863 0.356541
0.172049 0.143436 0.049914
0.072975 0.086899 0.837178
0.399776 0.228510 0.795149
0.469999 0.378163 0.399633
0.461857 0.027564 0.178097
0.407955 0.189195 0.938724
0.458869 0.269700 0.306466
0.361726 0.304691 0.804894
0.287592 0.142863 0.436400
0.118351 0.127493 0.829024
0.404459 0.481563 0.600009
0.408860 0.154642 0.797450
0.068774 0.181228 0.378854
0.399758 0.167956 0.661868
0.204966 0.256094 0.930627
0.209570 0.207756 0.048373
0.163049 0.141137 0.285210
0.072246 0.270177 0.496373
0.197002 0.493506 0.659458
0.074107 0.301539 0.855860
0.203828 0.391032 0.972248
0.250719 0.141220 0.266307
0.282940 0.166679 0.865031
0.364109 0.141095 0.282194
0.264489 0.207385 0.046658
0.070865 0.249023 0.577778
0.408813 0.148636 0.703768
0.137052 0.141744 0.180663
0.069008 0.210465 0.588861
0.439195 0.374334 0.418957
0.320561 0.164949 0.915110
0.286885 0.307846 0.126393
0.339545 0.141695 0.178598
0.168176 0.306103 0.875993
0.305049 0.142092 0.111172
0.161039 0.324347 0.262697
0.422360 0.460354 0.425050
0.421371 0.134367 0.663718
0.472334 0.123730 0.258672
0.164831 0.166021 0.857550
0.069072 0.255767 0.269524
0.250937 0.482848 0.493627
0.251848 0.430041 0.675499
0.103570 0.040773 0.237170
0.277534 0.286684 0.920354
0.068632 0.199432 0.517793
0.347403 0.372825 0.681872
0.364116 0.349641 0.350632
0.109446 0.466501 0.481293
0.087280 0.305376 0.836829
0.253221 0.490933 0.573905
0.461073 0.217999 0.561950
0.078671 0.330741 0.555133
0.264212 0.330643 0.972731
0.120736 0.114333 0.717520
0.439089 0.376618 0.501320
0.260918 0.256022 0.959777
0.119229 0.127499 0.271010
0.408076 0.105326 0.243779
0.079741 0.330195 0.477290
0.287146 0.325481 0.264158
0.455318 0.107199 0.768097
0.448589 0.286542 0.197272
0.069355 0.184762 0.486006
0.072950 0.290160 0.576431
0.461078 0.199129 0.558573
0.063153 0.170187 0.198695
0.324566 0.159839 0.792505
0.429201 0.214884 0.754561
