0.187599 0.377628 0.713996
0.104734 0.061401 0.197462
0.037402 0.296256 0.623488
0.037402 0.289305 0.451527
0.079453 0.059134 0.781321
0.087920 0.117158 0.780242
0.135561 0.097602 0.854391
0.087857 0.116389 0.230164
0.098883 0.038469 0.204110
0.048510 0.118206 0.574491
0.208262 0.361459 0.676252
0.084760 0.417846 0.704239
0.097593 0.055178 0.135890
0.119348 0.109452 0.268494
0.113491 0.321504 0.821310
0.208511 0.351391 0.393217
0.252813 0.171310 0.219885
0.167682 0.355620 0.451775
0.083198 0.254051 0.924537
0.217649 0.315353 0.182589
0.063007 0.149538 0.862843
0.216382 0.073448 0.332623
0.257705 0.297939 0.375951
0.050292 0.330866 0.199765
0.135227 0.110089 0.107715
0.231412 0.103310 0.890168
0.166824 0.360632 0.666888
0.037402 0.212832 0.406942
0.140843 0.161858 0.855460
0.050760 0.266799 0.196293
0.189610 0.161858 0.825255
0.257705 0.201710 0.573418
0.161750 0.109641 0.170525
0.197309 0.052206 0.136804
0.196186 0.073778 0.787875
0.157025 0.356406 0.391191
0.257705 0.250646 0.287347
0.225049 0.115520 0.829371
0.130163 0.201086 0.814259
0.208262 0.378640 0.683979
0.160421 0.062528 0.266334
0.252971 0.126292 0.509389
0.076263 0.251311 0.911164
0.037402 0.302734 0.447363
0.240781 0.116212 0.509608
0.102927 0.040553 0.149225
0.205190 0.352333 0.437704
0.269826 0.318663 0.570731
0.257705 0.180756 0.462797
0.037402 0.144832 0.693340
0.079668 0.415422 0.612789
0.163934 0.424596 0.615304
0.066725 0.111653 0.683937
0.110904 0.222677 0.894142
0.043025 0.238766 0.648635
0.158640 0.134172 0.814987
0.111182 0.336378 0.821310
0.258055 0.323824 0.745909
0.209143 0.047445 0.280519
0.094988 0.071691 0.733666
0.122099 0.097602 0.051014
0.088424 0.361369 0.689747
0.090179 0.051140 0.649010
0.042137 0.267324 0.782657
0.257705 0.141949 0.667928
0.194533 0.035857 0.652622
0.137935 0.140881 0.127952
0.037423 0.329796 0.701069
0.257705 0.215358 0.329178
0.257705 0.230437 0.311813
0.078565 0.120642 0.201623
0.257705 0.191834 0.453966
0.213811 0.349401 0.861997
0.120109 0.099127 0.507002
0.041777 0.127400 0.295131
0.166213 0.089346 0.667452
0.077292 0.106793 0.172048
0.125808 0.360492 0.499159
0.041504 0.128239 0.469950
0.052895 0.338049 0.503294
0.190640 0.060645 0.714687
0.210782 0.345381 0.835838
0.110945 0.179746 0.182589
0.163808 0.056439 0.681423
0.180771 0.354374 0.624116
0.255327 0.187509 0.241746
0.037402 0.153250 0.302230
0.058267 0.169380 0.814862
0.104734 0.076541 0.331054
0.105807 0.176486 0.821310
0.137349 0.343495 0.182589
0.220931 0.341198 0.583669
0.120015 0.219688 0.186625
0.057708 0.115052 0.611954
0.231884 0.113161 0.689560
0.133976 0.111439 0.189197
0.257705 0.176387 0.448343
0.200223 0.348767 0.146535
0.215538 0.046503 0.329673
0.086717 0.140900 0.178032
0.064337 0.342792 0.338785
0.215986 0.229266 0.821310
0.163130 0.108592 0.810497
0.257705 0.156098 0.544827
0.081017 0.126302 0.114589
0.105434 0.161858 0.167514
0.257705 0.217137 0.276625
0.104734 0.047333 0.336918
0.062901 0.336659 0.200393
0.074686 0.198658 0.821310
0.252133 0.123708 0.425142
0.179634 0.099127 0.548676
0.097649 0.099127 0.616984
0.037402 0.224836 0.574315
0.040046 0.132740 0.344497
0.145108 0.156929 0.907673
0.205465 0.420820 0.602512
0.070592 0.339829 0.859295
0.088424 0.403136 0.682936
0.038393 0.282880 0.253803
0.131991 0.119262 0.205875
0.170035 0.424100 0.571030
0.222943 0.108855 0.440282
0.081278 0.088291 0.228719
0.229568 0.179213 0.182589
0.208556 0.411904 0.730498
0.205465 0.035009 0.665218
0.223434 0.340166 0.436040
0.207705 0.140876 0.892065
0.082128 0.103727 0.585391
0.257288 0.139616 0.614576
0.208262 0.336258 0.658507
0.075765 0.298375 0.182589
0.108464 0.149139 0.096284
0.213657 0.208968 0.106394
0.215777 0.060485 0.280018
0.257705 0.321065 0.563788
0.087015 0.040335 0.152643
0.037402 0.254904 0.715934
0.138480 0.424946 0.611763
0.090128 0.068566 0.192825
0.074166 0.275653 0.182589
0.194463 0.050132 0.642586
0.042809 0.124212 0.588545
0.064422 0.112749 0.547343
0.048567 0.287436 0.640368
0.257705 0.305380 0.617926
0.090529 0.057519 0.735056
0.104734 0.067885 0.139146
0.244421 0.336730 0.552989
0.115347 0.097602 0.066174
0.037402 0.205610 0.665388
0.194822 0.350324 0.645977
0.189318 0.419004 0.604634
0.111338 0.099127 0.613385
0.040781 0.310673 0.770868
0.141159 0.185870 0.814259
0.176072 0.422547 0.586883
0.158146 0.198250 0.814259
0.231835 0.139276 0.116795
0.194092 0.355483 0.810466
0.257705 0.158294 0.648125
0.203707 0.118305 0.789937
0.159260 0.291222 0.821310
0.095399 0.414331 0.633280
0.032240 0.327031 0.570232
0.137024 0.432225 0.711855
0.257705 0.205992 0.411690
0.169928 0.161858 0.846980
0.159230 0.099127 0.300494
0.150723 0.112413 0.879149
0.161750 0.111274 0.888781
0.257085 0.185394 0.257034
0.239941 0.339057 0.771580
0.037402 0.238233 0.686528
0.137356 0.099127 0.363541
0.215849 0.084171 0.312874
0.063789 0.159374 0.183700
0.128902 0.099127 0.557758
0.257705 0.297282 0.575263
0.039357 0.311695 0.245426
0.257705 0.287519 0.541458
0.155774 0.356498 0.498259
0.089102 0.400321 0.697067
0.129415 0.355819 0.183464
0.088424 0.361159 0.610355
0.077921 0.134349 0.917244
0.222283 0.103310 0.838410
0.154217 0.205526 0.189441
0.037402 0.171995 0.388654
0.047633 0.335242 0.571909
0.227128 0.403263 0.635101
0.063007 0.145114 0.834793
0.146552 0.140901 0.179862
0.088424 0.332877 0.651020
0.208262 0.340631 0.675188
0.117687 0.099127 0.523211
0.165516 0.069624 0.733666
0.129763 0.355845 0.414567
0.133734 0.099127 0.410126
0.088424 0.386420 0.604990
0.198259 0.349333 0.405602
0.257705 0.322904 0.354573
0.058483 0.312270 0.815071
0.211917 0.286403 0.182589
0.155662 0.099127 0.392532
0.236954 0.340240 0.579293
0.196571 0.354780 0.861605
0.143558 0.099127 0.666959
0.037402 0.142416 0.332368
0.065656 0.343314 0.451807
0.072182 0.340485 0.214558
0.257705 0.282253 0.577691
0.215849 0.047053 0.189815
0.154436 0.361583 0.681546
0.115387 0.359637 0.809891
0.025044 0.317702 0.736251
0.211692 0.118248 0.214449
0.037402 0.222277 0.280665
0.037402 0.177606 0.327014
0.086429 0.418640 0.644850
0.156555 0.432465 0.716233
0.139671 0.361598 0.474939
0.252636 0.125259 0.408981
0.042199 0.288458 0.220707
0.257705 0.256971 0.546770
0.175091 0.169313 0.188427
0.114896 0.428271 0.635647
0.038598 0.137209 0.643936
0.054326 0.338813 0.325376
0.241438 0.116437 0.699971
0.182615 0.353842 0.486120
0.125728 0.244486 0.814259
0.114185 0.099127 0.662333
0.042781 0.124299 0.380957
0.087002 0.062415 0.796821
0.118681 0.253248 0.914345
0.040006 0.183547 0.764121
0.088619 0.123831 0.805273
0.071298 0.345548 0.365470
0.189807 0.351770 0.364226
0.048600 0.335758 0.621819
0.254796 0.247512 0.766769
0.131448 0.097602 0.196214
0.206535 0.140883 0.132678
0.025090 0.323212 0.841069
0.257705 0.178312 0.655978
0.154947 0.057519 0.751272
0.217609 0.342567 0.567343
0.100060 0.140884 0.134573
0.204162 0.413545 0.622557
0.037402 0.175163 0.426243
0.055920 0.339460 0.228407
0.181292 0.089979 0.266334
0.153737 0.086057 0.465188
0.164829 0.094873 0.905440
0.115847 0.099127 0.550174
0.216822 0.119619 0.175634
0.215849 0.049509 0.836171
0.152153 0.361759 0.161748
0.216382 0.059962 0.678419
0.168705 0.140872 0.901959
0.040361 0.270628 0.345140
0.145608 0.140893 0.158048
0.152655 0.140876 0.892594
0.246811 0.335455 0.677494
0.243048 0.230070 0.808861
0.140312 0.356647 0.248413
0.107525 0.099127 0.479884
0.190877 0.099127 0.639551
0.107877 0.357506 0.298534
0.251817 0.275137 0.666195
0.205787 0.352164 0.848648
0.232215 0.342115 0.732096
0.099263 0.090580 0.205764
0.246607 0.287199 0.336733
0.041050 0.331731 0.716676
0.216289 0.125637 0.114589
0.177391 0.099127 0.382747
0.037402 0.240100 0.386394
0.257705 0.304973 0.698035
0.142532 0.356816 0.205087
0.141142 0.361715 0.231536
0.043267 0.140293 0.790772
0.034353 0.285758 0.677959
0.166902 0.092551 0.801051
0.111266 0.358468 0.458208
0.104734 0.074996 0.346020
0.212196 0.344798 0.321648
0.234107 0.214044 0.186397
0.144125 0.112413 0.201920
0.129136 0.057519 0.257687
0.250535 0.131425 0.776171
0.153611 0.081871 0.768677
0.266357 0.229258 0.642180
0.146889 0.422351 0.713996
0.194673 0.350367 0.835898
0.091413 0.210881 0.821310
0.249937 0.328057 0.280059
0.269830 0.318411 0.552839
0.060160 0.201661 0.187209
0.257705 0.186127 0.548781
0.064102 0.149463 0.820501
0.104734 0.049002 0.814743
0.088354 0.100524 0.432762
0.145173 0.401674 0.713996
0.148360 0.433027 0.658306
0.037402 0.300620 0.289029
0.257705 0.217753 0.537767
0.230184 0.148299 0.138978
0.214819 0.089224 0.243258
0.256913 0.239633 0.748362
0.068152 0.344303 0.816139
0.208262 0.366782 0.583861
0.041734 0.266137 0.224748
0.090128 0.052076 0.161845
0.257705 0.278097 0.736651
0.039045 0.135830 0.555610
0.071369 0.340150 0.598041
0.149878 0.432923 0.642148
0.110610 0.074519 0.675992
0.194463 0.091563 0.797277
0.257705 0.289190 0.282261
0.098897 0.104901 0.821832
0.063496 0.113067 0.638742
0.257705 0.310971 0.593915
0.254464 0.171815 0.234247
0.078993 0.085130 0.712425
0.072541 0.404308 0.647068
0.058468 0.116291 0.754152
0.262675 0.229258 0.331519
0.174083 0.099127 0.399159
0.124684 0.075214 0.768677
0.166258 0.266991 0.814259
0.180030 0.359474 0.374799
0.134829 0.161858 0.842010
0.246275 0.284972 0.678509
0.139308 0.203879 0.189441
0.158221 0.099127 0.467218
0.043125 0.123239 0.366266
0.027033 0.227578 0.495194
0.177559 0.407306 0.557287
0.234976 0.114221 0.476047
0.193053 0.350834 0.133611
0.257705 0.186744 0.684848
0.154847 0.140880 0.124821
0.231835 0.151983 0.122102
0.149971 0.097602 0.140265
0.082985 0.417001 0.582704
0.037402 0.187566 0.482879
0.102711 0.385149 0.557589
0.099425 0.073007 0.243123
0.211156 0.350452 0.811259
0.257705 0.221172 0.382913
0.254954 0.156708 0.238500
0.065729 0.161858 0.105930
0.034153 0.288878 0.499733
0.171014 0.355375 0.247880
0.059506 0.340880 0.567846
0.135227 0.111689 0.847453
0.257705 0.205617 0.477904
0.166772 0.092864 0.346034
0.255873 0.324962 0.526147
0.190560 0.081461 0.290397
0.048515 0.287807 0.374805
0.063007 0.103691 0.134125
0.182460 0.353887 0.845309
0.146496 0.097602 0.827624
0.214835 0.063937 0.215376
0.116642 0.057519 0.766259
0.065770 0.112145 0.530211
0.042416 0.125426 0.416235
0.033931 0.251421 0.678649
0.088424 0.334074 0.687304
0.099488 0.104319 0.670760
0.037401 0.313679 0.265158
0.142723 0.361841 0.828569
0.037402 0.287458 0.721294
0.236255 0.334881 0.329972
0.257705 0.219686 0.523924
0.257705 0.168419 0.586282
0.130117 0.360836 0.296870
0.255598 0.314362 0.244105
0.243323 0.117084 0.395125
0.257705 0.176923 0.702286
0.079232 0.348689 0.548469
0.210297 0.350792 0.175105
0.131911 0.356008 0.441901
0.037402 0.224339 0.620154
0.088424 0.379692 0.638055
0.106756 0.426048 0.741661
0.148258 0.112413 0.918538
0.195644 0.081747 0.246988
0.063189 0.248592 0.184280
0.070733 0.188445 0.182589
0.104022 0.288142 0.182589
0.194607 0.355337 0.523018
0.037402 0.153080 0.554142
0.148742 0.114739 0.899878
0.092238 0.161858 0.134818
0.059582 0.114409 0.476127
0.100380 0.091486 0.797933
0.159608 0.112413 0.862827
0.190108 0.080990 0.199558
0.169321 0.360440 0.490302
0.221526 0.232399 0.182589
0.207664 0.100993 0.475223
0.192712 0.099127 0.451827
0.222855 0.323044 0.821310
0.091170 0.282980 0.182589
0.146870 0.055824 0.827291
0.257705 0.284795 0.451399
0.105728 0.356896 0.168882
0.048567 0.270990 0.374601
0.025089 0.323166 0.428286
0.172948 0.100246 0.212709
0.194463 0.098007 0.197967
0.207482 0.351683 0.538888
0.077921 0.151098 0.917645
0.140804 0.091814 0.768677
0.211869 0.344933 0.201729
0.090369 0.075075 0.859402
0.255141 0.261537 0.763768
0.097906 0.250583 0.914522
0.037402 0.218187 0.359505
0.255533 0.325139 0.848431
0.037402 0.299642 0.524826
0.198081 0.415782 0.658331
0.197090 0.079291 0.359658
0.065981 0.343443 0.551159
0.048567 0.260089 0.678429
0.130925 0.355933 0.746161
0.118109 0.114218 0.892526
0.190108 0.070006 0.654472
0.090128 0.088398 0.827737
0.087030 0.035299 0.841123
0.065503 0.131151 0.175634
0.236474 0.114735 0.625396
0.205038 0.352376 0.162327
0.209717 0.088316 0.274542
0.078993 0.047517 0.745864
0.073746 0.108040 0.517264
0.174196 0.161858 0.161578
0.231835 0.143432 0.838259
0.137175 0.361399 0.327659
0.091650 0.076814 0.231323
0.216206 0.066059 0.161302
0.037402 0.200356 0.290614
0.066550 0.338163 0.407612
0.225885 0.344621 0.181896
0.209591 0.195808 0.102951
0.213398 0.104612 0.138526
0.099425 0.086481 0.740694
0.048232 0.329792 0.265988
0.257705 0.259960 0.380634
0.191675 0.356169 0.284273
0.228768 0.161858 0.133201
0.114862 0.112204 0.057496
0.038892 0.152180 0.249471
0.134270 0.064101 0.836370
0.091370 0.420613 0.670839
0.099425 0.091343 0.239693
0.083303 0.103123 0.529717
0.213680 0.106793 0.851792
0.037402 0.163368 0.564546
0.078070 0.116519 0.919095
0.146976 0.425522 0.670139
0.241419 0.338331 0.648592
0.042304 0.125773 0.277530
0.110501 0.099127 0.459728
0.257705 0.150723 0.622768
0.194804 0.100472 0.808032
0.257705 0.301915 0.391601
0.199754 0.099127 0.600591
0.185760 0.357848 0.297404
0.037347 0.329756 0.476075
0.105414 0.351879 0.825907
0.163730 0.089188 0.838518
0.213846 0.087146 0.845532
0.076608 0.103310 0.890363
0.037402 0.221871 0.299428
0.100380 0.102788 0.161803
0.181186 0.118533 0.791867
0.257705 0.143140 0.600198
0.054200 0.332903 0.283911
0.192782 0.355855 0.450266
0.182946 0.122133 0.200222
0.046393 0.334581 0.635853
0.142061 0.425189 0.694962
0.156724 0.096355 0.774568
0.061950 0.116785 0.768417
0.082126 0.344583 0.501054
0.185046 0.056309 0.320750
0.101434 0.355677 0.431780
0.128278 0.116792 0.777144
0.131435 0.098881 0.266334
0.208587 0.065521 0.174269
0.257070 0.138943 0.411115
0.203365 0.092723 0.733666
0.218851 0.161858 0.826332
0.226627 0.403497 0.544146
0.079703 0.343585 0.740179
0.090200 0.332815 0.701374
0.117278 0.359812 0.188702
0.110794 0.063411 0.183677
0.042257 0.326676 0.346006
0.204646 0.133630 0.814478
0.063007 0.149771 0.117402
0.255605 0.136832 0.748264
0.139129 0.373621 0.713996
0.219468 0.214747 0.821310
0.167284 0.091104 0.476338
0.257228 0.286657 0.258286
0.100380 0.040130 0.351964
0.126557 0.106511 0.206742
0.135840 0.348425 0.821310
0.101087 0.424045 0.623848
0.190108 0.033169 0.667032
0.037402 0.262913 0.473405
0.093438 0.421343 0.552215
0.155033 0.432569 0.568237
0.116148 0.410089 0.557287
0.224802 0.161858 0.904135
0.037402 0.175361 0.409370
0.042644 0.307824 0.216834
0.044136 0.301815 0.800046
0.112005 0.328519 0.182589
0.059332 0.339917 0.131872
0.131413 0.428426 0.532531
0.172280 0.103716 0.494811
0.190108 0.060683 0.333379
0.257705 0.188610 0.333043
0.122893 0.140883 0.133526
0.199626 0.099127 0.418536
0.190108 0.089983 0.180790
0.224554 0.103310 0.127281
0.131342 0.322003 0.821310
0.252495 0.124824 0.558914
0.195478 0.083328 0.862460
0.257705 0.186287 0.720201
0.100380 0.029762 0.162408
0.197891 0.099127 0.523214
0.037402 0.163128 0.480368
0.090336 0.332991 0.569376
0.257705 0.323519 0.370712
0.257705 0.144791 0.356882
0.254190 0.140643 0.232588
0.246357 0.165085 0.805664
0.212392 0.121650 0.803224
0.059315 0.340804 0.635596
0.033931 0.247525 0.374803
0.184964 0.353166 0.797139
0.025046 0.320515 0.479334
0.047749 0.229258 0.663134
0.190108 0.071267 0.675000
0.118109 0.121956 0.918900
0.218252 0.104426 0.175634
0.139839 0.241356 0.814259
0.078320 0.112947 0.903563
0.187797 0.140891 0.153063
0.107847 0.303903 0.182589
0.213398 0.147813 0.863547
0.139346 0.287031 0.821310
0.242679 0.337659 0.250587
0.180469 0.206719 0.182589
0.254481 0.239820 0.640214
0.114383 0.428141 0.564548
0.025060 0.321403 0.505105
0.047479 0.335161 0.295706
0.195644 0.084817 0.751331
0.090347 0.094194 0.809423
0.143338 0.161383 0.096279
0.129793 0.407959 0.557287
0.178903 0.140889 0.858900
0.247427 0.277361 0.527222
0.050148 0.117645 0.288843
0.087332 0.161858 0.873137
0.122518 0.064930 0.668585
0.164517 0.088862 0.191517
0.136166 0.332808 0.557287
0.203279 0.407482 0.709639
0.084513 0.087850 0.322912
0.134088 0.099127 0.578703
0.116168 0.359724 0.756044
0.201852 0.099127 0.462377
0.087771 0.351799 0.156214
0.038174 0.156418 0.748188
0.257206 0.171593 0.745812
0.043582 0.202862 0.795229
0.219771 0.341676 0.533837
0.167037 0.112413 0.928468
0.148326 0.099127 0.578302
0.219939 0.414383 0.653108
0.227963 0.342916 0.875431
0.033931 0.288759 0.480572
0.115307 0.420992 0.686262
0.256351 0.310714 0.753245
0.091417 0.352834 0.718952
0.196873 0.025083 0.322556
0.257705 0.248391 0.462626
0.253050 0.326434 0.545887
0.215849 0.048539 0.295330
0.146762 0.357137 0.191011
0.257705 0.160408 0.483073
0.034260 0.272948 0.527222
0.037402 0.179507 0.727122
0.134140 0.121862 0.803423
0.113250 0.140900 0.827461
0.122788 0.348774 0.713996
0.184557 0.161858 0.105293
0.037402 0.161191 0.436655
0.239828 0.339101 0.594190
0.083264 0.046503 0.327707
0.078594 0.105546 0.690069
0.257705 0.293919 0.476090
0.162868 0.407914 0.557287
0.260030 0.322795 0.194945
0.190108 0.066812 0.196686
0.195644 0.098610 0.247359
0.257705 0.244041 0.448022
0.257703 0.140896 0.733611
0.038799 0.248150 0.250278
0.218577 0.123091 0.199322
0.079972 0.131914 0.191033
0.187810 0.352345 0.385075
0.097655 0.035087 0.852989
0.155980 0.361465 0.766455
0.037401 0.268406 0.421970
0.133925 0.074566 0.176334
0.099708 0.167071 0.914851
0.158497 0.141736 0.096286
0.165932 0.083453 0.733666
0.069991 0.410816 0.634139
0.039969 0.199726 0.763800
0.170265 0.099127 0.582945
0.131162 0.099127 0.313447
0.198482 0.083530 0.768677
0.257705 0.212122 0.292864
0.131379 0.360546 0.713996
0.025013 0.318510 0.672205
0.112787 0.118726 0.210401
0.145432 0.362057 0.439965
0.127198 0.355650 0.699059
0.081067 0.086526 0.732619
0.087627 0.036543 0.675369
0.257705 0.279972 0.597410
0.044119 0.333368 0.602222
0.167147 0.090772 0.497677
0.181485 0.354168 0.442564
0.257705 0.255946 0.560858
0.162895 0.110486 0.188945
0.116754 0.094750 0.266334
0.257705 0.172411 0.627851
0.193066 0.314532 0.182589
0.260912 0.288567 0.350506
0.037402 0.203777 0.697271
0.112244 0.140890 0.851406
0.215149 0.093733 0.776498
0.063007 0.106291 0.112912
0.230174 0.145750 0.163931
0.088424 0.405011 0.641078
0.145338 0.161858 0.893334
0.227803 0.135589 0.874322
0.155833 0.097602 0.788829
0.081450 0.104076 0.724868
0.037402 0.310377 0.698121
0.069624 0.243295 0.821310
0.183668 0.142197 0.907668
0.088475 0.038344 0.659250
0.037326 0.329745 0.496190
0.159805 0.361171 0.514845
0.088424 0.387565 0.689453
0.251245 0.274605 0.206248
0.163980 0.078960 0.523062
0.250078 0.333712 0.376906
0.069569 0.344863 0.247095
0.181553 0.333798 0.557287
0.155634 0.252994 0.814259
0.262138 0.327279 0.388123
0.041530 0.318699 0.226527
0.257705 0.296564 0.440324
0.257705 0.162212 0.421804
0.181964 0.428414 0.615121
0.080302 0.349112 0.171044
0.034821 0.328408 0.330613
0.037402 0.297592 0.317460
0.034435 0.286202 0.373125
0.037402 0.238334 0.290366
0.043421 0.327283 0.314561
0.203542 0.316022 0.821310
0.257705 0.142948 0.718936
0.092640 0.353181 0.860329
0.168635 0.379311 0.557287
0.176413 0.354977 0.718384
0.257705 0.204494 0.727041
0.037402 0.199330 0.508508
0.057900 0.114986 0.518842
0.128724 0.097602 0.928771
0.037402 0.223343 0.696778
0.123155 0.355343 0.520003
0.037402 0.311348 0.400716
0.256604 0.137506 0.437088
0.090871 0.347687 0.409041
0.216581 0.135589 0.843212
0.121148 0.099127 0.571174
0.160420 0.356156 0.439214
0.137343 0.097602 0.058464
0.083044 0.103256 0.380762
0.190145 0.351672 0.159802
0.139861 0.112413 0.867195
0.154767 0.161858 0.863545
0.080923 0.164592 0.891893
0.058835 0.146778 0.188489
0.190377 0.094810 0.768677
0.174046 0.099127 0.361030
0.230606 0.342752 0.711019
0.257705 0.265956 0.620268
0.241029 0.338539 0.664713
0.204714 0.053721 0.156784
0.257705 0.165152 0.690099
0.197309 0.057888 0.866021
0.214698 0.104612 0.393131
0.085206 0.109846 0.267727
0.136917 0.343372 0.713996
0.160403 0.361125 0.802907
0.075906 0.119379 0.799014
0.148895 0.099127 0.407891
0.239779 0.115868 0.525536
0.185127 0.311970 0.821310
0.205694 0.099980 0.378731
0.085845 0.201716 0.103095
0.097533 0.058000 0.212392
0.216967 0.348152 0.489417
0.044078 0.276432 0.204365
0.219874 0.107276 0.657479
0.047107 0.179870 0.804077
0.231835 0.105868 0.158384
0.233678 0.166078 0.185983
0.088424 0.375644 0.616691
0.153865 0.085579 0.479203
0.205079 0.105435 0.276299
0.138673 0.140902 0.821466
0.037401 0.143551 0.726656
0.082529 0.113023 0.745280
0.134449 0.066839 0.332725
0.104806 0.113418 0.919095
0.037402 0.179405 0.652862
0.130169 0.360840 0.759033
0.038216 0.300646 0.255350
0.078326 0.151536 0.883506
0.039462 0.325219 0.840859
0.089325 0.078622 0.796045
0.116260 0.112947 0.908097
0.200268 0.099127 0.568625
0.140928 0.074732 0.266334
0.161771 0.111331 0.914302
0.055933 0.339465 0.822446
0.090128 0.081557 0.183227
0.086856 0.112947 0.884115
0.102033 0.355847 0.147921
0.076989 0.126999 0.829371
0.176060 0.161733 0.907675
0.214651 0.349069 0.593542
0.257705 0.274608 0.441835
0.173118 0.204028 0.814259
0.121595 0.161858 0.897885
0.090128 0.052519 0.821500
0.161883 0.424731 0.587593
0.257705 0.160538 0.387048
0.037402 0.237463 0.582592
0.252925 0.152797 0.220856
0.207101 0.100704 0.430551
0.086361 0.058981 0.751101
0.099425 0.073822 0.755350
0.110169 0.358156 0.662133
0.195165 0.350225 0.738900
0.037402 0.185164 0.500252
0.227231 0.338601 0.668595
0.149055 0.361997 0.629082
0.101526 0.350758 0.629097
0.228319 0.338152 0.486865
0.254945 0.216907 0.765478
0.093713 0.144162 0.096285
0.190108 0.070934 0.348690
0.037402 0.263570 0.558267
0.155780 0.115925 0.234081
0.165201 0.140887 0.862490
0.134354 0.356194 0.567119
0.257705 0.182678 0.502684
0.104734 0.057020 0.695863
0.257705 0.303489 0.641515
0.063007 0.157391 0.842154
0.156352 0.161858 0.843446
0.124022 0.099127 0.476249
0.130661 0.360879 0.485633
0.037402 0.292931 0.545023
0.164355 0.104127 0.231323
0.083824 0.102855 0.494752
0.204813 0.058552 0.798507
0.260912 0.253646 0.629871
0.257705 0.310001 0.502429
0.209684 0.102033 0.580877
0.152787 0.356718 0.553118
0.257705 0.261803 0.471236
0.040306 0.274241 0.237173
0.210185 0.046503 0.247869
0.043284 0.122745 0.603599
0.140566 0.114049 0.765858
0.080258 0.114795 0.760263
0.037402 0.141913 0.444117
0.257705 0.322702 0.703124
0.150499 0.416114 0.557287
0.033653 0.327785 0.439107
0.166989 0.057876 0.231323
0.215170 0.416653 0.577331
0.251484 0.157226 0.795572
0.035721 0.328888 0.455757
0.037402 0.192897 0.426092
0.160786 0.112413 0.156934
0.094099 0.140884 0.866659
0.193772 0.103800 0.231323
0.161750 0.108769 0.142417
0.039848 0.235522 0.241153
0.069302 0.344758 0.295247
0.169435 0.360431 0.693655
0.257705 0.277882 0.391189
0.182549 0.353862 0.826784
0.079083 0.087146 0.301885
0.117716 0.099127 0.408094
0.180318 0.356544 0.131872
0.257548 0.222793 0.261068
0.042913 0.332724 0.184387
0.037402 0.242940 0.450830
0.170250 0.112320 0.751585
0.185743 0.352941 0.227858
0.191685 0.351228 0.539534
0.190062 0.077557 0.266334
0.118897 0.115346 0.238979
0.119973 0.360027 0.554738
0.085282 0.351084 0.623438
0.098224 0.354766 0.809284
0.207163 0.061317 0.355122
0.250206 0.327917 0.861930
0.176963 0.187555 0.821310
0.075991 0.106885 0.425412
0.254835 0.201659 0.237471
0.037402 0.156417 0.510591
0.141718 0.099127 0.395139
0.257705 0.223095 0.444346
0.257705 0.171669 0.557911
0.204714 0.057371 0.812840
0.042646 0.326879 0.213889
0.257705 0.295412 0.654089
0.253184 0.161585 0.780787
0.048092 0.335487 0.461824
0.103402 0.140878 0.120845
0.203263 0.141490 0.096286
0.139120 0.396493 0.557287
0.257705 0.301270 0.604190
0.226718 0.147710 0.902672
0.083292 0.209818 0.182589
0.105772 0.128026 0.809214
0.156965 0.074492 0.675859
0.115712 0.359687 0.409359
0.155986 0.099127 0.443382
0.213659 0.349462 0.473803
0.208554 0.105448 0.246056
0.056494 0.186417 0.190752
0.269770 0.322140 0.538741
0.151184 0.112413 0.178909
0.204595 0.352502 0.362623
0.257705 0.314232 0.486411
0.082993 0.417005 0.660188
0.145617 0.362072 0.515485
0.047096 0.118691 0.393365
0.257705 0.252324 0.412451
0.135603 0.140876 0.892270
0.164150 0.320956 0.182589
0.078678 0.103310 0.119857
0.100380 0.027850 0.674284
0.232839 0.113489 0.349908
0.257705 0.300194 0.290796
0.088424 0.333548 0.585810
0.165324 0.355794 0.527637
0.252060 0.240545 0.213333
0.194395 0.099127 0.478713
0.182225 0.099127 0.664323
0.138288 0.218496 0.189441
0.037402 0.251804 0.427717
0.182493 0.353878 0.337016
0.037402 0.272421 0.686751
0.153101 0.356695 0.662929
0.145159 0.343640 0.557287
0.042948 0.327037 0.584156
0.073198 0.319175 0.182589
0.257705 0.218575 0.400690
0.202292 0.099127 0.396424
0.037402 0.295293 0.302180
0.081444 0.145225 0.123783
0.257705 0.311001 0.414709
0.076382 0.154777 0.111105
0.069094 0.285464 0.821310
0.112785 0.358899 0.269818
0.207515 0.100916 0.700436
0.205594 0.057512 0.646815
0.097907 0.167610 0.182589
0.137950 0.432291 0.599315
0.246275 0.232420 0.679392
0.249563 0.328252 0.828661
0.104734 0.089651 0.163968
0.208661 0.105448 0.752604
0.180705 0.359282 0.541599
0.037402 0.154784 0.422934
0.157718 0.324940 0.821310
0.178909 0.099127 0.341535
0.195442 0.028691 0.306195
0.104734 0.082942 0.150556
0.100131 0.085533 0.861337
0.102170 0.112320 0.751143
0.207925 0.101128 0.614153
0.037601 0.238600 0.260693
0.131685 0.100834 0.733666
0.088424 0.377454 0.579416
0.165724 0.089144 0.852452
0.079621 0.343551 0.354248
0.088164 0.059837 0.859805
0.232914 0.127576 0.806136
0.257504 0.315790 0.260685
0.037659 0.324279 0.174639
0.043025 0.258254 0.370013
0.092040 0.348024 0.746476
0.077423 0.333471 0.182589
0.025263 0.323310 0.634793
0.093404 0.325296 0.821310
0.037402 0.147525 0.708740
0.113994 0.162711 0.182589
0.175967 0.355009 0.516633
0.215849 0.049590 0.261371
0.174201 0.086742 0.551389
0.089489 0.047905 0.850595
0.037401 0.144882 0.740673
0.187475 0.357361 0.318521
0.043363 0.227578 0.369426
0.187923 0.376579 0.557287
0.212216 0.103335 0.361067
0.080891 0.104364 0.407783
0.138988 0.094523 0.228681
0.155953 0.161858 0.134901
0.146820 0.112413 0.969782
0.170361 0.099127 0.652693
0.257705 0.286546 0.564449
0.254108 0.319866 0.231149
0.257705 0.234333 0.461685
0.220523 0.346744 0.520283
0.213398 0.149210 0.842387
0.146887 0.099127 0.518652
0.188602 0.357041 0.554065
0.039437 0.325206 0.815923
0.183694 0.358434 0.591185
0.056314 0.115530 0.417374
0.173049 0.429580 0.745542
0.095092 0.348904 0.666229
0.037402 0.154396 0.388373
0.218017 0.184247 0.821310
0.159401 0.361202 0.409112
0.037402 0.175050 0.312092
0.204714 0.060224 0.296019
0.073492 0.161858 0.162146
0.048567 0.245643 0.373253
0.164782 0.097602 0.064787
0.103157 0.161858 0.902588
0.035646 0.288878 0.359449
0.151499 0.140900 0.827940
0.222948 0.340366 0.220747
0.169527 0.355484 0.731701
0.215883 0.186788 0.182589
0.258265 0.323715 0.771699
0.257705 0.197240 0.740853
0.255400 0.201320 0.761514
0.251594 0.281477 0.794619
0.069188 0.409304 0.703474
0.195092 0.220455 0.182589
0.144599 0.361991 0.357523
0.112896 0.358930 0.604704
0.246275 0.271232 0.373435
0.126174 0.403196 0.713996
0.133339 0.361093 0.367944
0.043100 0.123316 0.508537
0.216585 0.147881 0.825887
0.067080 0.338382 0.281271
0.037402 0.204647 0.325060
0.134109 0.113348 0.899878
0.037401 0.192963 0.315713
0.080083 0.349026 0.562498
0.169800 0.099127 0.566035
0.100380 0.099603 0.193638
0.130372 0.431752 0.685346
0.123983 0.161858 0.110053
0.189201 0.426566 0.663921
0.066076 0.212752 0.821310
0.172238 0.360216 0.580531
0.139428 0.361578 0.686922
0.110467 0.062039 0.231323
0.099976 0.333228 0.712502
0.215132 0.408844 0.743484
0.049055 0.163203 0.805959
0.167099 0.090655 0.379158
0.208262 0.375075 0.600982
0.169998 0.112320 0.766193
0.109253 0.419427 0.608531
0.125717 0.355538 0.613806
0.204714 0.045041 0.176740
0.183411 0.074141 0.178245
0.142292 0.361807 0.529613
0.129659 0.360799 0.354115
0.072398 0.108734 0.499721
0.054709 0.116081 0.503816
0.237029 0.217592 0.814678
0.122117 0.355264 0.535190
0.135608 0.067258 0.733666
0.037402 0.281331 0.305001
0.209491 0.166240 0.182589
0.128290 0.355733 0.862547
0.206890 0.060347 0.708158
0.104734 0.067886 0.859877
0.092824 0.112947 0.901464
0.142830 0.074895 0.678278
0.257705 0.162100 0.528296
0.096671 0.057519 0.262549
0.145254 0.161858 0.828902
0.078993 0.086752 0.803224
0.085281 0.194918 0.182589
0.134587 0.069552 0.818542
0.256393 0.136854 0.655197
0.118859 0.097784 0.940078
0.243518 0.117151 0.718973
0.254742 0.297343 0.767242
0.252085 0.123560 0.709137
0.110031 0.346285 0.182589
0.200639 0.339749 0.182589
0.242633 0.331865 0.605925
0.133199 0.085700 0.733666
0.102706 0.405799 0.557591
0.066430 0.257075 0.821310
0.257705 0.221741 0.419283
0.132757 0.431922 0.660877
0.175565 0.351195 0.182589
0.037402 0.296828 0.709748
0.158275 0.074543 0.829005
0.230186 0.148554 0.869614
0.251471 0.258042 0.208216
0.217626 0.103310 0.864782
0.215859 0.166445 0.893799
0.251285 0.227852 0.797306
0.194363 0.099127 0.654847
0.221453 0.346376 0.279828
0.185204 0.161858 0.139120
0.204714 0.065855 0.850719
0.203120 0.221387 0.821310
0.135227 0.112410 0.149570
0.100368 0.033823 0.704323
0.125587 0.355528 0.599836
0.197309 0.050767 0.358231
0.193453 0.355664 0.754822
0.040177 0.331265 0.677364
0.070667 0.339860 0.326577
0.257705 0.289571 0.300236
0.174938 0.360009 0.766303
0.165243 0.088945 0.270415
0.045110 0.134740 0.215480
0.074523 0.346824 0.233234
0.191354 0.161858 0.155622
0.154447 0.099127 0.371787
0.103062 0.356139 0.532742
0.218325 0.161858 0.123745
0.257705 0.297700 0.492415
0.208094 0.351509 0.452022
0.098462 0.096901 0.768677
0.163302 0.105416 0.957569
0.037402 0.189755 0.410748
0.069577 0.344866 0.178810
0.218175 0.342334 0.449323
0.181501 0.354164 0.401099
0.257705 0.300565 0.425399
0.248495 0.328809 0.639105
0.215685 0.089224 0.260532
0.037402 0.299612 0.271132
0.037402 0.290205 0.607915
0.088354 0.096579 0.186899
0.208262 0.405188 0.644862
0.257705 0.227442 0.600997
0.257705 0.198686 0.284104
0.257705 0.159555 0.455763
0.102425 0.057519 0.749777
0.061212 0.113850 0.579051
0.071572 0.146783 0.175634
0.260912 0.288843 0.640628
0.256477 0.293348 0.752154
0.257705 0.309179 0.671979
0.178176 0.106937 0.066415
0.166741 0.117349 0.781858
0.257705 0.241737 0.683373
0.104734 0.066218 0.810328
0.159008 0.304669 0.182589
0.139014 0.140896 0.838483
0.247120 0.287199 0.636851
0.268201 0.228239 0.359233
0.111742 0.358603 0.623168
0.080869 0.106793 0.844300
0.190108 0.050155 0.805404
0.052675 0.116778 0.328315
0.253318 0.268254 0.779624
0.050587 0.117494 0.633060
0.031700 0.228116 0.477912
0.256795 0.267740 0.254511
0.247529 0.229258 0.494882
0.229139 0.161052 0.161243
0.269831 0.318385 0.466719
0.257705 0.216302 0.342964
0.125227 0.090662 0.768677
0.162427 0.095543 0.891458
0.115008 0.420915 0.581810
0.186031 0.116155 0.232143
0.048567 0.274305 0.630140
0.055395 0.333526 0.554630
0.234268 0.341303 0.446843
0.037401 0.282486 0.707523
0.134785 0.255106 0.189441
0.063008 0.152971 0.163420
0.119008 0.355028 0.374411
0.262851 0.326899 0.601782
0.100574 0.072762 0.180310
0.231166 0.122169 0.886932
0.049818 0.208725 0.806697
0.198153 0.099127 0.358976
0.216382 0.062196 0.188643
0.181770 0.117825 0.218018
0.099340 0.116236 0.772444
0.147849 0.098735 0.972397
0.190108 0.040701 0.687856
0.073781 0.161052 0.852635
0.090128 0.076241 0.160637
0.088424 0.390407 0.646788
0.038191 0.138466 0.390988
0.251616 0.317775 0.209471
0.257705 0.251235 0.431965
0.080426 0.076455 0.693950
0.094915 0.186698 0.911523
0.257705 0.194135 0.269833
0.256807 0.171315 0.254617
0.104734 0.090044 0.179765
0.257705 0.142755 0.557181
0.037402 0.315591 0.422377
0.037402 0.267488 0.700324
0.083454 0.061700 0.664199
0.179752 0.359553 0.809628
0.037402 0.215808 0.677759
0.200239 0.140898 0.833732
0.164743 0.124290 0.805704
0.123989 0.099127 0.421819
0.257705 0.273401 0.696353
0.063321 0.135589 0.162573
0.143535 0.099127 0.484481
0.110123 0.077284 0.231323
0.269764 0.322514 0.728194
0.057511 0.334438 0.837768
0.256449 0.251258 0.251503
0.146764 0.357137 0.149229
0.257705 0.171335 0.725882
0.184657 0.358161 0.148150
0.237355 0.334428 0.350097
0.045444 0.149007 0.201431
0.077522 0.342686 0.693461
0.215708 0.046503 0.665733
0.118032 0.359872 0.322151
0.037402 0.315088 0.317837
0.240582 0.177089 0.192655
0.068907 0.300522 0.821310
0.194486 0.038191 0.145428
0.104734 0.086475 0.193585
0.178999 0.108622 0.047820
0.037402 0.225497 0.604171
0.178970 0.403779 0.713996
0.190108 0.066977 0.851544
0.167596 0.201235 0.189441
0.157455 0.057519 0.244760
0.157495 0.112413 0.212750
0.037402 0.188895 0.298982
0.037402 0.289526 0.430148
0.116792 0.359774 0.477136
0.257705 0.286905 0.401730
0.075825 0.114027 0.111105
0.257705 0.233281 0.432141
0.156316 0.099127 0.555658
0.192841 0.417709 0.675410
0.207404 0.383770 0.697773
0.246454 0.252542 0.477374
0.099785 0.286518 0.821310
0.097548 0.161858 0.845558
0.104734 0.045993 0.841243
0.046500 0.118896 0.478816
0.048567 0.244917 0.630993
0.161848 0.361014 0.781772
0.174197 0.161858 0.891018
0.074820 0.341572 0.578107
0.143660 0.112413 0.809146
0.085958 0.140899 0.829744
0.082946 0.074204 0.305706
0.046177 0.328720 0.827456
0.230165 0.112571 0.708081
0.156509 0.425084 0.630898
0.051355 0.133915 0.202282
0.033072 0.327475 0.727055
0.230607 0.103310 0.140662
0.210576 0.418839 0.663787
0.104731 0.108149 0.271025
0.143520 0.055892 0.324035
0.037402 0.152765 0.679186
0.037402 0.261199 0.315041
0.089103 0.247449 0.182589
0.238123 0.334111 0.624066
0.060821 0.341401 0.487943
0.145232 0.357021 0.176432
0.180799 0.082627 0.768677
0.037402 0.158157 0.580780
0.161750 0.097975 0.154232
0.088424 0.402989 0.625749
0.226612 0.403504 0.618496
0.129572 0.099127 0.495568
0.104490 0.076941 0.208567
0.269756 0.323019 0.614220
0.250889 0.119868 0.288177
0.048567 0.281033 0.679269
0.048580 0.118182 0.303024
0.129871 0.431716 0.624060
0.037402 0.155750 0.466234
0.188847 0.299797 0.182589
0.170041 0.099127 0.538371
0.257705 0.301379 0.319126
0.079391 0.348752 0.870296
0.246370 0.210039 0.805651
0.037630 0.329906 0.648381
0.037402 0.141512 0.464077
0.080695 0.343994 0.760634
0.106969 0.099127 0.638595
0.034797 0.328395 0.136200
0.254240 0.325813 0.615230
0.235277 0.230398 0.187528
0.145057 0.057519 0.255568
0.211234 0.350421 0.624170
0.037402 0.190052 0.334521
0.099786 0.147690 0.919095
0.102949 0.351168 0.417473
0.083405 0.225416 0.182589
0.247352 0.233711 0.374805
0.131681 0.112413 0.064665
0.097292 0.422705 0.581024
0.225371 0.344825 0.333795
0.258730 0.329097 0.479700
0.038312 0.138093 0.524435
0.104734 0.051271 0.322331
0.257705 0.173859 0.431552
0.126288 0.360531 0.653099
0.201448 0.161858 0.894036
0.190108 0.075198 0.308460
0.223706 0.345484 0.846163
0.203058 0.161858 0.128072
0.109081 0.057519 0.735586
0.087002 0.033703 0.322736
0.257705 0.183052 0.590763
0.175935 0.085687 0.511106
0.086255 0.059923 0.329720
0.208262 0.391955 0.649159
0.173710 0.423155 0.671595
0.037402 0.190374 0.626952
0.161750 0.111315 0.123129
0.208262 0.361114 0.611475
0.072233 0.345918 0.146980
0.190108 0.082131 0.703285
0.146622 0.099127 0.316478
0.211490 0.084981 0.712346
0.048567 0.227951 0.477690
0.234256 0.113974 0.668594
0.088424 0.391418 0.660988
0.118319 0.133564 0.189483
0.230768 0.342688 0.147986
0.194401 0.034774 0.192813
0.042694 0.124567 0.524665
0.214341 0.140871 0.904838
0.078460 0.081538 0.830984
0.073282 0.259567 0.182589
0.063250 0.103310 0.845655
0.257705 0.174399 0.301120
0.124670 0.099127 0.652344
0.163985 0.112413 0.059445
0.028914 0.227578 0.510964
0.069559 0.339404 0.644713
0.249840 0.328108 0.295570
0.183083 0.210922 0.821310
0.081565 0.066781 0.843228
0.095306 0.099127 0.522821
0.260967 0.327904 0.213004
0.169876 0.431475 0.685613
0.251132 0.288442 0.205262
0.153554 0.097602 0.181729
0.257705 0.171039 0.510213
0.058325 0.340412 0.394629
0.257705 0.231358 0.535294
0.145660 0.357053 0.411777
0.257705 0.173631 0.408321
0.246284 0.287199 0.370548
0.037402 0.320979 0.602004
0.148784 0.112413 0.145225
0.099758 0.099127 0.536478
0.104734 0.056780 0.850851
0.155263 0.356536 0.648092
0.078993 0.086293 0.660136
0.104734 0.068751 0.301105
0.208262 0.393143 0.684852
0.190108 0.083506 0.807771
0.090167 0.352479 0.363040
0.104734 0.077011 0.796567
0.254433 0.331389 0.759468
0.194463 0.052770 0.788913
0.037401 0.263209 0.300873
0.039333 0.134940 0.359856
0.143725 0.356906 0.276146
0.257705 0.312717 0.630216
0.174904 0.073858 0.266334
0.159605 0.161858 0.814639
0.208262 0.406999 0.683560
0.204714 0.060189 0.837497
0.043431 0.168596 0.793918
0.111832 0.140887 0.144158
0.257705 0.152311 0.263258
0.117720 0.099127 0.677245
0.257705 0.206662 0.586664
0.191067 0.100403 0.821271
0.067862 0.338704 0.873478
0.140263 0.117631 0.784237
0.257705 0.261332 0.703443
0.259769 0.328543 0.465868
0.071365 0.173369 0.182589
0.251139 0.169638 0.205327
0.112781 0.274386 0.821310
0.152573 0.097602 0.947569
0.143073 0.099127 0.336392
0.095838 0.071565 0.768677
0.036143 0.286682 0.342865
0.257705 0.314500 0.292361
0.207841 0.033605 0.325612
0.037630 0.185784 0.743457
0.037402 0.194270 0.730838
0.091029 0.243665 0.821310
0.037402 0.253775 0.290735
0.160042 0.400253 0.713996
0.085918 0.261197 0.821310
0.039825 0.152910 0.762554
0.039708 0.290717 0.242370
0.104734 0.051354 0.308312
0.194463 0.029833 0.157452
0.221342 0.161052 0.863973
0.257705 0.195480 0.596920
0.115108 0.354673 0.360884
0.257705 0.273518 0.714336
0.263415 0.326598 0.580790
0.263190 0.326718 0.680137
0.067155 0.343908 0.503866
0.037402 0.315288 0.503762
0.126837 0.111924 0.035021
0.037402 0.148700 0.607327
0.037402 0.236639 0.431307
0.146790 0.115228 0.100122
0.208262 0.366319 0.654777
0.252674 0.306981 0.218677
0.194711 0.100878 0.285156
0.127048 0.161858 0.128033
0.152620 0.361723 0.722943
0.090128 0.047785 0.690242
0.066725 0.144654 0.899059
0.126094 0.163374 0.814259
0.054109 0.116286 0.536669
0.171624 0.355330 0.156246
0.195853 0.161858 0.116328
0.037402 0.263539 0.540937
0.127666 0.099127 0.666449
0.173269 0.067863 0.817957
0.257705 0.264031 0.425145
0.150372 0.321028 0.182589
0.186436 0.174491 0.182589
0.039572 0.205376 0.243555
0.222333 0.256277 0.182589
0.037401 0.213208 0.594547
0.225899 0.110376 0.616179
0.257705 0.259654 0.528801
0.236833 0.334643 0.862441
0.103643 0.112320 0.256674
0.047807 0.288878 0.479997
0.216697 0.348259 0.738852
0.095809 0.099127 0.409726
0.135257 0.140883 0.873533
0.185883 0.427421 0.685488
0.063007 0.136047 0.119929
0.043847 0.269857 0.797539
0.190108 0.045641 0.340044
0.140838 0.361691 0.864100
0.037402 0.155174 0.354317
0.202084 0.057519 0.736937
0.169540 0.098172 0.733666
0.052322 0.337744 0.309856
0.268201 0.227900 0.374431
0.037402 0.316940 0.711704
0.216346 0.184124 0.106550
0.182350 0.280261 0.821310
0.104734 0.087427 0.827371
0.100343 0.355367 0.261284
0.190108 0.050857 0.196209
0.042344 0.332421 0.230475
0.214417 0.063673 0.736940
0.112700 0.161858 0.128474
0.207660 0.097095 0.837844
0.063007 0.120922 0.113140
0.257705 0.175886 0.539287
0.069161 0.405802 0.602870
0.037402 0.257800 0.456917
0.157227 0.099127 0.662366
0.190108 0.055854 0.148657
0.058276 0.114857 0.654041
0.106917 0.099127 0.394810
0.158865 0.140895 0.164080
0.116988 0.103324 0.768677
0.209304 0.101837 0.664408
0.113872 0.099127 0.378973
0.257705 0.176554 0.523980
0.081877 0.046503 0.224560
0.185232 0.227352 0.821310
0.209142 0.087824 0.790029
0.037402 0.312261 0.582816
0.257705 0.148966 0.586851
0.079616 0.201178 0.897855
0.204675 0.140892 0.850545
0.046544 0.118881 0.427704
0.106824 0.220592 0.821310
0.134823 0.317924 0.182589
0.257705 0.247573 0.273544
0.243971 0.245758 0.195931
0.142761 0.140888 0.856753
0.230030 0.112501 0.451878
0.037402 0.278746 0.384549
0.257705 0.199374 0.299886
0.037402 0.314923 0.633695
0.166192 0.140877 0.116801
0.216521 0.308701 0.821310
0.116179 0.235499 0.821310
0.190564 0.061489 0.818320
0.171255 0.099127 0.521715
0.063016 0.342269 0.693109
0.183428 0.327339 0.821310
0.105409 0.161858 0.826341
0.177820 0.140883 0.873125
0.145437 0.099127 0.300985
0.249593 0.230938 0.344782
0.164336 0.088937 0.332233
0.210326 0.199970 0.182589
0.124405 0.201951 0.189441
0.170457 0.057519 0.254342
0.104734 0.073781 0.164524
0.208708 0.063674 0.255461
0.225934 0.339135 0.249117
0.168388 0.355568 0.817722
0.070661 0.109628 0.592520
0.146840 0.099127 0.537926
0.260912 0.272406 0.374404
0.176714 0.088591 0.530040
0.037562 0.329870 0.151313
0.128553 0.112413 0.051046
0.225793 0.339194 0.813155
0.185657 0.357877 0.568233
0.114506 0.354499 0.424822
0.037402 0.248940 0.558023
0.085629 0.144227 0.907668
0.122525 0.140894 0.841362
0.037402 0.247283 0.311034
0.192668 0.060670 0.182654
0.268830 0.318207 0.363027
0.037402 0.159133 0.717544
0.043851 0.230938 0.508099
0.115236 0.093008 0.231323
0.037402 0.190729 0.640887
0.257705 0.209007 0.600677
0.238262 0.115348 0.411101
0.046934 0.118747 0.677898
0.078460 0.075097 0.673519
0.045586 0.119209 0.700913
0.102804 0.099127 0.507392
0.100542 0.378122 0.712749
0.185513 0.427515 0.730013
0.195644 0.100901 0.751666
0.177284 0.347714 0.557287
0.061841 0.113635 0.316676
0.254481 0.242072 0.668431
0.181015 0.099127 0.418555
0.066397 0.129694 0.810781
0.153696 0.099127 0.676493
0.166428 0.230085 0.814259
0.093375 0.413587 0.617203
0.175091 0.171709 0.815467
0.252694 0.218195 0.785047
0.037401 0.234498 0.305476
0.094579 0.121493 0.913287
0.157596 0.356364 0.264467
0.043559 0.220876 0.208878
0.102589 0.055799 0.826907
0.241490 0.338293 0.811612
0.037402 0.256828 0.571154
0.103288 0.140873 0.106197
0.078993 0.048431 0.830924
0.081444 0.139373 0.890129
0.190262 0.099127 0.403196
0.155263 0.099127 0.644916
0.038402 0.172793 0.750170
0.169449 0.140891 0.154884
0.176287 0.359905 0.781051
0.257705 0.190456 0.523644
0.123321 0.281367 0.814259
0.131025 0.355941 0.284035
0.215586 0.075310 0.297681
0.250434 0.227578 0.665385
0.257705 0.202345 0.336530
0.156143 0.361452 0.248874
0.257705 0.255678 0.716489
0.142054 0.361788 0.653926
0.196785 0.204164 0.182589
0.207798 0.044757 0.201043
0.257705 0.145412 0.571440
0.089736 0.097528 0.311264
0.257705 0.238815 0.418444
0.227403 0.161858 0.877161
0.114780 0.420857 0.623568
0.249649 0.328207 0.713307
0.172110 0.430909 0.631190
0.205530 0.100699 0.768677
0.090128 0.058874 0.300144
0.257705 0.207673 0.265830
0.100380 0.031158 0.659253
0.044226 0.317483 0.203075
0.257705 0.218794 0.486351
0.037402 0.152466 0.282651
0.140204 0.099127 0.380452
0.257705 0.221940 0.470418
0.097082 0.187361 0.821310
0.073115 0.270049 0.821310
0.257705 0.217172 0.687347
0.217881 0.415362 0.624531
0.080610 0.140874 0.109911
0.257705 0.285945 0.430835
0.087002 0.093711 0.669960
0.144023 0.356929 0.605582
0.156181 0.361449 0.482241
0.043782 0.327472 0.249437
0.120835 0.308445 0.182589
0.170266 0.431376 0.730892
0.062520 0.342073 0.376334
0.216231 0.064949 0.811665
0.074430 0.237171 0.182589
0.037402 0.147987 0.540698
0.157919 0.424992 0.537513
0.160531 0.415797 0.713996
0.216341 0.106793 0.153373
0.203246 0.085461 0.294374
0.168511 0.355559 0.382924
0.037402 0.204805 0.351978
0.128556 0.098561 0.797986
0.208935 0.173256 0.821310
0.213469 0.059312 0.661235
0.078460 0.075848 0.336062
0.158176 0.099127 0.528407
0.144176 0.172212 0.814259
0.088424 0.377766 0.654832
0.037402 0.297102 0.395864
0.038539 0.219811 0.252539
0.213398 0.140690 0.118201
0.163447 0.099127 0.509587
0.240789 0.116215 0.299872
0.167020 0.360617 0.831263
0.086897 0.101273 0.394990
0.187586 0.262930 0.821310
0.093269 0.105448 0.250530
0.170299 0.161858 0.137289
0.190108 0.088744 0.303981
0.208262 0.351497 0.665907
0.191739 0.099127 0.699113
0.058139 0.114904 0.597338
0.087002 0.096804 0.172293
0.241684 0.319545 0.810179
0.226437 0.344403 0.650283
0.215849 0.082690 0.189343
0.156673 0.112413 0.797913
0.037402 0.159604 0.733232
0.257705 0.185160 0.317195
0.105081 0.099127 0.569182
0.090128 0.071558 0.827552
0.257580 0.154017 0.742556
0.177376 0.367036 0.557287
0.114633 0.359423 0.347205
0.168028 0.117329 0.222215
0.043628 0.154116 0.795627
0.104734 0.089230 0.347167
0.206047 0.347089 0.604305
0.156070 0.112320 0.766543
0.204443 0.098129 0.818827
0.206452 0.100369 0.347638
0.257705 0.156137 0.723190
0.228026 0.338273 0.799074
0.167488 0.244585 0.814259
0.037402 0.315235 0.484766
0.055610 0.115772 0.691727
0.040361 0.237079 0.489990
0.216382 0.077198 0.174977
0.091122 0.346059 0.704994
0.172155 0.161858 0.824851
0.168445 0.360507 0.398628
0.037402 0.217243 0.654946
0.100314 0.099127 0.493596
0.213398 0.158143 0.878605
0.139505 0.099127 0.609042
0.090128 0.072642 0.808489
0.229470 0.343202 0.235157
0.110566 0.427175 0.550110
0.212843 0.087146 0.667498
0.196052 0.140880 0.881748
0.037401 0.173881 0.511669
0.120918 0.426423 0.745542
0.104734 0.046388 0.295175
0.214417 0.056662 0.339898
0.099590 0.105013 0.317679
0.037402 0.155210 0.338591
0.214818 0.343717 0.798196
0.167907 0.355604 0.545329
0.090128 0.078541 0.663333
0.037402 0.317935 0.682836
0.078695 0.414959 0.598771
0.212538 0.349905 0.649451
0.090128 0.049435 0.315871
0.037402 0.217575 0.445182
0.203207 0.079765 0.260808
0.128438 0.154989 0.907672
0.082460 0.349966 0.587744
0.120015 0.211282 0.820715
0.104734 0.094543 0.813894
0.153580 0.361649 0.424731
0.069150 0.404332 0.719248
0.037402 0.277558 0.543573
0.257705 0.252953 0.579719
0.122127 0.360199 0.669530
0.257705 0.189517 0.664664
0.228281 0.403221 0.604732
0.035708 0.236713 0.324957
0.155495 0.361502 0.281729
0.207608 0.303773 0.182589
0.221307 0.413732 0.597331
0.214677 0.051489 0.167507
0.058180 0.114890 0.739782
0.222649 0.135589 0.829927
0.089150 0.092119 0.700081
0.217122 0.407918 0.672690
0.222959 0.345780 0.463359
0.037402 0.265306 0.282471
0.213398 0.153529 0.168254
0.091465 0.347858 0.570810
0.078669 0.348466 0.657244
0.091486 0.099127 0.337032
0.119871 0.355093 0.874322
0.131904 0.153517 0.096282
0.257705 0.285297 0.315028
0.204714 0.047909 0.826010
0.155862 0.356492 0.700088
0.125608 0.419300 0.713996
0.111055 0.353505 0.543822
0.179074 0.359691 0.217826
0.151619 0.097602 0.814248
0.130179 0.097602 0.217354
0.078816 0.348524 0.637860
0.204714 0.075756 0.824173
0.140513 0.361665 0.671057
0.257705 0.217590 0.504381
0.105832 0.140881 0.875375
0.126980 0.423995 0.557899
0.161834 0.097602 0.973948
0.081559 0.087444 0.198517
0.079496 0.051489 0.700583
0.204782 0.059094 0.203099
0.260912 0.239116 0.477515
0.078993 0.079308 0.815180
0.251119 0.120578 0.544398
0.164851 0.099127 0.431259
0.152839 0.112413 0.085180
0.208081 0.101208 0.295760
0.141238 0.113954 0.234141
0.204714 0.067676 0.337758
0.172624 0.140870 0.101001
0.124538 0.355448 0.577505
0.204714 0.072797 0.323930
0.092293 0.140878 0.881516
0.130897 0.099127 0.636837
0.073564 0.341054 0.132607
0.155887 0.361472 0.821452
0.087779 0.090615 0.848758
0.120793 0.107915 0.220371
0.090128 0.050237 0.804885
0.078460 0.071776 0.321257
0.177463 0.140887 0.143221
0.037402 0.300262 0.491263
0.056351 0.115518 0.489758
0.172034 0.355299 0.473567
0.124074 0.140880 0.882553
0.241801 0.116562 0.609160
0.257705 0.253885 0.608752
0.204714 0.075377 0.671305
0.037402 0.174406 0.488409
0.139440 0.432397 0.563856
0.090128 0.076273 0.682908
0.206128 0.044543 0.653012
0.204760 0.043916 0.699204
0.119869 0.429530 0.609529
0.171560 0.314540 0.821310
0.074873 0.341594 0.486638
0.085700 0.046765 0.266633
0.204714 0.071019 0.686051
0.090724 0.105448 0.756066
0.214879 0.088501 0.202971
0.082970 0.068985 0.263592
0.100380 0.103678 0.686980
0.088009 0.151536 0.896246
0.170728 0.118944 0.208561
0.257705 0.191775 0.352764
0.155880 0.099127 0.494198
0.257705 0.241339 0.297970
0.260912 0.288760 0.365128
0.212014 0.350112 0.335637
0.148878 0.161858 0.879158
0.201930 0.161858 0.169341
0.147320 0.362130 0.217485
0.223904 0.339972 0.861778
0.062450 0.336473 0.618371
0.036794 0.284215 0.633150
0.126844 0.101243 0.231323
0.218006 0.415303 0.610769
0.164955 0.355821 0.218259
0.104734 0.046580 0.707604
0.143199 0.161858 0.124248
0.114470 0.151536 0.906710
0.037402 0.296887 0.331459
0.158867 0.061954 0.669177
0.226013 0.106793 0.877401
0.242473 0.116792 0.460019
0.176160 0.359915 0.430396
0.208708 0.079166 0.735172
0.260912 0.286151 0.679434
0.260912 0.287422 0.333883
0.126648 0.360559 0.429734
0.071472 0.345617 0.624598
0.109103 0.419372 0.700610
0.254069 0.331583 0.431287
0.119713 0.429491 0.704915
0.125283 0.335816 0.821310
0.124314 0.355431 0.334938
0.194463 0.064135 0.361878
0.225347 0.156255 0.175634
0.157432 0.123723 0.198728
0.104651 0.161858 0.141630
0.078993 0.084178 0.164217
0.079136 0.087146 0.685275
0.196856 0.161858 0.876987
0.067229 0.111394 0.665035
0.204714 0.075522 0.309302
0.153429 0.112413 0.783670
