0.291831 0.198877 0.206990
0.404629 0.071950 0.336850
0.507470 0.190596 0.206321
0.310879 0.180896 0.509198
0.344092 0.045134 0.396790
0.416072 0.050691 0.308921
0.261570 0.102716 0.462298
0.229700 0.207561 0.565218
0.217967 0.141349 0.303304
0.362799 0.088276 0.296794
0.389777 0.192537 0.376333
0.301567 0.219311 0.431932
0.225911 0.121762 0.294364
0.471354 0.067165 0.371839
0.296384 0.046163 0.323040
0.742837 0.226539 0.533829
0.311351 0.040871 0.341245
0.451366 0.088534 0.321815
0.455299 0.121744 0.354254
0.329212 0.169636 0.242241
0.183534 0.124534 0.337541
0.550946 0.132285 0.453653
0.200507 0.079264 0.417712
0.402422 0.158458 0.372761
0.241302 0.143167 0.289977
0.143699 0.135053 0.147014
0.273438 0.127080 0.275501
0.186222 0.157728 0.352422
0.263139 0.068874 0.445507
0.399355 0.057328 0.311741
0.494179 0.190029 0.530451
0.494492 0.167616 0.522994
0.778299 0.209263 0.202919
0.625635 0.231737 0.252828
0.666527 0.257258 0.237433
0.254963 0.238838 0.370201
0.764769 0.216368 0.199626
0.425539 0.076277 0.470661
0.426063 0.119848 0.384554
0.454156 0.053469 0.328541
0.413026 0.113874 0.380330
0.225768 0.104693 0.449135
0.377020 0.174768 0.437158
0.478440 0.076694 0.397904
0.362707 0.110520 0.482064
0.386252 0.095069 0.458320
0.257096 0.236985 0.387021
0.300200 0.189144 0.527902
0.247835 0.139153 0.285695
0.266821 0.063155 0.441057
0.338376 0.156092 0.250304
0.076189 0.082642 0.118935
0.467314 0.097142 0.276919
0.454720 0.122322 0.362610
0.275717 0.176375 0.286006
0.203912 0.096610 0.314131
0.438327 0.054292 0.443086
0.323477 0.049492 0.420809
0.229097 0.060830 0.421363
0.257468 0.040596 0.389730
0.348525 0.227097 0.338253
0.390795 0.075406 0.286005
0.303849 0.081971 0.462717
0.636901 0.252767 0.253731
0.353472 0.052372 0.403323
0.817172 0.186339 0.556866
0.519646 0.099940 0.284833
0.248937 0.226415 0.181663
0.240136 0.228581 0.362488
0.341437 0.138901 0.488880
0.407800 0.105179 0.345606
0.523739 0.052039 0.377914
0.276909 0.213675 0.207595
0.264354 0.222101 0.545056
0.193150 0.118111 0.422561
0.515808 0.223107 0.201290
0.312319 0.099176 0.276754
0.371042 0.211197 0.342843
0.412936 0.112207 0.388335
0.451670 0.095130 0.415166
0.234847 0.194564 0.319318
0.590966 0.194505 0.473107
0.355067 0.051951 0.345884
0.188693 0.121080 0.416148
0.204648 0.116230 0.434111
0.389439 0.160509 0.621905
0.411293 0.064922 0.453247
0.543938 0.112478 0.280404
0.360207 0.201632 0.311405
0.494812 0.100213 0.401376
0.469678 0.054295 0.432222
0.802475 0.196046 0.558710
0.404397 0.072382 0.327142
0.409764 0.075857 0.414680
0.646430 0.243320 0.262914
0.253839 0.052053 0.321623
0.501871 0.168785 0.520276
0.213370 0.195213 0.401476
0.244227 0.043177 0.360198
0.410423 0.099987 0.379706
0.176113 0.104477 0.378743
0.363692 0.181686 0.296862
0.248079 0.165799 0.450335
0.271048 0.234678 0.341657
0.234611 0.115306 0.454500
0.276519 0.159450 0.280259
0.300885 0.074092 0.458799
0.669888 0.256709 0.507218
0.225722 0.078820 0.437970
0.235556 0.044745 0.381840
0.653084 0.264658 0.492206
0.229699 0.207031 0.408877
0.399267 0.061931 0.317936
0.205316 0.175692 0.335226
0.054754 0.061117 0.109482
0.338042 0.087022 0.459009
0.330262 0.209078 0.301634
0.517230 0.230375 0.188391
0.572112 0.164569 0.282126
0.209189 0.160046 0.424718
0.197633 0.123030 0.426510
0.049403 0.051648 0.108058
0.508606 0.188299 0.531157
0.327473 0.190288 0.286003
0.398555 0.116561 0.355408
0.595333 0.200378 0.268336
0.572884 0.145319 0.638189
0.757779 0.222577 0.211088
0.082977 0.082077 0.122135
0.797954 0.198724 0.546934
0.382129 0.111035 0.436955
0.476159 0.071664 0.390045
0.284799 0.061226 0.300599
0.672532 0.263275 0.249409
0.394862 0.129578 0.328097
0.629056 0.227186 0.268194
0.382148 0.179725 0.424698
0.454556 0.088316 0.417729
0.276231 0.049624 0.424421
0.239848 0.049759 0.335172
0.911041 0.142887 0.165810
0.547597 0.137456 0.465168
0.330765 0.241020 0.379743
0.288606 0.044608 0.328196
0.431864 0.048899 0.311376
0.392919 0.149117 0.424188
0.392501 0.168717 0.123379
0.412833 0.155025 0.232616
0.570620 0.145988 0.102535
0.602175 0.112829 0.066390
0.390469 0.117302 0.320790
0.339483 0.177128 0.282104
0.512470 0.072743 0.351838
0.352745 0.155435 0.283401
0.415606 0.117775 0.484737
0.399400 0.154101 0.344294
0.426010 0.061762 0.289497
0.571280 0.148089 0.282400
0.263007 0.040373 0.349235
0.219810 0.044397 0.388286
0.265780 0.094151 0.283006
0.089228 0.093747 0.619079
0.251434 0.100417 0.458973
0.572418 0.161023 0.111461
0.345297 0.046097 0.346036
0.460752 0.065918 0.390243
0.449018 0.065813 0.427821
0.433480 0.119754 0.371695
0.462937 0.063933 0.361100
0.371856 0.069885 0.406236
0.149507 0.139967 0.593515
0.268266 0.035871 0.378765
0.564983 0.136969 0.282153
0.259890 0.217724 0.557784
0.813441 0.193343 0.558231
0.562151 0.153745 0.470527
0.588470 0.134769 0.654424
0.496701 0.069122 0.300312
0.371057 0.183451 0.437938
0.500677 0.064741 0.307593
0.357595 0.149831 0.284815
0.447702 0.059553 0.328007
0.562371 0.143178 0.286351
0.260387 0.076425 0.450360
0.647261 0.250945 0.263594
0.179554 0.124510 0.394980
0.296830 0.151853 0.469051
0.044630 0.048447 0.102938
0.453137 0.075493 0.325976
0.252522 0.224977 0.338880
0.513001 0.222404 0.179405
0.439314 0.051689 0.425128
0.357036 0.051620 0.390687
0.277008 0.144132 0.276467
0.663971 0.260950 0.504083
0.390913 0.132400 0.317133
0.352236 0.199845 0.302602
0.181340 0.139103 0.350144
0.178709 0.089108 0.363007
0.566027 0.171615 0.632141
0.586758 0.171183 0.266490
0.328903 0.185726 0.459785
0.411196 0.101321 0.369361
0.503254 0.220416 0.552071
0.331539 0.171419 0.510953
0.229261 0.219269 0.354086
0.486860 0.147340 0.510571
0.653813 0.246715 0.494501
0.462089 0.064105 0.343486
0.411891 0.149891 0.246617
0.623397 0.077993 0.701556
0.239412 0.184100 0.307699
0.176962 0.113761 0.357183
0.200615 0.036442 0.376959
0.365046 0.127002 0.287275
0.399713 0.189945 0.584708
0.514631 0.068435 0.385686
0.377933 0.094239 0.311864
0.386797 0.092331 0.405165
0.465825 0.066483 0.351823
0.564318 0.146841 0.472607
0.356567 0.068680 0.434060
0.488991 0.048196 0.320882
0.311578 0.243710 0.355525
0.828622 0.184526 0.181509
0.469386 0.100892 0.409741
0.421162 0.102499 0.259065
0.265794 0.056219 0.432688
0.223956 0.185506 0.422711
0.621679 0.210503 0.481472
0.293184 0.041295 0.407536
0.554376 0.143896 0.285457
0.331454 0.151379 0.496095
0.295431 0.208633 0.541258
0.531779 0.105466 0.463957
0.361780 0.115613 0.256346
0.211834 0.205817 0.379752
0.210683 0.112577 0.438759
0.257767 0.230410 0.185749
0.193140 0.092355 0.416095
0.406164 0.106283 0.388184
0.479443 0.142914 0.244776
0.299041 0.200642 0.519001
0.219111 0.071694 0.315987
0.457446 0.069211 0.307345
0.458630 0.077899 0.399422
0.382649 0.128781 0.302549
0.232563 0.113551 0.290435
0.362559 0.219485 0.343045
0.289586 0.217310 0.311343
0.209755 0.062440 0.331075
0.350441 0.228961 0.346152
0.318373 0.080604 0.282966
0.233404 0.097533 0.451013
0.521963 0.074898 0.338065
0.251344 0.216269 0.551741
0.427846 0.074816 0.410644
0.458908 0.061080 0.453254
0.471955 0.094998 0.329013
0.382342 0.143560 0.441240
0.194933 0.146711 0.328627
0.631875 0.247262 0.257642
0.251196 0.068247 0.441679
0.521720 0.233372 0.565360
0.224436 0.050364 0.401966
0.365038 0.077373 0.433516
0.407052 0.180340 0.524423
0.270872 0.221655 0.322613
0.569134 0.147235 0.459188
0.389955 0.162105 0.127207
0.270345 0.053991 0.312941
0.392591 0.117255 0.416123
0.514530 0.076701 0.387761
0.258273 0.038424 0.379858
0.495380 0.064264 0.421440
0.352822 0.128146 0.494362
0.253141 0.229571 0.397651
0.280852 0.056269 0.435981
0.517785 0.228898 0.163739
0.320655 0.119227 0.273847
0.884027 0.157594 0.171167
0.549055 0.140503 0.280283
0.499980 0.075153 0.296027
0.303789 0.046741 0.422187
0.234908 0.047642 0.396962
0.308288 0.041929 0.382999
0.266759 0.224782 0.328373
0.155915 0.151566 0.150516
0.215120 0.054354 0.406196
0.485996 0.047567 0.424164
0.193034 0.073205 0.338094
0.477613 0.121259 0.494746
0.438156 0.056115 0.299871
0.434973 0.087008 0.278732
0.399305 0.170758 0.364298
0.474614 0.109796 0.335968
0.808041 0.190587 0.553563
0.494687 0.148242 0.233715
0.359868 0.051305 0.363950
0.424610 0.107232 0.272190
0.414343 0.123814 0.254653
0.184618 0.161196 0.385258
0.125740 0.122712 0.607093
0.518305 0.225252 0.580636
0.271646 0.058872 0.437043
0.254796 0.176752 0.293699
0.451299 0.063231 0.399766
0.364749 0.095522 0.448666
0.414286 0.064720 0.293706
0.328901 0.159013 0.496583
0.350891 0.234381 0.375473
0.593526 0.123982 0.076165
0.238393 0.215777 0.337899
0.222837 0.042802 0.366210
0.347221 0.207046 0.306563
0.334532 0.151756 0.235695
0.575768 0.150740 0.107177
0.420379 0.156669 0.245924
0.408321 0.175044 0.510183
0.343565 0.074788 0.293893
0.500426 0.074948 0.450643
0.415978 0.180893 0.510085
0.368326 0.120804 0.255633
0.246513 0.224611 0.564163
0.399754 0.120855 0.385742
0.259527 0.054104 0.316119
0.851074 0.169689 0.564277
0.456411 0.115258 0.338809
0.362717 0.217313 0.405391
0.283849 0.034087 0.374937
0.439860 0.060652 0.335685
0.337704 0.229779 0.335362
0.213761 0.208926 0.370161
0.483879 0.111541 0.488031
0.315630 0.215260 0.436322
0.361706 0.180679 0.448458
0.516521 0.080315 0.405085
0.405651 0.195376 0.536682
0.380587 0.134624 0.444529
0.419915 0.087018 0.272713
0.392606 0.086169 0.399292
0.333472 0.103734 0.465043
0.505849 0.110509 0.389478
0.494949 0.079930 0.349222
0.436976 0.063557 0.392080
0.259274 0.231452 0.556912
0.269490 0.243588 0.372087
0.211573 0.191334 0.170154
0.340210 0.183926 0.285449
0.286473 0.048845 0.318816
0.161983 0.147852 0.589625
0.219851 0.072066 0.428832
0.229500 0.044793 0.362513
0.207746 0.122987 0.436560
0.473104 0.083141 0.285258
0.251637 0.228444 0.552069
0.472602 0.079483 0.336352
0.417122 0.122011 0.492918
0.549738 0.190416 0.609115
0.188877 0.057372 0.370346
0.262072 0.224912 0.560541
0.342335 0.230613 0.401828
0.438810 0.056236 0.328251
0.426525 0.052323 0.319182
0.348626 0.226662 0.404809
0.451652 0.066493 0.311563
0.493668 0.142778 0.505691
0.491608 0.128389 0.380404
0.415711 0.175723 0.236243
0.574787 0.149682 0.275841
0.408023 0.099361 0.339591
0.208224 0.179499 0.408919
0.395661 0.117027 0.338518
0.482866 0.073186 0.386822
0.469434 0.080956 0.472496
0.059129 0.065427 0.631931
0.351178 0.070407 0.439991
0.512855 0.199404 0.539409
0.291151 0.244109 0.389946
0.338645 0.162152 0.278016
0.415493 0.160777 0.228480
0.337125 0.221779 0.321445
0.373556 0.158456 0.447180
0.367712 0.165082 0.449844
0.419370 0.092446 0.473655
0.512346 0.059725 0.383797
0.191704 0.104547 0.324955
0.288083 0.208934 0.200005
0.423661 0.114483 0.343097
0.331298 0.054846 0.434074
0.201368 0.193881 0.378947
0.284730 0.143323 0.274842
0.245588 0.221161 0.552376
0.315254 0.243917 0.385169
0.484657 0.067376 0.346166
0.328842 0.162619 0.276456
0.264812 0.044101 0.335373
0.347579 0.146009 0.255678
0.521418 0.082307 0.296028
0.417637 0.118206 0.264217
0.336452 0.147537 0.491928
0.501017 0.089085 0.338120
0.517152 0.088664 0.298989
0.427641 0.059168 0.452099
0.465941 0.055571 0.443057
0.290599 0.071666 0.288273
0.209938 0.173442 0.327895
0.285703 0.230801 0.414873
0.390905 0.102285 0.335914
0.196860 0.069114 0.406839
0.164631 0.157034 0.586182
0.150292 0.132361 0.599719
0.545397 0.114264 0.289662
0.612658 0.205194 0.272258
0.335951 0.238927 0.386093
0.400341 0.086028 0.363995
0.507992 0.048501 0.375094
0.370204 0.099313 0.472434
0.480099 0.095412 0.408037
0.324638 0.055011 0.311495
0.467581 0.096789 0.477134
0.411013 0.076421 0.333472
0.201711 0.102223 0.429458
0.293392 0.174739 0.280431
0.428762 0.079151 0.418029
0.501620 0.215939 0.545845
0.210477 0.204511 0.364056
0.489092 0.143267 0.234486
0.499098 0.074179 0.341550
0.375774 0.201416 0.333291
0.234109 0.210304 0.334502
0.329849 0.224048 0.321954
0.460534 0.057239 0.408946
0.310760 0.193026 0.229005
0.358864 0.224355 0.349132
0.380745 0.091316 0.320873
0.577448 0.163786 0.460776
0.489042 0.124683 0.486521
0.503971 0.060242 0.359667
0.877073 0.157846 0.175047
0.490659 0.128733 0.247887
0.408628 0.212967 0.536610
0.390029 0.127995 0.427730
0.256623 0.042903 0.399103
0.390770 0.175933 0.614496
0.344494 0.039143 0.365894
0.347160 0.039170 0.373761
0.343367 0.120552 0.464858
0.528920 0.113803 0.289834
0.233578 0.094909 0.293004
0.268088 0.185545 0.293027
0.297059 0.231182 0.416101
0.504387 0.174302 0.226485
0.253990 0.045305 0.406190
0.525583 0.231961 0.175931
0.495706 0.146360 0.241415
0.480188 0.104136 0.335096
0.295419 0.193070 0.220109
0.393079 0.148592 0.319611
0.560480 0.135106 0.468937
0.495936 0.092188 0.403578
0.431849 0.080811 0.473382
0.278578 0.245583 0.368172
0.046223 0.048998 0.639663
0.381122 0.087625 0.470341
0.382513 0.138447 0.076737
0.147009 0.141726 0.601769
0.478540 0.114628 0.268461
0.399036 0.208355 0.192122
0.425752 0.087505 0.266222
0.399946 0.165858 0.357543
0.309420 0.057969 0.441064
0.751707 0.226626 0.206049
0.357070 0.227880 0.388065
0.409756 0.073257 0.451754
0.334764 0.145081 0.468205
0.328798 0.131571 0.274596
0.218826 0.157477 0.434683
0.454370 0.121978 0.371654
0.249018 0.045209 0.400102
0.062405 0.069307 0.114195
0.318077 0.181818 0.507342
0.288420 0.227416 0.323673
0.347283 0.061808 0.431798
0.368126 0.086319 0.304871
0.410410 0.072772 0.294091
0.363441 0.154359 0.288641
0.534791 0.112855 0.449656
0.287563 0.103328 0.275825
0.600258 0.116991 0.669259
0.471006 0.066787 0.363109
0.394113 0.121496 0.330471
0.313686 0.198648 0.452917
0.418604 0.137697 0.240389
0.220530 0.117430 0.297743
0.349409 0.129683 0.463021
0.241156 0.043495 0.367301
0.514053 0.083930 0.350119
0.553749 0.055669 0.418142
0.392622 0.141161 0.424633
0.222336 0.134556 0.298677
0.395368 0.171019 0.609447
0.461670 0.074138 0.281128
0.582205 0.174935 0.476992
0.510915 0.042505 0.366737
0.513088 0.094055 0.289895
0.532872 0.214239 0.147514
0.395602 0.139116 0.418048
0.345905 0.049639 0.407006
0.360333 0.127529 0.493067
0.195195 0.108867 0.319906
0.605000 0.200374 0.468216
0.397054 0.112858 0.392629
0.179378 0.142090 0.385854
0.350011 0.184440 0.453776
0.516481 0.086048 0.283589
0.418398 0.166550 0.502650
0.368650 0.209141 0.410947
0.491603 0.070306 0.328403
0.182972 0.109497 0.337268
0.289585 0.065532 0.294554
0.512255 0.196393 0.532574
0.523642 0.107971 0.288462
0.409727 0.072555 0.320986
0.465917 0.090104 0.325556
0.470905 0.070951 0.287179
0.384107 0.092660 0.328477
0.509532 0.087596 0.288092
0.569962 0.165221 0.463511
0.227117 0.058174 0.327360
0.295969 0.205756 0.221616
0.039952 0.041594 0.103325
0.404068 0.076061 0.283854
0.363082 0.170478 0.291770
0.572108 0.166257 0.269749
0.270203 0.040576 0.343730
0.206617 0.123466 0.308243
0.556132 0.148595 0.466278
0.301750 0.040583 0.372516
0.574286 0.155268 0.283134
0.341821 0.233747 0.394990
0.379232 0.123361 0.298522
0.284606 0.220765 0.427754
0.478477 0.086542 0.273725
0.643664 0.258725 0.256940
0.322972 0.181104 0.519338
0.399641 0.062533 0.445483
0.398342 0.204573 0.565180
0.330979 0.200567 0.293867
0.568108 0.152784 0.104510
0.473889 0.058445 0.414246
0.186373 0.074980 0.395697
0.377834 0.094573 0.281718
0.226138 0.140823 0.445807
0.616963 0.087081 0.694435
0.348382 0.051332 0.336384
0.456415 0.066280 0.435184
0.394476 0.190265 0.158161
0.477132 0.088468 0.281111
0.483320 0.137345 0.239336
0.401681 0.086223 0.348206
0.479489 0.115404 0.342797
0.302784 0.191561 0.228048
0.416360 0.076326 0.405459
0.218582 0.127550 0.299720
0.302891 0.049987 0.428911
0.500196 0.180758 0.212217
0.638192 0.251598 0.261262
0.274886 0.216615 0.536342
0.295723 0.220733 0.314196
0.295150 0.061643 0.445775
0.589311 0.188800 0.478922
0.496035 0.114958 0.345829
0.326195 0.242501 0.370489
0.616032 0.093337 0.051279
0.260498 0.240718 0.374976
0.446646 0.120916 0.373980
0.257165 0.185229 0.446286
0.715790 0.244261 0.219328
0.512437 0.082284 0.458583
0.362143 0.052307 0.371499
0.286078 0.194704 0.451860
0.491874 0.139111 0.250304
0.457787 0.069261 0.348207
0.289916 0.120965 0.470151
0.483307 0.060108 0.302556
0.253912 0.059936 0.310232
0.312080 0.063655 0.447948
0.500983 0.069025 0.290320
0.382444 0.139605 0.302087
0.355530 0.044144 0.370001
0.551452 0.191963 0.616402
0.205283 0.042878 0.384324
0.254980 0.162484 0.455323
0.243438 0.203655 0.320285
0.432729 0.103478 0.267092
0.389427 0.148220 0.313077
0.583529 0.163027 0.278503
0.360822 0.164807 0.454666
0.287700 0.245221 0.362210
0.687641 0.253206 0.234538
0.416515 0.066363 0.376310
0.402527 0.082115 0.457105
0.415920 0.130700 0.246106
0.364673 0.064892 0.330683
0.208882 0.100640 0.308847
0.243390 0.044151 0.387908
0.485551 0.072433 0.420636
0.199701 0.093626 0.424149
0.397535 0.110251 0.359514
0.401294 0.121250 0.375263
0.434056 0.072734 0.334904
0.293915 0.080890 0.281918
0.175932 0.131964 0.367169
0.304534 0.033911 0.365285
0.516392 0.062222 0.355691
0.584928 0.172996 0.280029
0.277832 0.072191 0.452549
0.639369 0.043876 0.717058
0.387816 0.118935 0.313739
0.502398 0.118217 0.386961
0.410601 0.059475 0.447224
0.507657 0.049834 0.366601
0.346038 0.147230 0.503244
0.559107 0.169737 0.117451
0.241852 0.155037 0.450930
0.550831 0.140032 0.457610
0.631026 0.233343 0.475505
0.334808 0.141065 0.275317
0.235152 0.104945 0.453930
0.393309 0.190174 0.588738
0.527464 0.109703 0.450895
0.363970 0.214794 0.334408
0.257310 0.228000 0.404370
0.859287 0.170450 0.566675
0.295582 0.239176 0.401698
0.507042 0.117514 0.369079
0.336973 0.037673 0.381106
0.490574 0.134020 0.242270
0.574128 0.172790 0.468065
0.201498 0.126113 0.313642
0.644287 0.250835 0.497535
0.416574 0.116795 0.360148
0.362998 0.225115 0.380724
0.236621 0.201024 0.323200
0.252465 0.206721 0.317356
0.358165 0.193330 0.301415
0.187076 0.128823 0.411507
0.503414 0.209177 0.211049
0.471412 0.075102 0.403466
0.312729 0.039282 0.395564
0.420089 0.116884 0.388321
0.233573 0.049586 0.339885
0.534048 0.065836 0.330000
0.463643 0.124525 0.370595
0.223799 0.197504 0.411750
0.408260 0.080726 0.406973
0.303860 0.194475 0.288828
0.333572 0.238891 0.352357
0.430569 0.055197 0.415430
0.453759 0.052442 0.438469
0.348050 0.130572 0.248751
0.311221 0.135236 0.470998
0.387901 0.155425 0.431415
0.401321 0.059090 0.327158
0.434455 0.071750 0.461416
0.215525 0.043372 0.356527
0.412732 0.212639 0.192984
0.384375 0.147959 0.305387
0.281251 0.100089 0.466279
0.468705 0.118746 0.396280
0.442379 0.066572 0.431749
0.306641 0.185534 0.217435
0.491015 0.147811 0.247745
0.518683 0.099258 0.366026
0.417673 0.051476 0.430758
0.470091 0.112003 0.482325
0.406402 0.069474 0.287947
0.645105 0.261780 0.490941
0.251843 0.192757 0.438646
0.376255 0.183474 0.431016
0.144535 0.134952 0.604431
0.414367 0.168940 0.224272
0.391476 0.076073 0.463450
0.254672 0.123905 0.281402
0.408144 0.166576 0.508571
0.176704 0.097834 0.366332
0.473007 0.060501 0.325683
0.212577 0.195552 0.575950
0.652282 0.253621 0.245747
0.443711 0.069853 0.412127
0.441760 0.064576 0.345735
0.232570 0.043837 0.372943
0.419302 0.071264 0.347753
0.424818 0.130404 0.259575
0.471233 0.080670 0.344758
0.348830 0.235041 0.366480
0.176676 0.124533 0.360575
0.381668 0.084910 0.278347
0.190867 0.084279 0.409647
0.223143 0.044916 0.358378
0.390038 0.099189 0.406381
0.423154 0.058394 0.305357
0.375598 0.085564 0.427423
0.643009 0.255441 0.484354
0.424770 0.059836 0.439511
0.614460 0.208766 0.485224
0.516553 0.214682 0.554070
0.416640 0.069073 0.302565
0.065895 0.066922 0.628932
0.356257 0.140567 0.250100
0.302704 0.102898 0.275602
0.476935 0.079696 0.412247
0.422264 0.147406 0.505879
0.238093 0.177229 0.304677
0.391551 0.175332 0.128667
0.263137 0.122294 0.278771
0.382454 0.138581 0.663426
0.339560 0.049920 0.326903
0.316173 0.235778 0.406739
0.469351 0.070063 0.442814
0.303669 0.034100 0.380887
0.302793 0.181350 0.282320
0.582381 0.183347 0.472600
0.499561 0.209074 0.540859
0.342058 0.167503 0.463211
0.283746 0.236332 0.405516
0.196182 0.151400 0.414011
0.434690 0.119251 0.390588
0.026338 0.025965 0.649363
0.466865 0.124766 0.378396
0.404149 0.083573 0.384149
0.197141 0.188268 0.374626
0.599452 0.182780 0.471239
0.417258 0.071622 0.394733
0.437123 0.121551 0.360474
0.521008 0.073977 0.372636
0.464994 0.065384 0.457321
0.344097 0.093484 0.459110
0.470937 0.107131 0.471532
0.410145 0.153360 0.240227
0.250555 0.203383 0.428860
0.441492 0.068671 0.293691
0.317320 0.167666 0.508645
0.326037 0.156032 0.503178
0.456334 0.062264 0.379038
0.488610 0.059333 0.296762
0.288985 0.034173 0.365928
0.331087 0.122424 0.275312
0.264094 0.233556 0.190014
0.646324 0.238340 0.489940
0.489185 0.066689 0.444451
0.396933 0.078258 0.385633
0.369946 0.215909 0.390893
0.246007 0.233677 0.373373
0.217951 0.086774 0.305718
0.400143 0.052420 0.431300
0.145489 0.140096 0.140761
0.215006 0.208253 0.359016
0.652561 0.256260 0.261572
0.405323 0.206456 0.561450
0.194037 0.156249 0.336182
0.384688 0.104229 0.465630
0.522794 0.093149 0.282244
0.902858 0.148153 0.167737
0.276785 0.238589 0.345485
0.498821 0.121046 0.351883
0.461219 0.067227 0.397979
0.365077 0.189337 0.304027
0.839564 0.177447 0.179187
0.337213 0.041389 0.350364
0.652110 0.262701 0.255238
0.512797 0.198210 0.207554
0.350168 0.042779 0.362525
0.380138 0.199335 0.339163
0.211961 0.040377 0.380531
0.208377 0.190968 0.571685
0.923190 0.133152 0.165434
0.274295 0.235620 0.402332
0.186015 0.145908 0.343180
0.468395 0.093123 0.412580
0.470909 0.117373 0.341954
0.385046 0.190132 0.336462
0.482538 0.059903 0.436255
0.252346 0.085805 0.453180
0.541977 0.198809 0.140762
0.355410 0.128950 0.282721
0.433894 0.048646 0.440935
0.360967 0.215277 0.412615
0.718406 0.238017 0.222600
0.334198 0.056968 0.307618
0.495489 0.071135 0.355365
0.442438 0.068332 0.404724
0.399866 0.113227 0.371409
0.359609 0.057383 0.404449
0.570948 0.163638 0.636644
0.190832 0.060307 0.390036
0.422135 0.116304 0.491542
0.444011 0.067478 0.334269
0.230219 0.134616 0.449742
0.286311 0.218195 0.195097
0.575248 0.151552 0.098600
0.974042 0.096180 0.593758
0.425664 0.062382 0.366536
0.185216 0.064713 0.374147
0.314488 0.166274 0.467615
0.888916 0.155477 0.572297
0.526550 0.222584 0.172208
0.431805 0.108808 0.477204
0.469769 0.062040 0.443361
0.243144 0.219386 0.406192
0.393905 0.105224 0.400963
0.554387 0.187576 0.129783
0.305647 0.169288 0.277704
0.397250 0.138461 0.331103
0.252004 0.223516 0.407299
0.363147 0.058405 0.348477
0.475175 0.079795 0.275385
0.450658 0.060718 0.436011
0.322152 0.189979 0.458115
0.181798 0.130230 0.399442
0.226080 0.051709 0.337814
0.202575 0.146154 0.424718
0.267234 0.063467 0.302481
0.503885 0.109259 0.348346
0.296465 0.184543 0.284714
0.521702 0.045268 0.364713
0.410689 0.184268 0.213385
0.407231 0.060060 0.340582
0.500143 0.124658 0.358499
0.276368 0.035619 0.360174
0.348984 0.230417 0.395643
0.256686 0.084576 0.289968
0.516798 0.044246 0.371738
0.963477 0.105568 0.151865
0.678435 0.264187 0.244546
0.201097 0.039287 0.364473
0.350240 0.103921 0.459924
0.427999 0.110747 0.402480
0.359581 0.062997 0.420881
0.498830 0.155708 0.509404
0.486920 0.124674 0.260146
0.268399 0.146427 0.278609
0.436806 0.074948 0.412890
0.311123 0.220702 0.313289
0.407120 0.107628 0.352890
0.371382 0.199547 0.419920
0.594607 0.185326 0.465614
0.515126 0.102092 0.382370
0.398772 0.128563 0.398612
0.623249 0.236145 0.258786
0.425145 0.137905 0.253996
0.297138 0.194627 0.453529
0.282752 0.244028 0.356292
0.537770 0.105610 0.280790
0.355498 0.188567 0.295402
0.264177 0.189297 0.446632
0.224217 0.164589 0.307620
0.405708 0.085765 0.376998
0.621644 0.230896 0.265887
0.206134 0.138275 0.431424
0.418651 0.100078 0.472860
0.414160 0.094988 0.406405
0.297791 0.040505 0.363502
0.421399 0.064734 0.451081
0.411111 0.148698 0.501293
0.278095 0.222807 0.320884
0.367240 0.060166 0.356567
0.361746 0.058956 0.340892
0.523416 0.222251 0.163235
0.234065 0.156610 0.446099
0.296732 0.144057 0.469974
0.356887 0.224344 0.397910
0.267751 0.037809 0.355185
0.312107 0.174191 0.232259
0.204846 0.139842 0.313735
0.479797 0.074316 0.324300
0.466575 0.095330 0.266539
0.430267 0.074089 0.300207
0.435065 0.089216 0.468805
0.401520 0.099382 0.386679
0.371715 0.099013 0.707301
0.248138 0.196919 0.432682
0.511326 0.210116 0.209456
0.483008 0.140073 0.505815
0.409645 0.159429 0.510462
0.246408 0.135933 0.457822
0.265754 0.148018 0.463490
0.624233 0.235765 0.479375
0.542968 0.109404 0.460966
0.649786 0.252641 0.481825
0.268252 0.228905 0.545082
0.413948 0.113202 0.351309
0.272596 0.125035 0.467999
0.592388 0.175231 0.467192
0.492670 0.162843 0.223278
0.600903 0.116320 0.074411
0.626295 0.217143 0.484480
0.476169 0.066461 0.424385
0.419187 0.065070 0.352951
0.344425 0.236397 0.378969
0.194046 0.165257 0.343254
0.433399 0.098501 0.472118
0.273167 0.034661 0.372028
0.206737 0.130877 0.433826
0.423070 0.064299 0.432869
0.410304 0.100385 0.361541
0.418548 0.118950 0.250790
0.360344 0.056221 0.396177
0.488675 0.126193 0.387340
0.337476 0.175851 0.462495
0.348879 0.045674 0.353453
0.293656 0.192550 0.289203
0.374440 0.114546 0.482962
0.352569 0.058188 0.323435
0.525519 0.232913 0.572349
0.167714 0.154581 0.156713
0.422953 0.123470 0.263600
0.178560 0.141289 0.360618
0.203231 0.072456 0.415836
0.587888 0.186731 0.265558
0.182100 0.148664 0.355563
0.280141 0.123810 0.274273
0.361260 0.134332 0.489799
0.258832 0.039887 0.355456
0.534594 0.117680 0.279613
0.312458 0.113040 0.469595
0.416676 0.109411 0.478934
0.505809 0.184182 0.520811
0.239882 0.211234 0.184432
0.384764 0.134848 0.438112
0.318580 0.058382 0.303836
0.402637 0.127614 0.371015
0.453076 0.119191 0.347575
0.297343 0.179470 0.461582
0.276303 0.164730 0.462089
0.521814 0.048435 0.357711
0.476473 0.066018 0.396784
0.229388 0.090680 0.446557
0.299969 0.200123 0.293568
0.413338 0.209826 0.545683
0.422055 0.152205 0.234730
0.395814 0.177685 0.143702
0.442430 0.116239 0.345044
0.195268 0.051692 0.356674
0.614903 0.095857 0.689403
0.282149 0.236005 0.338061
0.372488 0.138306 0.452087
0.208223 0.185669 0.403578
0.360064 0.067499 0.427042
0.288764 0.240309 0.398234
0.453621 0.109319 0.333814
0.515168 0.053057 0.371024
0.462977 0.072947 0.323199
0.407392 0.076243 0.342790
0.376731 0.211150 0.362648
0.276035 0.202565 0.442697
0.499379 0.065779 0.368587
0.305212 0.041471 0.361773
0.513371 0.217466 0.186143
0.449117 0.069691 0.420313
0.262052 0.107785 0.280111
0.399185 0.146099 0.403633
0.284418 0.038597 0.397749
0.402949 0.145502 0.382262
0.340496 0.212151 0.309944
0.387689 0.156342 0.630088
0.327695 0.047840 0.394576
0.388818 0.191074 0.389071
0.357209 0.127955 0.460347
0.632413 0.061998 0.036248
0.183748 0.161612 0.363880
0.485697 0.117935 0.263203
0.261877 0.087620 0.456832
0.464763 0.086178 0.458930
0.218536 0.102878 0.300115
0.294464 0.084876 0.463475
0.312971 0.191348 0.457678
0.388810 0.166267 0.319501
0.444117 0.097118 0.414299
0.426666 0.110123 0.337514
0.225274 0.127267 0.448570
0.320587 0.122967 0.469918
0.320936 0.050784 0.317895
0.186910 0.068260 0.389629
0.237897 0.088886 0.294339
0.423255 0.071418 0.447201
0.370473 0.083239 0.432721
0.519376 0.094293 0.371795
0.398814 0.068073 0.439681
0.304776 0.081107 0.281033
0.701990 0.249769 0.519375
0.276992 0.065798 0.297623
0.524307 0.068741 0.333881
0.401232 0.125652 0.361648
0.298220 0.065324 0.292997
0.572032 0.147823 0.469702
0.233546 0.103207 0.291189
0.527665 0.078074 0.333803
0.412589 0.083432 0.330042
0.434625 0.064729 0.285117
0.472792 0.121532 0.351632
0.306191 0.067149 0.291520
0.475088 0.123301 0.250403
0.175703 0.129433 0.375813
0.176716 0.140488 0.370954
0.290189 0.102746 0.468074
0.319936 0.219094 0.430884
0.268089 0.222930 0.418208
0.278752 0.034853 0.380543
0.461839 0.083723 0.280614
0.291908 0.034003 0.375155
0.449755 0.061742 0.383012
0.372002 0.103673 0.466432
0.302659 0.071935 0.286836
0.380730 0.206151 0.380147
0.537588 0.073535 0.413759
0.419493 0.064307 0.360638
0.518648 0.086712 0.372644
0.495092 0.054984 0.441592
0.402481 0.204300 0.538471
0.219618 0.063634 0.419883
0.279759 0.041273 0.339533
0.259295 0.214778 0.422804
0.366074 0.127194 0.488147
0.356302 0.055447 0.335447
0.326543 0.241176 0.355812
0.402917 0.192413 0.528525
0.294892 0.043947 0.414353
0.378156 0.068796 0.359826
0.393196 0.186007 0.379555
0.320397 0.206565 0.297845
0.488788 0.071057 0.401692
0.495508 0.070600 0.436516
0.407511 0.089454 0.366792
0.245668 0.084163 0.449989
0.390640 0.096274 0.346205
0.180943 0.080945 0.361124
0.398293 0.136964 0.405488
0.371880 0.189472 0.432087
0.421213 0.179484 0.226422
0.503627 0.066496 0.383897
0.218624 0.050526 0.342008
0.316788 0.053240 0.311600
0.227427 0.080194 0.303986
0.383830 0.074637 0.389474
0.181710 0.116670 0.341154
0.446814 0.077193 0.322120
0.514867 0.206866 0.537211
0.371077 0.155537 0.294195
0.492045 0.183724 0.219123
0.598594 0.193115 0.482099
0.221465 0.046449 0.350636
0.275130 0.241913 0.352819
0.294009 0.038829 0.398643
0.281086 0.224617 0.421793
0.490505 0.071333 0.394022
0.250446 0.217257 0.566084
0.401685 0.066510 0.408572
0.284704 0.044246 0.413916
0.207359 0.114858 0.307113
0.321091 0.162183 0.275477
0.309174 0.041439 0.372151
0.358918 0.091104 0.451374
0.478184 0.110016 0.253760
0.587120 0.186748 0.467605
0.241902 0.222812 0.398794
0.385941 0.109984 0.428981
0.269839 0.093251 0.461371
0.245926 0.061582 0.311345
0.472103 0.064642 0.403205
0.215286 0.175649 0.322970
0.234641 0.066902 0.433689
0.505861 0.057702 0.379490
0.363441 0.156357 0.455030
0.372625 0.103804 0.038135
0.254104 0.215728 0.191150
0.229658 0.053149 0.410374
0.398471 0.088714 0.281204
0.402943 0.151681 0.369169
0.273320 0.036872 0.387631
0.237953 0.189177 0.432386
0.502930 0.218942 0.199361
0.486964 0.076582 0.329651
0.514668 0.231546 0.568420
0.203782 0.184707 0.165812
0.674409 0.255211 0.236223
0.193404 0.182543 0.368445
0.530783 0.094959 0.459079
0.326435 0.037887 0.363599
0.342442 0.041140 0.389518
0.401294 0.155927 0.388433
0.338705 0.144014 0.240905
0.651980 0.260828 0.484530
0.440266 0.069692 0.451113
0.385661 0.147538 0.097141
0.261353 0.225703 0.411322
0.513029 0.078319 0.370032
0.543407 0.112115 0.452239
0.378324 0.076014 0.340870
0.330669 0.154783 0.275516
0.226294 0.063385 0.320397
0.618083 0.207095 0.475210
0.266653 0.221009 0.195546
0.329170 0.047617 0.325149
0.403343 0.197041 0.208930
0.509374 0.078069 0.405080
0.511298 0.056547 0.357003
0.909171 0.143895 0.576525
0.351017 0.143812 0.486829
0.415489 0.068896 0.446498
0.448807 0.053415 0.313497
0.928823 0.127274 0.162050
0.400179 0.166427 0.381693
0.260687 0.045500 0.410157
0.500348 0.062056 0.432731
0.151872 0.135453 0.147072
0.312153 0.173343 0.514180
0.230553 0.211783 0.340928
0.211060 0.087803 0.432424
0.213802 0.121156 0.441534
0.219804 0.213198 0.384574
0.541728 0.127114 0.453754
0.326537 0.150466 0.468899
0.575868 0.152101 0.464869
0.479261 0.096734 0.263765
0.489777 0.126672 0.353907
0.215307 0.069736 0.423263
0.635037 0.227362 0.489333
0.301184 0.244513 0.388850
0.534617 0.209270 0.593944
0.767530 0.221409 0.204531
0.112924 0.112523 0.131662
0.243048 0.098742 0.456226
0.379041 0.133954 0.297426
0.289587 0.237385 0.339110
0.195278 0.174066 0.349394
0.427166 0.139031 0.492368
0.454646 0.080137 0.319965
0.337432 0.153104 0.467132
0.252172 0.154817 0.456118
0.462311 0.089657 0.415295
0.486073 0.150852 0.232111
0.239647 0.221126 0.557653
0.334979 0.235008 0.398609
0.467385 0.072219 0.451039
0.183420 0.135835 0.342548
0.192561 0.179339 0.361663
0.373072 0.120784 0.476979
0.462256 0.107508 0.331991
0.432795 0.091426 0.475814
0.432966 0.084401 0.322268
0.219500 0.170511 0.428672
0.443908 0.055279 0.305738
0.340565 0.058865 0.433410
0.446958 0.062741 0.320727
0.638949 0.237427 0.493899
0.340079 0.197046 0.293564
0.301311 0.186445 0.222686
0.303217 0.191453 0.514915
0.475637 0.066071 0.319909
0.397780 0.100169 0.348781
0.336251 0.166002 0.506484
0.403390 0.104117 0.359529
0.400962 0.062182 0.296456
0.299264 0.094056 0.277127
0.280002 0.245539 0.375535
0.252709 0.236722 0.377141
0.379739 0.081930 0.334217
0.276568 0.152115 0.278133
0.414910 0.080538 0.411766
0.355141 0.048518 0.357719
0.356320 0.137249 0.483167
0.274390 0.212450 0.432463
0.723273 0.242386 0.522339
0.264599 0.237994 0.391579
0.272038 0.216967 0.316731
0.505516 0.216607 0.537856
0.425760 0.094615 0.480447
0.289114 0.204010 0.539723
0.626107 0.219158 0.268370
0.627804 0.069571 0.040167
0.358204 0.161613 0.286825
0.293965 0.070075 0.454547
0.510107 0.097679 0.347650
0.259355 0.210850 0.317217
0.412113 0.141465 0.244412
0.504987 0.121688 0.375732
0.357879 0.116084 0.484125
0.320637 0.074240 0.287037
0.231126 0.209228 0.178899
0.285560 0.182061 0.285196
0.476677 0.100851 0.466605
0.415691 0.104631 0.338760
0.514664 0.227680 0.194890
0.248718 0.108527 0.459628
0.522608 0.058223 0.357160
0.345606 0.136486 0.464700
0.315555 0.039831 0.347477
0.326898 0.045591 0.381988
0.413057 0.140701 0.501324
0.372839 0.062687 0.364835
0.284658 0.216030 0.550164
0.327702 0.229277 0.328407
0.300483 0.065064 0.450213
0.472022 0.099664 0.261584
0.418967 0.065522 0.312046
0.513292 0.104364 0.355520
0.395652 0.072700 0.380520
0.347541 0.097516 0.284783
0.121787 0.113998 0.608401
0.344573 0.065767 0.439448
0.437276 0.069517 0.442775
0.287568 0.245396 0.381391
0.325110 0.171531 0.517486
0.236244 0.127549 0.289482
0.336587 0.048616 0.415700
0.274957 0.230313 0.549892
0.270912 0.078480 0.288864
0.288719 0.059370 0.441426
0.541172 0.206700 0.140396
0.306629 0.180359 0.518088
0.408046 0.178683 0.220594
0.155632 0.141166 0.143258
0.401540 0.068393 0.417858
0.226158 0.169019 0.435221
0.681052 0.264906 0.508130
0.397201 0.079722 0.451708
0.182893 0.153916 0.386831
0.312908 0.239024 0.400778
0.504489 0.078495 0.348366
0.377920 0.102880 0.438524
0.430170 0.121345 0.487246
0.599836 0.187001 0.275339
0.430011 0.068484 0.280585
0.831720 0.183205 0.558132
0.634244 0.249348 0.484082
0.321548 0.084245 0.462342
0.552189 0.056298 0.324431
0.382275 0.183671 0.323772
0.385537 0.193742 0.343773
0.482776 0.154252 0.238487
0.209724 0.077582 0.318453
0.494358 0.141787 0.497177
0.421834 0.070876 0.402729
0.384519 0.098401 0.321996
0.359422 0.133396 0.249828
0.423806 0.160601 0.235850
0.603354 0.192101 0.468828
0.433812 0.071040 0.343228
0.559308 0.136170 0.287372
0.406508 0.090461 0.390383
0.412334 0.049362 0.322272
0.801210 0.192321 0.550523
0.300462 0.123416 0.273007
0.276372 0.244500 0.383165
0.395924 0.148307 0.326698
0.468357 0.071068 0.344612
0.351740 0.060191 0.425017
0.679235 0.265926 0.236274
0.393847 0.113319 0.409563
0.243099 0.043055 0.378139
0.569382 0.151919 0.642255
0.398156 0.145185 0.334553
0.182666 0.078894 0.388627
0.386208 0.156566 0.309668
0.509070 0.211691 0.533230
0.407273 0.069309 0.314709
0.283435 0.210280 0.544365
0.176980 0.104278 0.359659
0.403006 0.082152 0.337349
0.594826 0.181675 0.264260
0.293805 0.204653 0.297897
0.601323 0.184316 0.267365
0.483999 0.078218 0.347073
0.289842 0.222139 0.545911
0.501253 0.185136 0.533919
0.206300 0.194639 0.392579
0.344361 0.133780 0.495069
0.343553 0.233650 0.350200
0.386221 0.171035 0.424983
0.628249 0.220727 0.475858
0.407117 0.195516 0.519025
0.394549 0.089190 0.273721
0.736026 0.230018 0.531860
0.207779 0.201045 0.384919
0.572058 0.157918 0.268620
0.312419 0.034773 0.365607
0.317177 0.167540 0.230740
0.437038 0.082411 0.418838
0.528201 0.090138 0.286928
0.546052 0.135663 0.285322
0.551917 0.182324 0.617665
0.382632 0.200890 0.353621
0.205666 0.200208 0.368601
0.500707 0.060954 0.441210
0.430319 0.069383 0.439533
0.189838 0.101374 0.415294
0.351296 0.090720 0.288406
0.474402 0.091017 0.265686
0.493356 0.156181 0.227012
0.669072 0.268449 0.240506
0.509612 0.080393 0.393448
0.345551 0.083918 0.288832
0.370047 0.120656 0.485907
0.310589 0.142146 0.272899
0.211545 0.066211 0.417107
0.382410 0.140831 0.085024
0.179896 0.079329 0.370162
0.459738 0.061063 0.402112
0.333298 0.194411 0.288734
0.395342 0.071674 0.457446
0.421160 0.165690 0.229043
0.334044 0.041551 0.395627
0.283295 0.241569 0.349222
0.281218 0.207704 0.537410
0.224548 0.213401 0.350624
0.358113 0.177630 0.291728
0.348455 0.174150 0.284836
0.262514 0.171853 0.454926
0.495774 0.061969 0.320538
0.409813 0.055657 0.304528
0.734881 0.230474 0.217048
0.387040 0.196122 0.382593
0.629159 0.239724 0.264226
0.247179 0.147798 0.455476
0.339201 0.125145 0.277244
0.425717 0.071070 0.334952
0.286732 0.201766 0.211705
0.203018 0.108625 0.311497
0.264001 0.240310 0.383349
0.792113 0.203420 0.545011
0.304157 0.192719 0.455927
0.738496 0.233265 0.211049
0.440396 0.063366 0.439352
0.237925 0.060871 0.316735
0.305578 0.129781 0.272980
0.319729 0.101138 0.466976
0.490775 0.061463 0.408744
0.929418 0.130764 0.580739
0.530882 0.099961 0.281388
0.483908 0.089902 0.330791
0.181934 0.139749 0.395586
0.249322 0.124413 0.460190
0.355852 0.101416 0.286562
0.413217 0.139857 0.493100
0.247384 0.116604 0.459918
0.431278 0.061996 0.458697
0.617193 0.216803 0.471738
0.292105 0.171131 0.463974
0.421256 0.064514 0.335541
0.398355 0.085201 0.288628
0.407486 0.055106 0.330500
0.566050 0.140577 0.468609
0.522842 0.075068 0.405969
0.238337 0.170100 0.300270
0.232605 0.224371 0.377224
0.253881 0.161533 0.288684
0.259815 0.157752 0.458897
0.214285 0.047792 0.347929
0.429192 0.123663 0.258825
0.342876 0.136322 0.245944
0.225404 0.219645 0.371622
0.671890 0.264387 0.234847
0.517964 0.079657 0.356878
0.415417 0.179331 0.217863
0.315954 0.036429 0.357162
0.463209 0.113286 0.403088
0.358199 0.120491 0.459651
0.687110 0.259084 0.229797
0.469109 0.100295 0.467112
0.198795 0.130952 0.426804
0.285600 0.216885 0.528387
0.299697 0.211427 0.208876
0.821406 0.185384 0.186051
0.562600 0.163209 0.111905
0.710463 0.247950 0.517126
0.310498 0.148018 0.470088
0.386917 0.197732 0.371741
0.326251 0.163101 0.244381
0.478507 0.137639 0.250647
0.232174 0.182154 0.311694
0.665736 0.262525 0.252829
0.496494 0.114043 0.393983
0.434043 0.113983 0.340331
0.425930 0.069797 0.458937
0.398767 0.214327 0.552165
0.381487 0.153736 0.440625
0.292488 0.204394 0.522401
0.386997 0.173037 0.322651
0.225680 0.159936 0.439201
0.187884 0.176346 0.584935
0.262206 0.131937 0.464193
0.343692 0.230990 0.342698
0.306389 0.244888 0.382894
0.493577 0.170151 0.219713
0.580628 0.174268 0.463223
0.250634 0.043204 0.392987
0.527130 0.076825 0.412110
0.468717 0.062559 0.423807
0.487717 0.053532 0.304640
0.172140 0.161470 0.159339
0.412743 0.197569 0.539543
0.361008 0.134242 0.284904
0.387129 0.126086 0.310481
0.284710 0.173204 0.281776
0.397981 0.170296 0.349546
0.464934 0.080379 0.286543
0.462651 0.082128 0.322057
0.131078 0.126562 0.137595
0.385301 0.102918 0.424683
0.247135 0.046537 0.339863
0.350820 0.181757 0.289263
0.487267 0.115255 0.345249
0.486686 0.073867 0.354858
0.558618 0.142751 0.455990
0.430165 0.121133 0.356423
0.508057 0.185241 0.216491
0.243134 0.108374 0.285891
0.487003 0.070721 0.364913
0.294993 0.049477 0.316258
0.176685 0.114207 0.384108
0.403594 0.199816 0.524314
0.322770 0.171412 0.502273
0.175710 0.116459 0.364053
0.363943 0.140834 0.287159
0.154048 0.143414 0.151816
0.409381 0.168136 0.237662
0.510798 0.194634 0.214518
0.446464 0.110906 0.403860
0.190974 0.063344 0.349466
0.634671 0.053487 0.711344
0.397007 0.156853 0.407627
0.317117 0.092143 0.278821
0.586707 0.178883 0.463764
0.374837 0.067827 0.391236
0.260470 0.164295 0.286323
0.467611 0.061398 0.435479
0.231485 0.171076 0.305681
0.186545 0.147912 0.399805
0.365611 0.103365 0.452237
0.558487 0.183121 0.119813
0.504123 0.190805 0.538385
0.180277 0.081975 0.380974
0.556942 0.128848 0.456814
0.431809 0.101649 0.480101
0.539026 0.121337 0.464879
0.337159 0.053956 0.428251
0.509931 0.046582 0.358900
0.305109 0.229991 0.418175
0.407985 0.073759 0.367209
0.421352 0.159430 0.499863
0.487225 0.108349 0.339340
0.400410 0.166543 0.372472
0.299284 0.033157 0.371720
0.619529 0.223070 0.269237
0.315179 0.093084 0.465314
0.402624 0.059223 0.412059
0.428245 0.131635 0.250190
0.427189 0.106985 0.471538
0.227247 0.047935 0.395415
0.575253 0.152234 0.635696
0.389056 0.077783 0.348558
0.484356 0.127298 0.243968
0.443871 0.063314 0.416898
0.338579 0.211799 0.435145
0.503066 0.077172 0.289505
0.363496 0.124025 0.474566
0.364565 0.124230 0.456533
0.378143 0.181580 0.313909
0.425144 0.095496 0.465229
0.210710 0.101978 0.437170
0.287456 0.110814 0.469346
0.350855 0.130298 0.262038
0.426932 0.066745 0.395802
0.401405 0.135845 0.355575
0.192826 0.180803 0.378942
0.584931 0.167414 0.475957
0.251841 0.213184 0.558814
0.379241 0.193279 0.329298
0.346901 0.198679 0.445895
0.425775 0.052276 0.429862
0.276436 0.049081 0.320095
0.372589 0.216358 0.366091
0.383935 0.166388 0.310998
0.178867 0.148648 0.371597
0.392877 0.184327 0.388770
0.330202 0.158280 0.467711
0.502816 0.214879 0.205851
0.345757 0.234731 0.388108
0.241000 0.133680 0.288056
0.483022 0.080108 0.407051
0.205837 0.149288 0.316846
0.388730 0.079835 0.397328
0.408304 0.182219 0.230964
0.403667 0.051306 0.309517
0.730018 0.231822 0.525773
0.384504 0.101316 0.476062
0.325106 0.220064 0.315721
0.195867 0.079362 0.330772
0.330450 0.044349 0.401819
0.288112 0.095636 0.466195
0.292580 0.195475 0.530225
0.246629 0.215619 0.413479
0.255981 0.107867 0.461962
0.208942 0.060974 0.410068
0.578943 0.168031 0.281820
0.398178 0.085973 0.391213
0.580027 0.145192 0.099581
0.402288 0.158018 0.381175
0.505426 0.077500 0.443058
0.805628 0.191071 0.192915
0.425041 0.092875 0.327562
0.368553 0.212620 0.403551
0.614956 0.217493 0.487230
0.338762 0.205476 0.443222
0.291057 0.223195 0.203346
0.387873 0.139688 0.433198
0.321297 0.172730 0.465528
0.415170 0.068287 0.368023
0.296064 0.108898 0.469047
0.245846 0.076599 0.446063
0.509549 0.066924 0.369476
0.280130 0.092540 0.463867
0.291650 0.037240 0.349294
0.298754 0.205693 0.445346
0.599772 0.205496 0.263467
0.487293 0.069313 0.319506
0.401765 0.096282 0.369329
0.546975 0.059027 0.417230
0.195751 0.137043 0.420692
0.416912 0.148755 0.492949
0.376925 0.205239 0.344336
0.389641 0.184081 0.340049
0.311057 0.193452 0.514764
0.195399 0.063759 0.401002
0.491369 0.130890 0.493215
0.295720 0.096481 0.467113
0.381491 0.109513 0.474007
0.234422 0.223911 0.386056
0.507572 0.058125 0.368520
0.451492 0.052330 0.422479
0.443054 0.055492 0.430478
0.518276 0.212209 0.200874
0.526118 0.228221 0.159015
0.356302 0.138777 0.495062
0.397565 0.153390 0.336192
0.607323 0.214361 0.475117
0.261274 0.172850 0.289567
0.416881 0.088733 0.410405
0.504906 0.083671 0.293016
0.243307 0.069260 0.440305
0.558873 0.153391 0.280507
0.532042 0.222424 0.588604
0.301371 0.226143 0.423712
0.289806 0.151464 0.275143
0.465408 0.078429 0.455465
0.189665 0.156751 0.400299
0.175576 0.119468 0.377616
0.331834 0.084437 0.283097
0.304646 0.153041 0.274104
0.656842 0.266246 0.248867
0.345237 0.153290 0.464197
0.289786 0.210133 0.303489
0.244199 0.159443 0.292837
0.271305 0.071352 0.293728
0.491491 0.121009 0.347630
0.477540 0.053776 0.313932
0.413369 0.075006 0.440692
0.273931 0.043577 0.333944
0.767223 0.213218 0.539996
0.399951 0.126359 0.353806
0.642732 0.249296 0.479323
0.304778 0.129858 0.470790
0.370612 0.072468 0.416834
0.759355 0.218626 0.534198
0.074094 0.074254 0.118132
0.392551 0.161125 0.418471
0.539999 0.118892 0.450868
0.422823 0.067434 0.298320
0.355651 0.171065 0.287914
0.562814 0.177229 0.116681
0.474149 0.112078 0.489119
0.454019 0.058068 0.298748
0.354205 0.161693 0.458573
0.204425 0.085903 0.424964
0.400314 0.213851 0.197246
0.442480 0.065685 0.309742
0.412717 0.160502 0.243034
0.234445 0.085022 0.445783
0.467541 0.089422 0.283069
0.337731 0.141075 0.496818
0.574583 0.146997 0.645520
0.648928 0.259290 0.496912
0.465869 0.069781 0.418613
0.623445 0.235777 0.486927
0.243177 0.082055 0.295733
0.213022 0.070716 0.321199
0.398767 0.204735 0.176740
0.505495 0.088098 0.398007
0.377832 0.073101 0.395697
0.329284 0.040372 0.389897
0.493353 0.157105 0.242307
0.301265 0.200586 0.225004
0.302934 0.040196 0.340890
0.319713 0.202765 0.448896
0.360050 0.115479 0.475496
0.355744 0.142525 0.283155
0.485233 0.126502 0.498548
0.365614 0.185282 0.442929
0.253781 0.039894 0.364331
0.272118 0.241158 0.389077
0.268732 0.178581 0.289420
0.346743 0.130240 0.487675
0.469128 0.125484 0.361014
0.471409 0.127083 0.372819
0.478434 0.069400 0.359355
0.443652 0.086187 0.321228
0.524307 0.223554 0.585067
0.304935 0.183331 0.228580
0.267939 0.156541 0.281589
0.317066 0.044819 0.388899
0.307729 0.234736 0.410018
0.290331 0.199908 0.218260
0.432263 0.095145 0.413561
0.390946 0.073815 0.358022
0.330790 0.172200 0.464836
0.488261 0.080856 0.401435
0.401250 0.062986 0.433560
0.424501 0.119866 0.361545
0.387907 0.177110 0.328910
0.216675 0.040352 0.370434
0.569915 0.159657 0.630290
0.316872 0.183978 0.461422
0.232821 0.069130 0.307870
0.480441 0.116853 0.249803
0.207034 0.096776 0.432828
0.492430 0.070962 0.346250
0.352169 0.142813 0.462238
0.462600 0.075355 0.408097
0.422636 0.117492 0.350622
0.356402 0.152656 0.459156
0.538311 0.105232 0.450881
0.176402 0.165281 0.590194
0.362506 0.071095 0.313991
0.200111 0.181788 0.348633
0.523786 0.053540 0.363241
0.800206 0.198541 0.186325
0.795800 0.195239 0.555013
0.324767 0.037868 0.383534
0.211126 0.106915 0.305186
0.169397 0.156768 0.593689
0.205255 0.047215 0.353029
0.294053 0.039509 0.341856
0.657178 0.259744 0.498230
0.396400 0.163844 0.404860
0.314266 0.037983 0.387713
0.486582 0.061323 0.339635
0.299439 0.037837 0.348236
0.433158 0.115078 0.398037
0.199812 0.054388 0.395402
0.505893 0.064791 0.294791
0.374955 0.192955 0.421984
0.392610 0.181019 0.134462
0.281697 0.157106 0.465539
0.209787 0.076566 0.424995
0.147438 0.131123 0.141063
0.395479 0.175004 0.397703
0.417849 0.142352 0.253879
0.512259 0.111460 0.371428
0.418809 0.187884 0.526407
0.464214 0.059456 0.291524
0.500983 0.175164 0.512990
0.308850 0.242789 0.392171
0.413246 0.212133 0.200489
0.261148 0.050124 0.322840
0.104701 0.105021 0.611846
0.665523 0.267979 0.501927
0.582104 0.159663 0.468115
0.276645 0.038151 0.349433
0.475383 0.130206 0.253439
0.257946 0.063218 0.438275
0.196372 0.171605 0.398580
0.390385 0.081868 0.290000
0.201608 0.117522 0.312656
0.275642 0.226838 0.327071
0.277815 0.196905 0.447445
0.378373 0.173904 0.307399
0.331761 0.208364 0.442757
0.468660 0.080542 0.416318
0.345253 0.130372 0.278936
0.395083 0.075492 0.279623
0.242965 0.213629 0.556249
0.361518 0.054157 0.383858
0.324022 0.207533 0.444370
0.258824 0.193107 0.441846
0.491510 0.080131 0.342084
0.672190 0.265043 0.508718
0.426345 0.064206 0.406471
0.342850 0.145866 0.465522
0.356662 0.139840 0.257606
0.499420 0.124169 0.382999
0.817422 0.191843 0.186960
0.389672 0.105358 0.328952
0.407448 0.108833 0.379955
0.405237 0.214676 0.204055
0.327449 0.160255 0.231132
0.406874 0.216787 0.552806
0.219215 0.065497 0.321979
0.273800 0.223007 0.540410
0.480512 0.095155 0.271206
0.591530 0.190642 0.276096
0.403106 0.151341 0.377403
0.276260 0.239794 0.396199
0.380973 0.078691 0.400158
0.263149 0.207110 0.311411
0.504196 0.082262 0.452833
0.514796 0.221521 0.557302
0.696367 0.247753 0.514727
0.471214 0.064351 0.334126
0.456188 0.069818 0.450643
0.406478 0.073882 0.377634
0.343222 0.188361 0.455135
0.175577 0.105237 0.367126
0.285966 0.209173 0.527541
0.376882 0.075935 0.406011
0.464170 0.074412 0.292643
0.267385 0.158469 0.461301
0.498169 0.057387 0.300807
0.401153 0.096181 0.359493
0.281607 0.207981 0.303882
0.189892 0.082949 0.336290
0.255820 0.133586 0.281848
0.397243 0.173798 0.388091
0.497481 0.200283 0.539576
0.420786 0.100542 0.273751
0.424341 0.077616 0.322995
0.299422 0.203421 0.205729
0.251877 0.175599 0.448809
0.311021 0.237360 0.338927
0.286030 0.117242 0.273971
0.194526 0.049185 0.365329
0.237232 0.213301 0.177385
0.371583 0.104655 0.446806
0.422795 0.085267 0.325624
0.288822 0.222451 0.317056
0.336266 0.079332 0.287308
0.344835 0.154421 0.493722
0.341369 0.237852 0.365905
0.412734 0.188150 0.513494
0.464229 0.121804 0.353819
0.209861 0.145992 0.311182
0.210008 0.091178 0.310572
0.457670 0.077907 0.343775
0.286173 0.068422 0.451127
0.294827 0.165889 0.277896
0.316544 0.077904 0.459686
0.416391 0.054109 0.418043
0.404383 0.074231 0.404994
0.397517 0.081080 0.356580
0.416705 0.090093 0.330253
0.251125 0.211751 0.323101
0.425043 0.126428 0.481832
0.260614 0.099918 0.282338
0.232110 0.192800 0.424017
0.232130 0.214471 0.567643
0.218247 0.184429 0.326389
0.244605 0.098738 0.287720
0.335711 0.060568 0.439580
0.431402 0.106345 0.332994
0.640107 0.231268 0.481263
0.344350 0.154613 0.502898
0.424184 0.111547 0.253534
0.225263 0.182870 0.318092
0.258474 0.150446 0.459954
0.321947 0.196615 0.453990
0.350327 0.078955 0.294722
