0.747460 0.253882 0.124885
0.433755 0.170478 0.355844
0.901884 0.108952 0.132951
0.214952 0.226000 0.105902
0.653024 0.114756 0.036351
0.399577 0.129177 0.078254
0.140525 0.087074 0.215699
0.253107 0.270464 0.072466
0.276897 0.087074 0.390444
0.739237 0.109489 0.069817
0.577082 0.295584 0.138530
0.237006 0.087074 0.380111
0.238030 0.087074 0.101317
0.156895 0.170478 0.305135
0.181866 0.087074 0.305178
0.101304 0.170352 0.205496
0.220979 0.403593 0.323008
0.837871 0.170478 0.221225
0.621594 0.536674 0.110923
0.285524 0.087074 0.374297
0.307745 0.112544 0.025410
0.145979 0.203840 0.221544
0.202597 0.087074 0.314133
0.858738 0.106380 0.116204
0.808706 0.174513 0.197127
0.603215 0.426943 0.082785
0.830840 0.134630 0.105374
0.315203 0.087074 0.224157
0.354233 0.180757 0.325380
0.683016 0.087074 0.400320
0.457957 0.087074 0.392270
0.187210 0.142746 0.317837
0.195062 0.253882 0.155834
0.585035 0.164325 0.072292
0.549043 0.295584 0.215000
0.658725 0.513461 0.213885
0.417143 0.212180 0.344060
0.435297 0.245542 0.283697
0.256683 0.156019 0.353846
0.239467 0.255497 0.084419
0.430165 0.087074 0.125364
0.746536 0.381466 0.355533
0.720089 0.245542 0.214325
0.447725 0.128776 0.425364
0.272452 0.123415 0.430331
0.602746 0.438090 0.090369
0.146343 0.151942 0.166027
0.058508 0.128776 0.270194
0.293025 0.166023 0.037483
0.579539 0.106660 0.076319
0.313616 0.212180 0.307909
0.503519 0.087074 0.178006
0.695186 0.144129 0.360253
0.491175 0.251424 0.293705
0.559183 0.155433 0.083857
0.083979 0.128776 0.296150
0.135203 0.087074 0.267071
0.319492 0.452418 0.057685
0.892540 0.087074 0.213996
0.269469 0.214209 0.058126
0.564924 0.128776 0.436595
0.415555 0.128776 0.411786
0.172356 0.170478 0.306072
0.347074 0.087074 0.420031
0.481128 0.128776 0.447479
0.785614 0.235843 0.124917
0.135127 0.139021 0.175856
0.710087 0.212180 0.256274
0.335986 0.087074 0.117833
0.496698 0.128776 0.450887
0.323985 0.087074 0.293523
0.686447 0.087074 0.315433
0.232633 0.087074 0.133375
0.220970 0.145198 0.100628
0.324404 0.398981 0.058232
0.764480 0.087074 0.376614
0.706530 0.212180 0.281737
0.517505 0.170478 0.369390
0.930932 0.128776 0.212119
0.491629 0.295584 0.199780
0.566753 0.087074 0.146911
0.523751 0.282369 0.091740
0.203435 0.122275 0.115994
0.631908 0.204194 0.329938
0.186433 0.170478 0.291655
0.440542 0.087074 0.116648
0.295545 0.487482 0.100749
0.240085 0.198466 0.083877
0.615863 0.218729 0.265463
0.757841 0.209178 0.077037
0.128456 0.128776 0.348938
0.392225 0.287244 0.221674
0.135793 0.203840 0.211351
0.373951 0.200649 0.329515
0.418019 0.110962 0.083721
0.722068 0.212180 0.214170
0.358599 0.087074 0.212873
0.443171 0.087074 0.405897
0.430755 0.087074 0.162617
0.296837 0.258698 0.034142
0.670250 0.220715 0.244750
0.258419 0.212180 0.261758
0.570927 0.087074 0.112470
0.670851 0.232693 0.043272
0.553026 0.170478 0.366841
0.301537 0.187312 0.308166
0.240050 0.190688 0.280762
0.415930 0.219192 0.083282
0.821871 0.172773 0.175640
0.240602 0.212461 0.083424
0.700688 0.278094 0.149773
0.332980 0.087074 0.351231
0.234491 0.274000 0.137145
0.648112 0.179437 0.034445
0.176168 0.087074 0.317773
0.855753 0.212180 0.134566
0.716983 0.188808 0.281515
0.666766 0.087074 0.093422
0.754314 0.253882 0.096802
0.509153 0.087074 0.431982
0.588038 0.197929 0.335169
0.635946 0.525629 0.153155
0.616165 0.295584 0.197434
0.220833 0.087074 0.285938
0.467801 0.170478 0.347683
0.517683 0.087074 0.271284
0.698803 0.295584 0.072207
0.592277 0.179724 0.334703
0.317325 0.088255 0.033672
0.271390 0.265407 0.056443
0.700806 0.212180 0.295949
0.428178 0.087074 0.405887
0.734776 0.295584 0.092986
0.615878 0.533316 0.122971
0.232284 0.241273 0.209877
0.378894 0.170478 0.356992
0.439542 0.170478 0.367925
0.797205 0.087074 0.195299
0.221521 0.128776 0.389995
0.161231 0.179780 0.491785
0.703069 0.100673 0.055777
0.319445 0.096445 0.437101
0.537301 0.087074 0.183223
0.961420 0.089790 0.167764
0.798178 0.192357 0.464826
0.823896 0.121813 0.102678
0.867077 0.087074 0.250507
0.126770 0.129450 0.273955
0.389383 0.294838 0.074590
0.327135 0.237308 0.255510
0.150403 0.212180 0.197441
0.273477 0.184352 0.298012
0.419739 0.128776 0.427703
0.731125 0.188932 0.066668
0.401455 0.087074 0.429080
0.194883 0.253882 0.140776
0.457262 0.212180 0.308349
0.566092 0.123256 0.081539
0.500796 0.087074 0.293536
0.623794 0.087074 0.341593
0.607201 0.468680 0.103935
0.295513 0.095047 0.429841
0.801460 0.121748 0.093969
0.913685 0.090072 0.245478
0.645508 0.128776 0.441633
0.627889 0.530718 0.140646
0.206125 0.087074 0.194973
0.270359 0.158323 0.358799
0.719627 0.212473 0.062205
0.210002 0.092729 0.397210
0.788916 0.205793 0.089100
0.198432 0.179885 0.257535
0.308522 0.229582 0.248779
0.129862 0.087074 0.334227
0.288969 0.087074 0.153610
0.764922 0.087074 0.209091
0.455117 0.087074 0.255448
0.749499 0.103376 0.401268
0.878369 0.170478 0.179505
0.311809 0.087074 0.288298
0.449425 0.250119 0.090321
0.313168 0.330299 0.048432
0.689283 0.241364 0.230358
0.801116 0.087074 0.112040
0.135568 0.087074 0.308150
0.388045 0.237231 0.272964
0.279259 0.211206 0.308949
0.339824 0.256369 0.198187
0.769410 0.152907 0.313894
0.381979 0.212180 0.339565
0.777111 0.128776 0.323539
0.697006 0.087074 0.291691
0.341774 0.113257 0.441783
0.285936 0.261042 0.043696
0.407675 0.128776 0.451236
0.722460 0.087074 0.088991
0.081812 0.128776 0.277285
0.085088 0.116508 0.314461
0.673107 0.087074 0.324527
0.371416 0.273373 0.209594
0.125048 0.170037 0.283482
0.782344 0.123674 0.386596
0.254816 0.128776 0.404591
0.176895 0.303657 0.486388
0.917662 0.128776 0.217249
0.620213 0.463248 0.103865
0.353735 0.253882 0.203381
0.649356 0.207300 0.034928
0.311510 0.087074 0.237245
0.250844 0.170478 0.359199
0.638645 0.087074 0.063327
0.388975 0.257354 0.074443
0.188949 0.087074 0.341621
0.820338 0.087074 0.165204
0.884040 0.134808 0.184061
0.577715 0.087074 0.261023
0.632261 0.128776 0.396950
0.773218 0.287216 0.429973
0.518538 0.167628 0.409641
0.543418 0.087074 0.358035
0.641506 0.295584 0.034832
0.390758 0.087074 0.355414
0.575102 0.143942 0.395031
0.613197 0.129602 0.389131
0.532866 0.212180 0.298914
0.170727 0.086683 0.477568
0.315434 0.387218 0.044452
0.549556 0.295584 0.197533
0.363142 0.128776 0.432653
0.223183 0.087074 0.099668
0.491921 0.087074 0.145710
0.511887 0.289945 0.234931
0.342291 0.136289 0.052576
0.595452 0.293738 0.220034
0.378048 0.128776 0.425975
0.854182 0.128776 0.297550
0.486132 0.246921 0.093449
0.316645 0.295584 0.083025
0.798104 0.162138 0.302186
0.500277 0.115135 0.460869
0.606486 0.087074 0.408694
0.785467 0.136153 0.454846
0.529115 0.211682 0.349997
0.731329 0.140232 0.066747
0.504483 0.295584 0.204540
0.160553 0.084968 0.486446
0.179968 0.087074 0.219586
0.488181 0.240168 0.285186
0.731821 0.248583 0.066937
0.471870 0.128776 0.465402
0.758945 0.140413 0.077466
0.407695 0.295584 0.148942
0.315356 0.446792 0.044790
0.398123 0.087074 0.230268
0.377126 0.087074 0.104476
0.735165 0.253882 0.118435
0.576441 0.170478 0.339722
0.393959 0.087074 0.205201
0.330738 0.087074 0.324357
0.524317 0.227727 0.283700
0.245705 0.087074 0.249902
0.398419 0.102627 0.453658
0.837349 0.159134 0.260156
0.505129 0.170478 0.361437
0.391418 0.170478 0.350705
0.515046 0.253882 0.239690
0.273502 0.255731 0.166310
0.618706 0.101413 0.036264
0.407246 0.295584 0.130521
0.270352 0.289267 0.174059
0.703192 0.128776 0.409012
0.120377 0.087074 0.268406
0.116619 0.115523 0.192074
0.707599 0.128776 0.372746
0.236629 0.169412 0.086905
0.828055 0.087074 0.198629
0.553816 0.087074 0.420341
0.857342 0.195483 0.115661
0.670198 0.209551 0.316489
0.588670 0.275088 0.213634
0.228611 0.177547 0.093932
0.745362 0.265075 0.072193
0.681483 0.087074 0.371943
0.298952 0.289762 0.032289
0.416467 0.236307 0.083395
0.240804 0.170478 0.301658
0.792233 0.239739 0.481945
0.730685 0.253882 0.202209
0.216180 0.248734 0.209257
0.593086 0.087074 0.134560
0.056181 0.124049 0.245039
0.486358 0.087074 0.401407
0.221291 0.087074 0.194072
0.529223 0.087074 0.131713
0.745559 0.253882 0.154387
0.292576 0.203840 0.308095
0.574055 0.128233 0.461951
0.612949 0.179530 0.045912
0.113268 0.147778 0.195010
0.890927 0.129809 0.172836
0.160259 0.212180 0.158812
0.599439 0.090104 0.450777
0.266135 0.087074 0.418382
0.893005 0.170478 0.177867
0.771507 0.094258 0.428763
0.161027 0.226589 0.484067
0.560136 0.170478 0.386928
0.616583 0.223681 0.039821
0.511662 0.143222 0.402048
0.432464 0.278905 0.086757
0.187384 0.128776 0.335385
0.610004 0.159802 0.050846
0.197754 0.152984 0.120973
0.756427 0.087074 0.235434
0.678204 0.498845 0.255132
0.475301 0.135954 0.092739
0.625878 0.090858 0.446069
0.789515 0.170478 0.308879
0.129704 0.143180 0.276546
0.792384 0.087074 0.139441
0.358366 0.268601 0.061399
0.411276 0.295584 0.087676
0.325230 0.211886 0.040489
0.843509 0.201057 0.140322
0.172289 0.087074 0.261047
0.404017 0.209513 0.079850
0.263545 0.144498 0.063318
0.576178 0.197926 0.078154
0.615937 0.268788 0.040904
0.280972 0.477933 0.159117
0.807034 0.087074 0.098143
0.803430 0.212180 0.147940
0.257389 0.087074 0.118174
0.651275 0.295584 0.083919
0.509799 0.253882 0.272850
0.688148 0.087074 0.192505
0.627577 0.212180 0.268384
0.100937 0.120488 0.339533
0.290333 0.087074 0.080092
0.930560 0.100210 0.218006
0.571845 0.212180 0.317053
0.175302 0.087074 0.206746
0.177451 0.128128 0.388509
0.681209 0.087074 0.276491
0.273504 0.087074 0.073648
0.656720 0.253882 0.198239
0.782271 0.220187 0.130385
0.831211 0.212180 0.145119
0.324723 0.490312 0.056151
0.729843 0.087074 0.331387
0.519884 0.295584 0.113803
0.831630 0.212180 0.113761
0.275336 0.487301 0.205654
0.842430 0.170478 0.198555
0.682793 0.250686 0.047907
0.368141 0.207710 0.066763
0.278323 0.177768 0.050366
0.708335 0.087074 0.213178
0.817440 0.193214 0.100174
0.194217 0.227169 0.124072
0.846704 0.170478 0.185641
0.545802 0.212180 0.291081
0.328479 0.384600 0.046927
0.717655 0.253882 0.154122
0.340162 0.140132 0.381938
0.723011 0.212180 0.282256
0.364142 0.295584 0.144815
0.344827 0.161090 0.382916
0.607914 0.087074 0.132435
0.855031 0.127709 0.331278
0.814844 0.172891 0.099165
0.675833 0.179982 0.305754
0.462875 0.089060 0.458554
0.865680 0.142084 0.213984
0.621081 0.295584 0.105265
0.363434 0.119322 0.064180
0.846492 0.087074 0.156018
0.732719 0.087074 0.188850
0.689484 0.212180 0.288470
0.529655 0.186933 0.341584
0.494953 0.087074 0.256731
0.140731 0.087074 0.201246
0.405518 0.128776 0.436202
0.171968 0.225959 0.495542
0.165648 0.178499 0.479109
0.365399 0.170478 0.328073
0.727704 0.212180 0.201467
0.874891 0.131567 0.122473
0.632621 0.087074 0.280197
0.306754 0.170478 0.361990
0.209487 0.201979 0.110691
0.528345 0.087074 0.405511
0.786406 0.163470 0.462348
0.683792 0.494678 0.266343
0.531641 0.158650 0.399838
0.708608 0.433457 0.316244
0.551297 0.128776 0.423971
0.504836 0.087074 0.148572
0.465190 0.295584 0.107333
0.564443 0.238366 0.082092
0.487006 0.170478 0.384262
0.454972 0.087074 0.222375
0.566535 0.144520 0.081390
0.420353 0.295584 0.137702
0.469577 0.087074 0.370989
0.715097 0.092590 0.060446
0.636233 0.247686 0.029834
0.396727 0.212180 0.307744
0.105620 0.170478 0.243148
0.562657 0.293547 0.229450
0.562463 0.087074 0.168164
0.703452 0.295584 0.112095
0.923150 0.087074 0.218435
0.168016 0.241680 0.496407
0.624791 0.193383 0.323672
0.181167 0.087074 0.289083
0.176928 0.342097 0.440872
0.634284 0.127228 0.451874
0.262965 0.253796 0.236476
0.901129 0.162138 0.171216
0.253587 0.295584 0.136575
0.676888 0.087074 0.184352
0.571860 0.087074 0.365689
0.615075 0.487209 0.112901
0.372049 0.295584 0.097578
0.598511 0.087074 0.254584
0.163354 0.208597 0.239983
0.228805 0.253882 0.163930
0.518926 0.155185 0.401244
0.555896 0.087074 0.185133
0.245266 0.439083 0.263669
0.286510 0.170478 0.355386
0.875289 0.128776 0.264360
0.799161 0.128776 0.340126
0.781828 0.144104 0.086348
0.643849 0.087074 0.159541
0.491258 0.253882 0.250546
0.177597 0.239083 0.164275
0.317211 0.253882 0.232693
0.392253 0.203840 0.338026
0.909183 0.128776 0.228690
0.440607 0.295584 0.122805
0.537139 0.201614 0.340762
0.772624 0.211276 0.082777
0.280522 0.295584 0.168443
0.579813 0.087074 0.322727
0.632393 0.295584 0.119430
0.499849 0.212180 0.298539
0.306959 0.491822 0.094887
0.235169 0.212180 0.227906
0.288717 0.232438 0.041258
0.143263 0.087074 0.280734
0.439042 0.295584 0.208463
0.241042 0.284745 0.142891
0.842417 0.204720 0.109867
0.789991 0.087074 0.226899
0.255312 0.253882 0.185235
0.793317 0.266987 0.464990
0.607060 0.087074 0.204942
0.619261 0.295584 0.127966
0.543479 0.087074 0.305549
0.270827 0.164972 0.056935
0.541626 0.191861 0.089748
0.521475 0.253882 0.286801
0.559633 0.212872 0.083706
0.105421 0.128776 0.325946
0.738205 0.387937 0.363723
0.671030 0.087074 0.236445
0.454101 0.087074 0.166520
0.313107 0.401138 0.050223
0.773429 0.212180 0.172491
0.403516 0.263501 0.079670
0.316489 0.087074 0.249956
0.146824 0.160740 0.291668
0.224257 0.087074 0.210645
0.566643 0.295584 0.216546
0.563242 0.087074 0.395472
0.925171 0.128776 0.242067
0.589563 0.267108 0.068976
0.490162 0.259933 0.093713
0.784120 0.087074 0.254093
0.350571 0.153212 0.057120
0.746242 0.151291 0.331497
0.868092 0.128815 0.210052
0.791761 0.142240 0.296913
0.302803 0.087074 0.128274
0.849150 0.211968 0.146819
0.691810 0.223891 0.228447
0.598598 0.394236 0.083127
0.839805 0.146226 0.108854
0.082286 0.138118 0.222161
0.157176 0.190153 0.223494
0.298160 0.295584 0.044822
0.741037 0.284074 0.087726
0.438120 0.087074 0.208522
0.250188 0.129725 0.075023
0.329987 0.189104 0.318462
0.831700 0.087074 0.262665
0.308705 0.126724 0.026238
0.359606 0.087074 0.317312
0.326941 0.087074 0.339410
0.398281 0.253882 0.245793
0.393420 0.212180 0.289181
0.588105 0.087074 0.440640
0.157326 0.198880 0.156402
0.706625 0.295584 0.084255
0.239580 0.426942 0.283332
0.421949 0.253882 0.254386
0.291263 0.177872 0.304448
0.823415 0.090813 0.102492
0.131833 0.087074 0.235661
0.774581 0.178784 0.237839
0.561608 0.108568 0.083043
0.422623 0.170478 0.395150
0.332919 0.212180 0.306097
0.405694 0.087074 0.364471
0.572026 0.253882 0.261386
0.510897 0.211929 0.352001
0.249526 0.087074 0.330230
0.455983 0.209660 0.091473
0.765468 0.170478 0.246458
0.293978 0.127985 0.438133
0.828620 0.106167 0.104512
0.611945 0.106194 0.047594
0.527438 0.172288 0.341828
0.172887 0.213308 0.142765
0.170798 0.128776 0.357172
0.648069 0.293625 0.199695
0.680468 0.128776 0.402986
0.606193 0.087074 0.111714
0.804694 0.087074 0.223975
0.468081 0.253882 0.252527
0.293929 0.087074 0.385125
0.700588 0.272699 0.054815
0.602354 0.171303 0.331549
0.191338 0.355425 0.403740
0.789089 0.212180 0.150996
0.136298 0.197042 0.174828
0.630176 0.212180 0.307729
0.608698 0.418818 0.095501
0.754434 0.365236 0.373683
0.517802 0.212180 0.293880
0.280076 0.170478 0.304019
0.397530 0.170478 0.364037
0.611563 0.195618 0.328316
0.292200 0.295584 0.162083
0.136042 0.152608 0.175053
0.207307 0.225280 0.190414
0.096091 0.087074 0.294439
0.719256 0.295584 0.138882
0.505891 0.087074 0.364181
0.786892 0.097801 0.441225
0.464470 0.157454 0.400335
0.744398 0.198749 0.071819
0.943971 0.110413 0.196172
0.538414 0.087074 0.201046
0.233377 0.295584 0.135964
0.743876 0.214070 0.071617
0.582365 0.253882 0.232491
0.203255 0.087074 0.368866
0.322375 0.140263 0.377638
0.721143 0.087074 0.216605
0.163451 0.128776 0.311890
0.557333 0.144995 0.396997
0.497877 0.169825 0.410741
0.219876 0.417025 0.325465
0.122401 0.087074 0.323205
0.521117 0.130013 0.092010
0.509911 0.087074 0.350233
0.532696 0.202762 0.090823
0.802869 0.087074 0.301316
0.495240 0.087074 0.236798
0.761875 0.253882 0.114994
0.532884 0.126229 0.466530
0.266512 0.179479 0.060717
0.385139 0.253882 0.252132
0.526644 0.253882 0.245998
0.718967 0.445644 0.299827
0.426277 0.195712 0.339628
0.096810 0.128776 0.292460
0.808644 0.139102 0.284085
0.058985 0.112174 0.291374
0.665223 0.128776 0.387516
0.741186 0.128776 0.356524
0.650272 0.170478 0.336490
0.587981 0.180078 0.070134
0.211714 0.253882 0.139148
0.583030 0.223461 0.073762
0.426457 0.136150 0.085495
0.874869 0.128776 0.222130
0.148273 0.087074 0.185497
0.745408 0.125305 0.072212
0.640166 0.295584 0.135487
0.608848 0.212180 0.304622
0.203044 0.170105 0.336205
0.228292 0.213730 0.094211
0.776196 0.229540 0.084162
0.289539 0.128776 0.411389
0.405043 0.112484 0.080219
0.457550 0.128776 0.414247
0.919571 0.116303 0.235896
0.663771 0.087074 0.222375
0.367776 0.087074 0.357237
0.815838 0.131940 0.099550
0.294024 0.295584 0.064545
0.601589 0.138180 0.392102
0.617344 0.189878 0.038546
0.600460 0.387507 0.069811
0.111970 0.087074 0.289376
0.786144 0.087074 0.241007
0.619806 0.157949 0.386804
0.792492 0.240356 0.113667
0.665890 0.282327 0.175980
0.759644 0.087074 0.268638
0.301110 0.128776 0.424701
0.575564 0.248583 0.286460
0.541961 0.087074 0.436612
0.689121 0.295584 0.111236
0.247492 0.240337 0.077386
0.812492 0.087074 0.339216
0.923497 0.128776 0.155559
0.128951 0.156966 0.275881
0.537307 0.278109 0.090350
0.320245 0.169512 0.036190
0.480184 0.087074 0.139589
0.584408 0.212180 0.310617
0.201511 0.128776 0.338513
0.784777 0.212180 0.193451
0.676813 0.213284 0.045586
0.260635 0.183967 0.292251
0.205632 0.170478 0.292118
0.396172 0.128776 0.415251
0.833467 0.087074 0.143174
0.788191 0.087074 0.371699
0.539226 0.114689 0.090154
0.621459 0.503640 0.101790
0.432224 0.170478 0.381437
0.452636 0.238002 0.282949
0.222198 0.130017 0.099552
0.262698 0.169254 0.364870
0.844916 0.119467 0.328665
0.359880 0.252390 0.275556
0.839157 0.203840 0.152969
0.519128 0.087074 0.449230
0.734593 0.087074 0.083149
0.724691 0.261319 0.064170
0.317137 0.087074 0.128497
0.383356 0.212180 0.298398
0.456949 0.170478 0.356533
0.368641 0.295584 0.184571
0.339391 0.283185 0.198031
0.561102 0.096113 0.455039
0.591649 0.241320 0.067447
0.278239 0.137589 0.050440
0.509874 0.087074 0.196667
0.517546 0.087074 0.394234
0.641729 0.295584 0.055705
0.619423 0.087074 0.115164
0.440345 0.295584 0.169982
0.177008 0.185008 0.487158
0.475218 0.170478 0.391878
0.415064 0.087074 0.439358
0.708527 0.159589 0.057897
0.563729 0.128776 0.397383
0.333366 0.212180 0.278971
0.198022 0.253882 0.174129
0.646822 0.212180 0.307302
0.248677 0.435318 0.277396
0.124006 0.173724 0.194245
0.680752 0.087074 0.203710
0.735758 0.224686 0.195216
0.551445 0.295584 0.099511
0.180158 0.120777 0.136392
0.302060 0.295584 0.108322
0.228235 0.197690 0.094262
0.545964 0.170478 0.386452
0.381170 0.087074 0.294139
0.159044 0.087074 0.262748
0.307040 0.169543 0.025200
0.669538 0.087074 0.106844
0.367024 0.087074 0.093021
0.863238 0.115280 0.314723
0.227011 0.087074 0.404334
0.381420 0.119450 0.071728
0.701113 0.128776 0.359055
0.325752 0.087074 0.422825
0.775257 0.212180 0.205633
0.622787 0.128776 0.414597
0.367983 0.087074 0.370670
0.268349 0.489242 0.181448
0.299145 0.087074 0.256849
0.527106 0.178379 0.091396
0.609940 0.140914 0.050954
0.704036 0.449988 0.290494
0.621216 0.278129 0.032059
0.397160 0.087074 0.112540
0.237978 0.228492 0.085723
0.165007 0.087074 0.278239
0.177047 0.148735 0.487357
0.852297 0.212180 0.117378
0.649867 0.515321 0.189739
0.590054 0.101127 0.068615
0.699592 0.195186 0.054428
0.364691 0.087074 0.411407
0.456498 0.295584 0.167628
0.208555 0.087074 0.212610
0.261650 0.272537 0.159727
0.728163 0.154385 0.065519
0.813300 0.128776 0.301727
0.745893 0.253882 0.139095
0.152539 0.170478 0.243771
0.652433 0.212180 0.263203
0.485717 0.253882 0.278232
0.321806 0.256079 0.037536
0.767431 0.215880 0.154658
0.656462 0.253882 0.235216
0.283111 0.295584 0.150576
0.323961 0.201222 0.316281
0.256550 0.087074 0.073228
0.079879 0.087074 0.252695
0.484839 0.087074 0.459775
0.465935 0.087074 0.194323
0.747627 0.087074 0.322159
0.422766 0.252438 0.288749
0.600675 0.087074 0.435965
0.658671 0.127602 0.443260
0.327136 0.159303 0.042133
0.503698 0.087074 0.310288
0.215253 0.287244 0.120582
0.238515 0.419858 0.297616
0.673399 0.259322 0.044261
0.130759 0.185386 0.179682
0.794203 0.253882 0.099955
0.369888 0.087074 0.221515
0.507302 0.087074 0.121193
0.442866 0.087074 0.357497
0.719154 0.175757 0.062022
0.666816 0.245950 0.041705
0.287826 0.295584 0.100538
0.126533 0.127218 0.183387
0.634629 0.283803 0.029212
0.810041 0.170478 0.254105
0.510971 0.212180 0.308048
0.771462 0.170478 0.311497
0.433505 0.295584 0.103338
0.179577 0.193737 0.243248
0.745816 0.212180 0.190274
0.284810 0.232697 0.239132
0.540545 0.087074 0.245139
0.111677 0.087074 0.203171
0.642138 0.087074 0.200933
0.226135 0.087074 0.388803
0.372133 0.295584 0.202975
0.137943 0.116791 0.173388
0.225385 0.295584 0.104967
0.329744 0.128776 0.395925
0.715190 0.205203 0.293187
0.414840 0.087074 0.413640
0.618666 0.236285 0.036332
0.775262 0.087074 0.222721
0.360273 0.295584 0.080575
0.394446 0.132166 0.393320
0.929076 0.114909 0.220422
0.671065 0.295017 0.182365
0.470221 0.170478 0.361125
0.865443 0.118359 0.118806
0.431051 0.212046 0.348260
0.503790 0.295584 0.154997
0.877218 0.128776 0.239440
0.431997 0.253882 0.273697
0.272971 0.087074 0.263070
0.370364 0.242146 0.269255
0.832430 0.212180 0.160915
0.758347 0.126839 0.077234
0.428925 0.232587 0.086013
0.399076 0.087074 0.453418
0.784543 0.098505 0.427997
0.392835 0.128776 0.460149
0.487713 0.162138 0.406440
0.438349 0.228455 0.282049
0.689694 0.182899 0.300888
0.608689 0.482878 0.100991
0.757783 0.212180 0.224712
0.410416 0.136031 0.396669
0.292591 0.107880 0.428782
0.720813 0.427419 0.309752
0.606961 0.456864 0.091065
0.480527 0.087074 0.224096
0.470776 0.169990 0.092442
0.768417 0.087074 0.333106
0.337339 0.295584 0.067074
0.494083 0.295584 0.139695
0.065212 0.116329 0.237125
0.772963 0.113071 0.383414
0.856507 0.170478 0.176644
0.258188 0.170478 0.305744
0.210536 0.385964 0.352201
0.751074 0.212180 0.244578
0.160650 0.293837 0.484797
0.334562 0.170478 0.348042
0.842498 0.126951 0.109900
0.803863 0.128776 0.291671
0.115120 0.127989 0.352079
0.668283 0.254054 0.174178
0.455611 0.212180 0.294899
0.245472 0.267872 0.146776
0.524166 0.295584 0.182477
0.317448 0.114977 0.436683
0.234088 0.242386 0.089132
0.679955 0.253882 0.180546
0.737712 0.087074 0.374954
0.689431 0.295584 0.140706
0.822390 0.191881 0.174792
0.732500 0.285570 0.101732
0.771803 0.163034 0.082457
0.629463 0.253882 0.258076
0.544010 0.087074 0.341029
0.327118 0.267890 0.042117
0.369777 0.291821 0.217849
0.558507 0.283324 0.221555
0.783283 0.083532 0.424397
0.687079 0.087074 0.330281
0.412361 0.149313 0.397077
0.365949 0.088044 0.065561
0.175245 0.170478 0.240689
0.499123 0.200387 0.094264
0.842716 0.110352 0.109984
0.308213 0.295584 0.179368
0.673010 0.295584 0.049923
0.413162 0.090789 0.455477
0.578805 0.212180 0.293006
0.775692 0.059336 0.414836
0.846654 0.128776 0.284763
0.403208 0.158376 0.079559
0.378676 0.170478 0.391719
0.716491 0.170478 0.300931
0.869922 0.087074 0.132048
0.504817 0.128776 0.438974
0.259770 0.253882 0.171617
0.783345 0.277777 0.437683
0.559971 0.087074 0.270400
0.293821 0.212180 0.274236
0.692353 0.489421 0.276741
0.606623 0.281781 0.207400
0.924459 0.087074 0.153866
0.267341 0.295584 0.079220
0.864030 0.208753 0.122537
0.216112 0.192137 0.104885
0.628709 0.087074 0.048015
0.428994 0.087074 0.267363
0.683709 0.087074 0.293759
0.480284 0.150659 0.401319
0.096140 0.118084 0.210021
0.239703 0.125683 0.418461
0.940554 0.087074 0.149202
0.950235 0.128776 0.200118
0.232689 0.119738 0.407073
0.423743 0.128237 0.464464
0.452476 0.281107 0.090963
0.437220 0.289544 0.231973
0.512936 0.201458 0.092848
0.718426 0.087074 0.134172
0.636025 0.240073 0.258416
0.403354 0.087074 0.169506
0.569296 0.295584 0.153464
0.775423 0.170478 0.264200
0.172900 0.212180 0.231116
0.727042 0.226853 0.065083
0.938949 0.112372 0.147338
0.370048 0.133439 0.067640
0.702471 0.087074 0.418755
0.584472 0.087074 0.107261
0.260275 0.087074 0.338229
0.374568 0.212180 0.275894
0.794086 0.236136 0.464403
0.415917 0.087074 0.269397
0.407748 0.087074 0.257691
0.564081 0.295584 0.115599
0.441519 0.087074 0.432946
0.830854 0.170478 0.232825
0.522328 0.128776 0.458956
0.620067 0.087074 0.263145
0.274109 0.295584 0.066163
0.712354 0.087074 0.405050
0.577508 0.087074 0.079008
0.622484 0.287244 0.208448
0.401503 0.087074 0.413751
0.590318 0.087074 0.199476
0.809525 0.114057 0.355594
0.683480 0.087074 0.172140
0.751637 0.109546 0.074630
0.374581 0.295584 0.079870
0.176866 0.289721 0.486967
0.135762 0.166969 0.175298
0.405898 0.087074 0.213939
0.379500 0.295584 0.141680
0.623335 0.147998 0.028507
0.379055 0.187499 0.330586
0.240145 0.087074 0.221426
0.739520 0.087074 0.239661
0.737138 0.295372 0.109883
0.827542 0.103031 0.341885
0.311866 0.162308 0.382679
0.481979 0.212867 0.284796
0.606709 0.087074 0.267313
0.556033 0.295584 0.156993
0.586021 0.223198 0.275893
0.678903 0.233057 0.238207
0.214846 0.170478 0.324622
0.581509 0.253639 0.074876
0.090899 0.087074 0.263453
0.310250 0.486181 0.107140
0.299864 0.170478 0.378079
0.878200 0.087074 0.169702
0.538096 0.228069 0.282198
0.095246 0.087074 0.249774
0.638279 0.218446 0.030629
0.366297 0.087074 0.126254
0.503445 0.151938 0.093821
0.788391 0.183962 0.088896
0.830650 0.128776 0.341074
0.646734 0.534076 0.152826
0.328974 0.363362 0.053881
0.898089 0.113882 0.270870
0.527127 0.295584 0.136650
0.802442 0.135266 0.094350
0.745722 0.253882 0.108161
0.160828 0.212829 0.490928
0.754917 0.087074 0.218971
0.658922 0.087074 0.039037
0.700217 0.087074 0.350139
0.844603 0.087074 0.281979
0.463347 0.115103 0.091956
0.353919 0.087074 0.195800
0.839155 0.087074 0.251549
0.363472 0.087074 0.271484
0.728205 0.157842 0.345201
0.407215 0.253882 0.284912
0.700868 0.087074 0.333662
0.812472 0.087074 0.132446
0.235364 0.100818 0.088013
0.568156 0.087074 0.196647
0.278250 0.167254 0.370503
0.870944 0.087074 0.193535
0.323998 0.458462 0.043760
0.126293 0.200962 0.196262
0.598994 0.087074 0.290590
0.207778 0.087074 0.169032
0.456094 0.087074 0.432762
0.586446 0.294238 0.071259
0.593660 0.253882 0.250729
0.257633 0.087074 0.102356
0.277879 0.087074 0.119702
0.829991 0.183680 0.162386
0.592352 0.212180 0.330114
0.807510 0.087074 0.206481
0.312229 0.087074 0.114545
0.356192 0.133967 0.060205
0.551717 0.226732 0.280714
0.560916 0.212180 0.279818
0.440094 0.087074 0.150495
0.691475 0.087074 0.229571
0.633441 0.295584 0.203550
0.116402 0.087074 0.239113
0.900675 0.170478 0.160522
0.415812 0.162586 0.083258
0.718680 0.087074 0.247761
0.347947 0.212180 0.307031
0.197085 0.087074 0.299043
0.579370 0.295584 0.107908
0.204890 0.378814 0.392093
0.573025 0.087074 0.159349
0.583832 0.170478 0.374039
0.599997 0.128776 0.452483
0.594281 0.087074 0.163804
0.885815 0.128776 0.275295
0.405941 0.087074 0.136079
0.133215 0.170478 0.236156
0.709674 0.285078 0.058342
0.441801 0.140863 0.398926
0.224479 0.423124 0.301973
0.792966 0.201119 0.222819
0.923812 0.103055 0.228991
0.601618 0.102933 0.060144
0.435518 0.185381 0.340206
0.326236 0.295584 0.131104
0.209380 0.087074 0.152558
0.240587 0.087074 0.357423
0.186691 0.215734 0.130668
0.698081 0.101028 0.420572
0.324461 0.087074 0.108255
0.705520 0.288562 0.156400
0.438094 0.087074 0.418147
0.183513 0.087074 0.196262
0.202599 0.212180 0.212948
0.830990 0.087074 0.113043
0.652337 0.295584 0.066515
0.902432 0.089197 0.263799
0.910872 0.145772 0.140331
0.427655 0.174484 0.085746
0.626464 0.250359 0.270517
0.573581 0.128776 0.426206
0.341509 0.295584 0.193943
0.640633 0.251987 0.265561
0.211942 0.161329 0.108540
0.382417 0.105538 0.072086
0.795867 0.204749 0.472830
0.271309 0.170478 0.330529
0.337860 0.295584 0.109333
0.529891 0.087074 0.352986
0.097897 0.170478 0.228641
0.517796 0.128776 0.444881
0.642399 0.170478 0.351697
0.309355 0.217455 0.026799
0.823488 0.087074 0.325801
0.395215 0.087074 0.304144
0.160278 0.166432 0.488632
0.895730 0.087074 0.251890
0.601244 0.281398 0.060417
0.262673 0.087074 0.376694
0.771508 0.087074 0.295275
0.820983 0.170478 0.242011
0.696669 0.295584 0.099990
0.211400 0.095080 0.109014
0.595495 0.253882 0.227368
0.679306 0.120436 0.435194
0.634145 0.087074 0.260142
0.095275 0.100104 0.210779
0.185795 0.087074 0.357512
0.420498 0.253882 0.228439
0.594158 0.212287 0.273049
0.298044 0.087074 0.288759
0.491382 0.233515 0.093793
0.217637 0.189859 0.268254
0.777298 0.085539 0.441084
0.750284 0.087074 0.279990
0.620376 0.170478 0.350660
0.588677 0.295584 0.183759
0.269293 0.477650 0.189223
0.389575 0.295584 0.200153
0.780069 0.169964 0.450662
0.760395 0.192970 0.078028
0.194792 0.131690 0.123568
0.849557 0.128776 0.259427
0.339220 0.295584 0.124884
0.114049 0.128776 0.312399
0.727661 0.087074 0.104886
0.124872 0.147758 0.184842
0.605309 0.087074 0.173387
0.597230 0.293954 0.063358
0.514506 0.212180 0.333019
0.549086 0.287244 0.230345
0.168804 0.238661 0.146343
0.476262 0.121772 0.092802
0.490319 0.295584 0.154262
0.702433 0.295584 0.145542
0.570788 0.238236 0.278636
0.307472 0.147694 0.025175
0.721292 0.104943 0.062852
0.737694 0.240364 0.193752
0.779448 0.087074 0.191443
0.472168 0.113913 0.459129
0.429457 0.087074 0.439243
0.463387 0.253882 0.238059
0.152147 0.212180 0.212380
0.416973 0.295584 0.212253
0.289251 0.087074 0.129660
0.876097 0.130498 0.197006
0.257042 0.290735 0.069017
0.882601 0.087074 0.254812
0.528654 0.087074 0.304816
0.213639 0.282567 0.107053
0.414681 0.262288 0.219044
0.084262 0.095077 0.220430
0.609199 0.295584 0.097687
0.397504 0.087074 0.317895
0.619924 0.203125 0.034223
0.847255 0.129935 0.244011
0.458935 0.087074 0.208938
0.670374 0.253882 0.191978
0.690320 0.253882 0.222286
0.156931 0.153679 0.156748
0.442213 0.087074 0.131490
0.719343 0.443382 0.314529
0.215347 0.176740 0.266975
0.424107 0.264678 0.085001
0.470497 0.212180 0.316814
0.175976 0.328852 0.473238
0.162918 0.174650 0.228558
0.316487 0.439398 0.056321
0.318891 0.087074 0.094888
0.936274 0.108004 0.208703
0.629490 0.534486 0.125579
0.719092 0.087074 0.320216
0.701923 0.087074 0.113291
0.335439 0.253882 0.263735
0.652271 0.526142 0.162320
0.468229 0.272121 0.225606
0.200512 0.241910 0.118555
0.545442 0.268835 0.222962
0.160523 0.151305 0.486425
0.853350 0.170478 0.216927
0.468275 0.087074 0.131120
0.612518 0.253882 0.224229
0.709488 0.087074 0.389436
0.356372 0.087074 0.157612
0.207362 0.087074 0.290071
0.172929 0.112488 0.376460
0.697808 0.167371 0.053736
0.214254 0.087074 0.274228
0.253440 0.116614 0.414593
0.821316 0.087074 0.150172
0.597954 0.359983 0.078189
0.580642 0.087074 0.426524
0.445439 0.295584 0.110160
0.699636 0.117241 0.054445
0.578365 0.103895 0.453120
0.645662 0.087074 0.229357
0.476174 0.208314 0.092796
0.580554 0.087074 0.220964
0.204661 0.367049 0.406604
0.699012 0.254950 0.151035
0.187522 0.099151 0.129939
0.921374 0.087456 0.232961
0.609053 0.087074 0.240778
0.346054 0.087074 0.148593
0.446960 0.295584 0.219844
0.760583 0.101879 0.392834
0.808107 0.108032 0.096549
0.292114 0.190835 0.038281
0.259982 0.087074 0.246985
0.723001 0.087074 0.177673
0.802996 0.163380 0.094565
0.792708 0.212180 0.126724
0.337967 0.266179 0.050202
0.482255 0.107113 0.093195
0.117355 0.092405 0.191430
0.629416 0.268852 0.027188
0.815840 0.186304 0.185483
0.735010 0.128776 0.385197
0.596121 0.087074 0.359999
0.586153 0.128776 0.431691
0.831068 0.087074 0.310977
0.522397 0.087074 0.146434
0.205538 0.212180 0.255543
0.504109 0.200473 0.344392
0.249764 0.087074 0.386348
0.489587 0.087074 0.302427
0.225177 0.394053 0.344955
0.407211 0.253882 0.228877
0.283000 0.087074 0.229843
0.225684 0.212180 0.265856
0.237053 0.170478 0.288415
0.625930 0.239978 0.025835
0.427363 0.087074 0.111796
0.376203 0.128776 0.439041
0.406347 0.193728 0.080687
0.392845 0.195990 0.075834
0.522966 0.253882 0.268418
0.885559 0.128776 0.208150
0.269215 0.196254 0.058349
0.516118 0.087074 0.288787
0.556490 0.226675 0.084761
0.448616 0.212180 0.334454
0.546679 0.103113 0.456642
0.235589 0.137485 0.087816
0.234490 0.087074 0.194790
0.350941 0.253882 0.216864
0.124469 0.170478 0.263934
0.285121 0.087074 0.296150
0.644254 0.212180 0.276832
0.280369 0.491968 0.175887
0.950144 0.097299 0.186122
0.731164 0.087074 0.254360
0.683983 0.283429 0.162354
0.610287 0.181866 0.328764
0.655324 0.253882 0.214575
0.348961 0.087074 0.285260
0.604075 0.378632 0.085101
0.751655 0.176561 0.255224
0.886019 0.170478 0.166222
0.344237 0.235287 0.261693
0.300815 0.255933 0.181481
0.551770 0.087074 0.201396
0.829734 0.162138 0.274932
0.769042 0.087074 0.128792
0.334980 0.098835 0.440358
0.380355 0.253882 0.266679
0.545967 0.210396 0.088292
0.553765 0.253882 0.252701
0.637920 0.108327 0.030488
0.829322 0.198156 0.163479
0.454215 0.253882 0.253789
0.636707 0.170478 0.337260
0.810606 0.151368 0.097520
0.425071 0.087074 0.377485
0.717988 0.128366 0.422306
0.629933 0.087074 0.104089
0.590060 0.145037 0.393377
0.102070 0.090798 0.329481
0.658494 0.087074 0.068305
0.256528 0.087074 0.356352
0.775918 0.214239 0.140775
0.718900 0.295584 0.078544
0.435194 0.254951 0.223349
0.651886 0.130252 0.035910
0.594600 0.087074 0.345779
0.286601 0.087074 0.192055
0.380828 0.203248 0.071515
0.846264 0.087074 0.173284
0.300907 0.170478 0.349714
0.607892 0.087074 0.423075
0.214995 0.120616 0.409506
0.348206 0.170478 0.338976
0.174169 0.172186 0.494149
0.517499 0.295584 0.201580
0.315643 0.205387 0.032221
0.467886 0.257832 0.225584
0.269578 0.087074 0.348272
0.680943 0.290409 0.174921
0.530898 0.243186 0.282983
0.358766 0.087074 0.426198
0.261781 0.277125 0.064865
0.072153 0.099034 0.231042
0.666936 0.087074 0.195602
0.374533 0.120436 0.455628
0.294734 0.122834 0.035985
0.598387 0.212180 0.313118
0.897610 0.087074 0.238333
0.299456 0.087074 0.067010
0.320778 0.227271 0.036650
0.858147 0.170478 0.231338
0.300866 0.295584 0.140073
0.677072 0.129627 0.045687
0.863538 0.087570 0.118067
0.371888 0.253882 0.249832
0.372353 0.170478 0.342860
0.309856 0.197215 0.311177
0.381965 0.268732 0.071924
0.682255 0.170478 0.347489
0.558786 0.212180 0.299054
0.365767 0.151511 0.065461
0.612814 0.092957 0.046138
0.054778 0.087074 0.267216
0.072721 0.116486 0.303523
0.055619 0.128776 0.283611
0.708398 0.295584 0.128293
0.505882 0.170478 0.377911
0.417350 0.087074 0.142772
0.663828 0.170478 0.359623
0.516556 0.295584 0.099406
0.337719 0.087074 0.294251
0.344573 0.087074 0.182008
0.828604 0.170478 0.264645
0.759179 0.087074 0.393300
0.202305 0.189738 0.116985
0.694462 0.153118 0.052437
0.299126 0.170478 0.335834
0.248622 0.212180 0.228048
0.384102 0.128776 0.408443
0.521006 0.087074 0.179520
0.181417 0.087074 0.155095
0.229007 0.170478 0.327242
0.682362 0.087074 0.357945
0.301010 0.210328 0.316821
0.078850 0.170239 0.225172
0.662869 0.253882 0.248261
0.910102 0.120436 0.265053
0.297942 0.137787 0.033174
0.329000 0.087074 0.184604
0.779194 0.128776 0.346275
0.685268 0.113213 0.425097
0.723545 0.128776 0.362400
0.214185 0.128776 0.332930
0.674607 0.087074 0.410753
0.238435 0.295584 0.086685
0.715431 0.253882 0.177876
0.562380 0.269755 0.221137
0.563281 0.295584 0.203392
0.652083 0.128776 0.393879
0.301213 0.212180 0.248755
0.204325 0.253882 0.128083
0.731785 0.087074 0.140152
0.091457 0.089994 0.320094
0.232468 0.087074 0.345944
0.252533 0.469977 0.243730
0.529279 0.087074 0.431168
0.369960 0.226961 0.269170
0.903423 0.124122 0.277844
0.321743 0.480591 0.043634
0.419912 0.087074 0.305261
0.757326 0.212180 0.210697
0.788717 0.172593 0.227121
0.911011 0.170478 0.150871
0.126996 0.097131 0.350750
0.605339 0.266822 0.207846
0.379178 0.087074 0.247361
0.640935 0.253882 0.194785
0.657754 0.295584 0.181847
0.237528 0.087074 0.295114
0.404407 0.275696 0.216888
0.428073 0.128776 0.401095
0.431994 0.295584 0.145516
0.461644 0.265563 0.091844
0.343279 0.170478 0.325725
0.376999 0.166734 0.070139
0.890108 0.128776 0.226335
0.349014 0.122330 0.451802
0.469101 0.087074 0.111184
0.192228 0.365307 0.394933
0.780300 0.128776 0.369851
0.175879 0.087074 0.366583
0.475556 0.087074 0.342067
0.518092 0.282101 0.225908
0.066901 0.087074 0.236596
0.271517 0.253882 0.200654
0.387003 0.295584 0.173401
0.720400 0.170478 0.314339
0.543893 0.170478 0.356790
0.358209 0.253882 0.237209
0.443191 0.087074 0.327119
0.694345 0.213816 0.052391
0.543568 0.250414 0.089096
0.554519 0.157948 0.397308
0.331144 0.087074 0.150388
0.313369 0.158711 0.030261
0.324720 0.397260 0.043210
0.566071 0.087074 0.379355
0.592795 0.087074 0.230039
0.546192 0.087074 0.101029
0.378403 0.087074 0.381740
0.297083 0.087074 0.171258
0.684029 0.253882 0.193596
0.732762 0.087074 0.126406
0.794047 0.213673 0.111124
0.322412 0.253882 0.203901
0.933281 0.128776 0.182639
0.751127 0.087074 0.382561
0.225996 0.253882 0.181718
0.095621 0.087074 0.218009
0.213341 0.179093 0.107314
0.238168 0.128776 0.398860
0.207086 0.212180 0.239092
0.598133 0.295584 0.078421
0.623195 0.087074 0.365728
0.864927 0.160719 0.118605
0.419150 0.087074 0.097182
0.175244 0.224335 0.162205
0.659307 0.188298 0.038791
0.960654 0.097183 0.155764
0.825471 0.087074 0.215021
0.740415 0.170478 0.278905
0.729326 0.170478 0.286463
0.121034 0.186553 0.191624
0.457363 0.295584 0.188039
0.271170 0.253882 0.179580
0.361564 0.087074 0.440386
0.649237 0.170478 0.364376
0.530861 0.287244 0.232454
0.510323 0.229655 0.093116
0.531713 0.295584 0.149504
0.524816 0.191643 0.091631
0.827106 0.087074 0.290150
0.641683 0.128776 0.408230
0.524187 0.115827 0.091695
0.483702 0.253882 0.265078
0.760740 0.253882 0.128715
0.588409 0.128776 0.460259
0.312264 0.295579 0.029307
0.195015 0.170478 0.268890
0.271100 0.087074 0.363894
0.253624 0.087074 0.262255
0.412136 0.087074 0.227990
0.379185 0.089447 0.070924
0.709217 0.087074 0.226533
0.611925 0.295584 0.083064
0.182402 0.087074 0.171818
0.732981 0.271802 0.067387
0.695252 0.477516 0.285720
0.241446 0.087074 0.180724
0.860785 0.128776 0.222697
0.443027 0.216472 0.088977
0.107549 0.142638 0.256977
0.557214 0.134669 0.084518
0.699994 0.116867 0.419897
0.550806 0.295584 0.143177
0.425156 0.098698 0.085221
0.381006 0.295584 0.127746
0.776132 0.253882 0.114796
0.426840 0.088031 0.456323
0.594450 0.196911 0.065395
0.665871 0.295584 0.145568
0.702859 0.087074 0.148662
0.489935 0.087074 0.347322
0.799862 0.212180 0.160717
0.681628 0.258699 0.164127
0.279044 0.228663 0.049735
0.491050 0.295584 0.094434
0.706130 0.479643 0.275564
0.703676 0.250764 0.229772
0.350152 0.087074 0.299868
0.753522 0.087074 0.182033
0.313142 0.414877 0.050014
0.286192 0.286026 0.043472
0.621511 0.490037 0.098585
0.286944 0.295584 0.132653
0.651684 0.087074 0.190039
0.489305 0.213224 0.093657
0.851444 0.092659 0.323697
0.673498 0.212180 0.279308
0.750003 0.242312 0.183163
0.120293 0.128776 0.328073
0.193804 0.087074 0.206010
0.397571 0.276225 0.077533
0.444345 0.128776 0.410327
0.650242 0.295584 0.151074
0.162006 0.170478 0.272298
0.791786 0.087074 0.212394
0.454343 0.180348 0.091355
0.888965 0.146274 0.127936
0.715906 0.087074 0.275520
0.575115 0.295584 0.189360
0.296494 0.153625 0.034443
0.200723 0.087074 0.273285
0.686084 0.087074 0.245552
0.770689 0.087074 0.163901
0.220151 0.295425 0.135575
0.333628 0.253882 0.213997
0.487385 0.103611 0.460071
0.744598 0.378709 0.371398
0.447551 0.170478 0.378869
0.243916 0.253882 0.213547
0.423356 0.087074 0.213129
0.790521 0.087074 0.180730
0.441210 0.087074 0.171688
0.664603 0.295584 0.090374
0.724571 0.128776 0.375636
0.783688 0.087074 0.270576
0.370541 0.087074 0.235460
0.657858 0.087074 0.296939
0.317084 0.279140 0.033464
0.476319 0.170478 0.407291
0.353418 0.087074 0.367258
0.497840 0.212180 0.322942
0.662252 0.087074 0.400260
0.439807 0.087074 0.103406
0.206432 0.087074 0.382069
0.674602 0.097249 0.044726
0.718039 0.087074 0.165269
0.820865 0.119777 0.346965
0.299834 0.087074 0.412329
0.503033 0.157169 0.402733
0.146106 0.170478 0.227368
0.369634 0.087074 0.156188
0.171335 0.184737 0.235980
0.404079 0.287658 0.079872
0.200251 0.087074 0.259142
0.216591 0.253882 0.171250
0.470145 0.212180 0.298183
0.756901 0.170478 0.307710
0.644481 0.128776 0.380949
0.243080 0.254429 0.144678
0.073655 0.125410 0.229725
0.781823 0.087074 0.336018
0.739830 0.087074 0.217431
0.768903 0.326148 0.414167
0.332278 0.221456 0.046567
0.598544 0.087140 0.062395
0.469032 0.195913 0.342301
0.160857 0.087074 0.367186
0.603430 0.295584 0.202922
0.860767 0.128776 0.239554
0.169792 0.204436 0.496471
0.805558 0.201147 0.095560
0.252070 0.170478 0.345412
0.430716 0.087074 0.089810
0.470759 0.295584 0.190122
0.624624 0.215852 0.026347
0.687947 0.128776 0.392016
0.700586 0.087074 0.275906
0.484483 0.295584 0.127277
0.298327 0.105638 0.032836
0.691338 0.139636 0.051224
0.404899 0.170478 0.379157
0.405742 0.239726 0.276677
0.370403 0.180342 0.067768
0.225307 0.087074 0.260279
0.191161 0.155600 0.320046
0.219845 0.087074 0.246686
0.531661 0.087074 0.272969
0.824180 0.128776 0.326976
0.176075 0.276672 0.491431
0.455854 0.194620 0.091464
0.394132 0.253882 0.270218
0.605217 0.151596 0.391701
0.436172 0.253882 0.260262
0.483494 0.087074 0.201470
0.337621 0.295584 0.138333
0.254431 0.128776 0.390452
0.720450 0.087074 0.150518
0.794233 0.087074 0.342159
0.606791 0.203892 0.056231
0.532529 0.240244 0.090840
0.623221 0.295584 0.167502
0.450023 0.295584 0.094969
0.653658 0.252356 0.261006
0.455248 0.287244 0.226251
0.314584 0.295584 0.046846
0.165290 0.212180 0.205287
0.377090 0.295584 0.162705
0.431213 0.212180 0.326511
0.070865 0.128776 0.243857
0.615826 0.147588 0.041091
0.520291 0.087074 0.363171
0.611750 0.170478 0.396083
0.119551 0.170478 0.238127
0.690287 0.128776 0.370481
0.178992 0.212180 0.202759
0.177147 0.200546 0.485625
0.192611 0.128776 0.380467
0.659172 0.087074 0.254526
0.521557 0.268352 0.225535
0.671170 0.128776 0.427633
0.731003 0.253882 0.162593
0.542276 0.129270 0.089530
0.155802 0.087074 0.315770
0.685996 0.212180 0.233362
0.689282 0.087074 0.155303
0.700383 0.212180 0.230234
0.282330 0.212180 0.295173
0.186701 0.087074 0.261523
0.332295 0.253882 0.234069
0.170626 0.162611 0.478248
0.253882 0.211187 0.071786
0.158812 0.168079 0.155099
0.279188 0.273778 0.049609
0.514938 0.243103 0.092643
0.801764 0.181221 0.094087
0.592234 0.087074 0.214290
0.687382 0.087074 0.344809
0.163391 0.226380 0.151777
0.733846 0.170877 0.067724
0.320147 0.148960 0.036105
0.743771 0.253882 0.083515
0.418772 0.240704 0.279410
0.579973 0.239962 0.076001
0.372449 0.087074 0.142230
0.518280 0.128776 0.419060
0.625349 0.295584 0.083073
0.515490 0.087074 0.415673
0.455137 0.295584 0.126326
0.338221 0.157531 0.050342
0.817656 0.212180 0.150783
0.551199 0.243207 0.280771
0.846823 0.149260 0.244715
0.814556 0.087074 0.263278
0.872893 0.142301 0.202228
0.840684 0.087074 0.126660
0.358403 0.253882 0.251228
0.240800 0.444642 0.285514
0.487943 0.087074 0.289297
0.569822 0.098202 0.080287
0.576419 0.117351 0.453336
0.734634 0.212180 0.244935
0.610408 0.087074 0.345181
0.170120 0.087074 0.234564
0.246469 0.087074 0.343157
0.391642 0.128776 0.441680
0.517089 0.151032 0.092423
0.621777 0.170478 0.337286
0.511818 0.174472 0.343544
0.860178 0.087074 0.162516
0.866732 0.087074 0.177098
0.110502 0.087074 0.223008
0.284118 0.087074 0.354875
0.555964 0.128776 0.454639
0.270638 0.235684 0.057102
0.480698 0.295584 0.180240
0.537738 0.253882 0.257371
0.421312 0.108040 0.455981
0.693272 0.474471 0.269891
0.170925 0.140161 0.478051
0.282325 0.087074 0.140939
0.713266 0.087074 0.260760
0.724369 0.087074 0.230802
0.160822 0.087074 0.331135
0.596417 0.128776 0.423152
0.875104 0.104734 0.122556
0.329141 0.313128 0.053616
0.584755 0.087074 0.373002
0.492189 0.119199 0.093846
0.428643 0.087074 0.323744
0.352711 0.212180 0.290550
0.615039 0.212180 0.291896
0.211706 0.087074 0.302793
0.680595 0.507899 0.220769
0.616184 0.087074 0.227380
0.728083 0.087074 0.361825
0.201621 0.165875 0.117584
0.542422 0.212180 0.310558
0.688706 0.280383 0.050202
0.786976 0.212180 0.178618
0.613920 0.510855 0.117561
0.364275 0.295584 0.170288
0.495840 0.295584 0.218335
0.194255 0.176449 0.124039
0.696767 0.088199 0.053330
0.526860 0.114870 0.458846
0.316865 0.427222 0.043665
0.712010 0.087074 0.101301
0.361141 0.212180 0.276145
0.686601 0.193689 0.049385
0.799506 0.226307 0.102195
0.395710 0.087074 0.269287
0.424420 0.143628 0.397845
0.855973 0.147961 0.115130
0.471915 0.087074 0.257289
0.439968 0.087074 0.370800
0.689383 0.124645 0.050465
0.929265 0.087074 0.204730
0.392679 0.087074 0.398948
0.512591 0.087074 0.378887
0.093553 0.136499 0.212288
0.742052 0.087074 0.307373
0.853647 0.087074 0.143900
0.580566 0.087074 0.189273
0.788943 0.246426 0.135196
0.604299 0.212180 0.282016
0.278438 0.110860 0.423653
0.903026 0.128776 0.161653
0.279259 0.295584 0.049878
0.418816 0.087074 0.426476
0.382049 0.281677 0.212195
0.697279 0.087074 0.383866
0.327073 0.170478 0.332065
0.380401 0.172632 0.330868
0.281990 0.253882 0.187574
0.433714 0.087074 0.344816
0.730533 0.253882 0.182764
0.258726 0.087074 0.163265
0.314617 0.087074 0.176911
0.374487 0.146421 0.389135
0.218122 0.239326 0.103124
0.665153 0.198626 0.309503
0.345557 0.087074 0.393062
0.292878 0.087074 0.332330
0.411723 0.087074 0.291897
0.928386 0.094896 0.143238
0.479898 0.263711 0.226347
0.460211 0.170478 0.373952
0.416627 0.253882 0.274949
0.799998 0.215403 0.093402
0.671335 0.087074 0.309574
0.370341 0.263138 0.067746
0.834640 0.128776 0.318616
0.589214 0.087074 0.279435
0.501022 0.087074 0.386939
0.412970 0.135345 0.082660
0.589689 0.237914 0.274611
0.594701 0.087074 0.421392
0.177122 0.087074 0.334930
0.780057 0.252132 0.149726
0.674336 0.087074 0.340540
0.730321 0.170478 0.301612
0.579863 0.253882 0.272495
0.603175 0.253882 0.213268
0.620984 0.545606 0.127596
0.475105 0.137202 0.400997
0.634999 0.205380 0.029355
0.534401 0.295584 0.198050
0.874876 0.117120 0.305867
0.307907 0.087074 0.048107
0.445687 0.253882 0.242912
0.678333 0.212180 0.295828
0.313176 0.316261 0.047953
0.484217 0.120436 0.463759
0.532838 0.295584 0.119052
0.313115 0.087074 0.069971
0.613733 0.087074 0.330183
0.687603 0.294776 0.049774
0.531079 0.157410 0.090989
0.317080 0.087074 0.372990
0.623762 0.112624 0.446816
0.351786 0.295584 0.181192
0.316265 0.295584 0.153071
0.815951 0.126901 0.361020
0.280803 0.212180 0.280542
0.678138 0.164175 0.046100
0.176792 0.248511 0.488564
0.599992 0.087074 0.333216
0.678565 0.253759 0.248769
0.511179 0.258959 0.093028
0.321373 0.253882 0.219551
0.775276 0.087214 0.083805
0.436135 0.087074 0.184071
0.400475 0.262397 0.216062
0.849320 0.128776 0.319055
0.354011 0.295584 0.093533
0.042446 0.087074 0.276543
0.593627 0.295584 0.108933
0.722074 0.279300 0.063155
0.549825 0.295584 0.168960
0.248107 0.177875 0.285259
0.730412 0.170478 0.324267
0.506520 0.285019 0.093506
0.550045 0.295584 0.117096
0.247644 0.087074 0.196421
0.426661 0.153647 0.085538
0.309050 0.295584 0.096271
0.428423 0.214932 0.085908
0.606825 0.087074 0.303408
0.439963 0.089724 0.457136
0.121944 0.128776 0.286349
0.497522 0.214832 0.285774
0.796539 0.087074 0.355681
0.169859 0.144366 0.145417
0.655483 0.128776 0.409495
0.644942 0.087074 0.141276
0.114483 0.116147 0.340459
0.440907 0.100503 0.088531
0.622360 0.254738 0.030141
0.621751 0.499389 0.114988
0.493368 0.227740 0.285513
0.264961 0.464738 0.225603
0.081852 0.101626 0.311599
0.714118 0.087074 0.333821
0.485445 0.212180 0.297689
0.262199 0.224188 0.064498
0.483706 0.295584 0.166230
0.423152 0.087074 0.283911
0.668773 0.253882 0.205206
0.681641 0.087074 0.385995
0.107055 0.101164 0.200456
0.226828 0.253882 0.215843
0.667621 0.514468 0.225353
0.515460 0.166733 0.092589
0.534158 0.098163 0.458034
0.332677 0.087074 0.136049
0.563792 0.253882 0.274448
0.331951 0.295584 0.079367
0.317520 0.128776 0.383151
0.411777 0.087074 0.200803
0.254745 0.087074 0.184083
0.399223 0.117851 0.453827
0.864360 0.128776 0.321596
0.805623 0.212180 0.133228
0.695421 0.253882 0.185478
0.627863 0.087074 0.433341
0.286410 0.212180 0.251178
0.422763 0.087074 0.190553
0.324191 0.295584 0.106170
0.285766 0.087074 0.243614
0.623321 0.087074 0.129762
0.744069 0.212180 0.228180
0.852777 0.119214 0.113890
0.214060 0.170478 0.279127
0.817236 0.087074 0.277734
0.286893 0.170478 0.330300
0.644256 0.114355 0.439579
0.547719 0.164962 0.087704
0.280688 0.087074 0.338483
0.759950 0.087074 0.139421
0.192095 0.087074 0.126107
0.570047 0.087074 0.229265
0.653548 0.240574 0.252292
0.870501 0.156681 0.206127
0.561368 0.253882 0.287744
0.520372 0.170478 0.354123
0.593997 0.253882 0.265301
0.299753 0.180989 0.031586
0.501077 0.267550 0.094064
0.589418 0.112419 0.451891
0.365426 0.253882 0.263509
0.577068 0.128776 0.412880
0.305363 0.478813 0.096613
0.347387 0.212180 0.274216
0.478408 0.194857 0.092943
