0.048066 0.247189 0.551052
0.086875 0.099556 0.829598
0.094089 0.081271 0.125954
0.100846 0.050986 0.921194
0.054331 0.175531 0.529840
0.338218 0.144677 0.063728
0.287332 0.096333 0.039167
0.300453 0.267375 0.534127
0.028417 0.148426 0.932596
0.299284 0.232597 0.520529
0.162368 0.049639 0.050743
0.307612 0.095002 0.204866
0.046140 0.270729 0.546531
0.287332 0.111840 0.034073
0.055351 0.146004 0.577611
0.243065 0.080172 0.885470
0.322607 0.237444 0.798121
0.079303 0.063997 0.063113
0.046905 0.241789 0.393217
0.031749 0.232645 0.031347
0.041356 0.121870 0.347343
0.307508 0.126280 0.833885
0.287332 0.184067 0.954970
0.341097 0.101779 0.822602
0.232351 0.138505 0.649529
0.185295 0.104387 0.255358
0.318886 0.135095 0.335620
0.302979 0.253736 0.736813
0.028417 0.165856 0.499138
0.061139 0.198231 0.441826
0.298678 0.231594 0.281206
0.323407 0.240486 0.321930
0.091991 0.115130 0.236782
0.300818 0.168931 0.697293
0.028417 0.278559 0.519535
0.047993 0.179632 0.273508
0.317174 0.157699 0.829034
0.276003 0.085545 0.825023
0.282193 0.114060 0.711661
0.139303 0.142023 0.622196
0.290871 0.094597 0.796570
0.309895 0.187088 0.311653
0.045025 0.141023 0.800390
0.288713 0.099412 0.180015
0.075093 0.186760 0.027602
0.218295 0.136094 0.668266
0.295853 0.160684 0.233300
0.143988 0.078515 0.893700
0.338218 0.110887 0.047028
0.130062 0.119188 0.756481
0.057238 0.199327 0.178417
0.028417 0.235820 0.494726
0.240629 0.125795 0.726778
0.293458 0.093561 0.209708
0.331743 0.252409 0.943588
0.340101 0.146534 0.563317
0.264545 0.049867 0.087691
0.030346 0.056800 0.078488
0.200596 0.137011 0.349128
0.079303 0.125642 0.945748
0.056745 0.121506 0.746065
0.187246 0.103506 0.759109
0.122077 0.104639 0.813622
0.187089 0.119574 0.692306
0.304154 0.167468 0.681936
0.287332 0.208941 0.943296
0.223843 0.110175 0.279765
0.069805 0.184426 0.627291
0.028417 0.095442 0.058381
0.268245 0.131921 0.451370
0.202126 0.108383 0.272206
0.317967 0.066847 0.129264
0.056900 0.206589 0.203541
0.066274 0.136409 0.818202
0.287332 0.120286 0.930339
0.323793 0.146683 0.559328
0.045563 0.261374 0.353419
0.223130 0.099918 0.181521
0.300678 0.235787 0.794345
0.058237 0.144859 0.141633
0.301795 0.197790 0.608402
0.296394 0.170424 0.330917
0.193627 0.146583 0.562035
0.154746 0.089205 0.862128
0.060067 0.060117 0.027602
0.040603 0.123680 0.649284
0.079303 0.065104 0.954451
0.200428 0.132968 0.692561
0.058832 0.198020 0.426094
0.182340 0.128328 0.715398
0.321187 0.243507 0.245368
0.298482 0.252927 0.645719
0.291506 0.071259 0.099724
0.063992 0.349861 0.478548
0.301358 0.168623 0.091767
0.273421 0.076157 0.854533
0.028417 0.257527 0.496126
0.124023 0.119825 0.679240
0.298905 0.118010 0.027602
0.039199 0.113106 0.292118
0.173351 0.107999 0.206721
0.144696 0.039766 0.064792
0.325565 0.182580 0.708792
0.117523 0.036165 0.056629
0.041812 0.121704 0.867428
0.041328 0.147786 0.529767
0.301955 0.264401 0.655223
0.269495 0.100981 0.770454
0.240764 0.131339 0.575358
0.079303 0.188650 0.077566
0.244620 0.115430 0.705505
0.142603 0.117356 0.764713
0.050937 0.168935 0.222027
0.165397 0.116499 0.242554
0.229287 0.034201 0.961150
0.203444 0.104832 0.257235
0.249545 0.112424 0.719016
0.040718 0.092193 0.919057
0.271229 0.126858 0.722001
0.079303 0.146063 0.033227
0.039323 0.283319 0.469643
0.294537 0.035598 0.026276
0.068658 0.213625 0.197776
0.207517 0.042962 0.072038
0.297696 0.224995 0.241986
0.280851 0.076145 0.887076
0.105688 0.133408 0.519865
0.030155 0.161587 0.520529
0.303485 0.185070 0.723671
0.261888 0.127876 0.290517
0.152387 0.025759 0.033043
0.319935 0.242210 0.653694
0.036353 0.094933 0.166664
0.063164 0.162770 0.330918
0.054591 0.209742 0.898548
0.330232 0.256802 0.927080
0.279391 0.051236 0.958624
0.160567 0.132539 0.463311
0.064016 0.224446 0.171479
0.140758 0.139873 0.369311
0.187983 0.120633 0.672956
0.327958 0.100830 0.078488
0.255717 0.078249 0.894329
0.052634 0.139335 0.128428
0.322554 0.248935 0.394596
0.314265 0.135793 0.160169
0.108564 0.128754 0.713486
0.203725 0.126003 0.631224
0.049979 0.204473 0.911939
0.065768 0.179261 0.552099
0.113401 0.131592 0.568597
0.307054 0.137117 0.886029
0.067987 0.090147 0.065842
0.256410 0.148245 0.517394
0.071894 0.058708 0.902811
0.324507 0.222450 0.211132
0.337500 0.092967 0.945217
0.045003 0.269668 0.530035
0.053084 0.123037 0.355574
0.324076 0.102887 0.819123
0.142853 0.104182 0.254493
0.079303 0.117743 0.065164
0.244994 0.139694 0.640291
0.255388 0.123199 0.356730
0.201671 0.123942 0.361969
0.320279 0.254393 0.305678
0.306542 0.132649 0.078488
0.303434 0.267922 0.398680
0.035245 0.102101 0.765431
0.324800 0.246262 0.520529
0.101871 0.129619 0.406746
0.064344 0.135352 0.919057
0.130136 0.121664 0.664949
0.058041 0.142492 0.871693
0.059821 0.176038 0.924848
0.338630 0.116997 0.766318
0.077588 0.077647 0.969942
0.072459 0.343773 0.512356
0.339456 0.088464 0.864449
0.305427 0.160536 0.325372
0.129100 0.084522 0.135644
0.081872 0.044494 0.936650
0.291333 0.085090 0.875054
0.213625 0.118243 0.691528
0.098506 0.025287 0.031191
0.032896 0.042430 0.070831
0.089404 0.078667 0.893340
0.028417 0.294441 0.475499
0.060978 0.231773 0.314790
0.041740 0.197851 0.119804
0.248165 0.070729 0.912228
0.295813 0.240435 0.297779
0.327521 0.147481 0.469643
0.293501 0.116390 0.308689
0.061257 0.104006 0.815616
0.157044 0.133954 0.327564
0.150440 0.048748 0.964547
0.028417 0.222297 0.941360
0.301856 0.222060 0.777231
0.043487 0.101805 0.056311
0.199880 0.045915 0.933264
0.116976 0.044152 0.038312
0.176803 0.132678 0.466012
0.201848 0.025321 0.032051
0.069619 0.095372 0.842748
0.064072 0.130728 0.704615
0.041240 0.070835 0.141150
0.172300 0.099506 0.777087
0.305118 0.170755 0.228669
0.068431 0.046931 0.930848
0.034980 0.132644 0.540370
0.341282 0.043564 0.938858
0.025298 0.144940 0.599541
0.025003 0.108153 0.739057
0.041362 0.262704 0.558995
0.323117 0.145060 0.166661
0.161690 0.053369 0.953549
0.034376 0.176826 0.520529
0.211016 0.130721 0.428099
0.287332 0.183185 0.029508
0.074266 0.092466 0.969942
0.174995 0.069593 0.875170
0.042004 0.193963 0.589525
0.068252 0.101144 0.091133
0.108795 0.126140 0.377473
0.259186 0.093892 0.211104
0.139907 0.089838 0.860138
0.139459 0.053188 0.953982
0.056359 0.187049 0.143764
0.316387 0.104580 0.754272
0.066202 0.111233 0.792238
0.322473 0.114929 0.969958
0.318684 0.130042 0.414981
0.140073 0.062698 0.931345
0.287332 0.182167 0.492280
0.308960 0.118635 0.324530
0.316133 0.143703 0.776047
0.088192 0.103658 0.192665
0.317827 0.266506 0.404094
0.314307 0.127825 0.389375
0.341629 0.074900 0.151711
0.209613 0.121914 0.744226
0.041594 0.218960 0.208846
0.235345 0.096839 0.223528
0.047692 0.161995 0.719955
0.046906 0.038618 0.062190
0.256865 0.132387 0.460379
0.090402 0.134983 0.334817
0.292076 0.129129 0.969942
0.311343 0.132806 0.693810
0.300727 0.161633 0.073422
0.288184 0.222185 0.041196
0.237556 0.133836 0.508314
0.099782 0.111307 0.791906
0.261164 0.136699 0.663560
0.245372 0.116846 0.767000
0.287332 0.192486 0.966520
0.129204 0.083900 0.180099
0.289294 0.122443 0.658880
0.192805 0.141902 0.383630
0.307393 0.133263 0.523704
0.069231 0.031296 0.028328
0.028417 0.165491 0.931610
0.330665 0.116998 0.312977
0.204145 0.148590 0.488341
0.324796 0.094793 0.795951
0.138314 0.053080 0.094973
0.076051 0.148652 0.489524
0.076838 0.158719 0.469643
0.151128 0.099891 0.789986
0.322820 0.162737 0.291809
0.025003 0.032203 0.966312
0.046242 0.098886 0.779879
0.116942 0.098614 0.177636
0.067363 0.148791 0.502770
0.068367 0.133739 0.866956
0.318040 0.219817 0.770627
0.299796 0.106659 0.906154
0.192911 0.093720 0.210377
0.321616 0.240048 0.682508
0.317035 0.123646 0.359885
0.274590 0.130318 0.420310
0.287332 0.075474 0.937100
0.036155 0.215352 0.919057
0.028417 0.282874 0.505124
0.299693 0.191025 0.368697
0.156797 0.073196 0.863844
0.092018 0.100400 0.773074
0.074012 0.140211 0.371697
0.287480 0.219234 0.063872
0.062330 0.176269 0.573910
0.174501 0.147854 0.527905
0.054341 0.247872 0.071031
0.043607 0.193600 0.510095
0.326740 0.161927 0.776285
0.044464 0.055055 0.949540
0.175829 0.096491 0.792068
0.188963 0.058845 0.902481
0.079303 0.138576 0.063743
0.065608 0.202258 0.904392
0.079303 0.068060 0.939597
0.325648 0.084658 0.919057
0.258090 0.050638 0.053007
0.240061 0.132790 0.468184
0.315234 0.109238 0.881467
0.191124 0.125349 0.279863
0.052851 0.095624 0.097197
0.302054 0.057133 0.104160
0.173591 0.072259 0.111163
0.303666 0.236926 0.922023
0.062603 0.220795 0.154442
0.042067 0.182548 0.109579
0.313403 0.191503 0.153560
0.078812 0.119813 0.679335
0.229443 0.042829 0.940611
0.302154 0.108895 0.210501
0.301949 0.177712 0.969942
0.320754 0.159291 0.203202
0.056584 0.271573 0.434381
0.171539 0.098197 0.229255
0.041677 0.157128 0.764456
0.159688 0.102293 0.820995
0.044813 0.071829 0.909616
0.112692 0.148255 0.517157
0.058937 0.102985 0.027602
0.287633 0.051363 0.919448
0.296519 0.130874 0.919057
0.310750 0.175531 0.534273
0.030373 0.226918 0.044774
0.044415 0.194709 0.636610
0.287332 0.301214 0.497030
0.258120 0.148279 0.482338
0.267052 0.119555 0.255437
0.222697 0.074160 0.151065
0.339860 0.085133 0.183778
0.195678 0.100698 0.239802
0.254091 0.132508 0.543969
0.058690 0.194782 0.473432
0.065125 0.210029 0.818272
0.062353 0.272198 0.585510
0.298966 0.201063 0.857111
0.041707 0.214526 0.194927
0.315000 0.290315 0.520529
0.057767 0.112836 0.717175
0.079303 0.206132 0.484042
0.030311 0.226659 0.074191
0.057374 0.147666 0.533002
0.321571 0.078066 0.884696
0.287332 0.187409 0.924541
0.229875 0.099313 0.777954
0.068887 0.256999 0.407188
0.079303 0.287938 0.485405
0.325394 0.214692 0.852950
0.326613 0.133427 0.688987
0.053401 0.231826 0.187288
0.173436 0.120731 0.672196
0.047235 0.234923 0.326541
0.079303 0.110613 0.950871
0.067689 0.120061 0.027602
0.341392 0.129455 0.604385
0.125225 0.135050 0.676392
0.303349 0.150749 0.826613
0.328279 0.131074 0.703049
0.301048 0.245134 0.434478
0.242017 0.097207 0.173444
0.087826 0.126972 0.623702
0.253884 0.131683 0.699876
0.111221 0.081994 0.128110
0.056573 0.124601 0.170826
0.214131 0.047535 0.045975
0.059509 0.236138 0.694644
0.064996 0.103972 0.253601
0.188000 0.109483 0.732242
0.158373 0.130746 0.591306
0.256760 0.133975 0.504600
0.322956 0.163146 0.060895
0.328492 0.276662 0.469643
0.306960 0.149962 0.756803
0.326309 0.128018 0.716783
0.321390 0.235203 0.307795
0.237066 0.144150 0.402361
0.214243 0.143166 0.613308
0.327906 0.332839 0.474162
0.306300 0.122156 0.661110
0.079303 0.119077 0.041187
0.079303 0.241699 0.484953
0.338218 0.172754 0.496598
0.081112 0.141730 0.624479
0.041612 0.117578 0.317057
0.198206 0.105815 0.199094
0.069051 0.193161 0.615858
0.031561 0.238447 0.940469
0.108524 0.136335 0.344357
0.225236 0.050837 0.959575
0.139912 0.129869 0.708476
0.079303 0.172432 0.511736
0.292880 0.131583 0.444809
0.127142 0.104357 0.255229
0.326212 0.264785 0.556805
0.297046 0.103523 0.095522
0.064881 0.046444 0.027602
0.338193 0.222043 0.938974
0.045443 0.141650 0.214842
0.066911 0.165378 0.722795
0.252662 0.118405 0.250588
0.110444 0.108933 0.210655
0.142621 0.084513 0.876874
0.262359 0.129753 0.602077
0.201589 0.051433 0.091238
0.297174 0.165531 0.309326
0.323115 0.197911 0.469643
0.160265 0.127287 0.385569
0.258259 0.122574 0.268166
0.331460 0.146110 0.440345
0.287332 0.167233 0.076000
0.323157 0.172239 0.763599
0.311138 0.349861 0.481911
0.028417 0.130457 0.048105
0.322509 0.177050 0.291041
0.337263 0.103987 0.954201
0.055868 0.075893 0.886984
0.307160 0.077036 0.113336
0.256480 0.133823 0.685910
0.101149 0.145265 0.423945
0.058847 0.287844 0.520529
0.309651 0.090685 0.857470
0.068804 0.218854 0.832455
0.307395 0.077495 0.850326
0.307184 0.169957 0.650386
0.205423 0.119293 0.329166
0.158540 0.042442 0.070858
0.276917 0.093571 0.209751
0.136751 0.130225 0.418486
0.147129 0.129834 0.601453
0.138711 0.102576 0.820107
0.047223 0.161346 0.202726
0.211727 0.147133 0.547276
0.052305 0.226987 0.740780
0.216406 0.132117 0.554477
0.165446 0.123301 0.357445
0.025002 0.131248 0.604527
0.050749 0.132426 0.817520
0.213381 0.080583 0.123905
0.324496 0.134090 0.493395
0.293392 0.063484 0.891435
0.080266 0.115122 0.706898
0.332609 0.141901 0.383630
0.066984 0.253302 0.056925
0.082750 0.120162 0.752106
0.060845 0.098624 0.177663
0.198751 0.057616 0.105255
0.025002 0.142207 0.450616
0.197200 0.074882 0.110161
0.028417 0.077555 0.932014
0.320711 0.121396 0.344009
0.313834 0.305443 0.520529
0.298214 0.184028 0.643507
0.231346 0.135504 0.338502
0.142969 0.125255 0.637034
0.195089 0.120729 0.749552
0.324174 0.200221 0.129182
0.050941 0.240959 0.653901
0.079303 0.173827 0.077565
0.079303 0.171164 0.968593
0.068555 0.256069 0.374093
0.267275 0.044139 0.074707
0.063939 0.194596 0.078488
0.322626 0.179086 0.545329
0.212890 0.146679 0.451332
0.287332 0.198617 0.499770
0.025045 0.148197 0.518740
0.333745 0.176707 0.969951
0.233662 0.146057 0.576158
0.068205 0.330732 0.516547
0.315108 0.244144 0.436683
0.321584 0.090337 0.809959
0.065781 0.161457 0.209208
0.161225 0.034969 0.053920
0.060427 0.134458 0.680994
0.089808 0.033473 0.962887
0.068475 0.063147 0.930280
0.338301 0.077847 0.115755
0.312428 0.175074 0.114332
0.298370 0.184608 0.658312
0.079303 0.067874 0.078270
0.273845 0.095372 0.167975
0.303717 0.197592 0.424849
0.302255 0.146908 0.969942
0.092188 0.048876 0.049013
0.097721 0.120668 0.260126
0.025001 0.079225 0.128790
0.025002 0.131645 0.438792
0.081650 0.085100 0.137364
0.328491 0.091397 0.855231
0.316695 0.260051 0.934044
0.080411 0.073583 0.104990
0.028417 0.205982 0.487212
0.297444 0.056248 0.969950
0.040144 0.039938 0.037168
0.094529 0.124591 0.366544
0.107089 0.037919 0.952302
0.082058 0.091756 0.805505
0.025003 0.070054 0.873778
0.287332 0.133402 0.945788
0.071856 0.094984 0.215703
0.310275 0.116329 0.308255
0.297410 0.137514 0.836807
0.207352 0.121728 0.346352
0.068122 0.146701 0.451746
0.063441 0.271628 0.571011
0.287332 0.110338 0.919699
0.044045 0.229479 0.198664
0.112315 0.123645 0.359870
0.281500 0.146409 0.446124
0.083158 0.089750 0.860417
0.079303 0.106194 0.052104
0.338218 0.284490 0.480327
0.045676 0.177019 0.617760
0.041211 0.152007 0.789563
0.196925 0.146357 0.445104
0.250092 0.125539 0.634824
0.035285 0.247459 0.924703
0.054092 0.066750 0.128974
0.025003 0.075871 0.856132
0.055252 0.200865 0.455461
0.041090 0.244331 0.296032
0.031929 0.084443 0.027602
0.289758 0.125968 0.078488
0.312272 0.121684 0.745253
0.081408 0.128228 0.392202
0.054069 0.123903 0.273761
0.337645 0.152501 0.945864
0.072015 0.112576 0.718342
0.326033 0.143771 0.608604
0.320221 0.117464 0.865203
0.096607 0.084112 0.180729
0.282256 0.116891 0.766798
0.135545 0.097770 0.789412
0.266362 0.057147 0.906523
0.307833 0.103390 0.078488
0.154115 0.097433 0.226033
0.323566 0.256823 0.436109
0.324082 0.148309 0.213841
0.065298 0.119924 0.256991
0.338596 0.134010 0.503632
0.069702 0.247608 0.692684
0.246061 0.145760 0.584125
0.041093 0.225112 0.810087
0.298379 0.219213 0.818054
0.120166 0.101039 0.770202
0.056377 0.085533 0.078488
0.144952 0.137591 0.656643
0.335846 0.200790 0.919057
0.038204 0.090238 0.152674
0.053821 0.174917 0.560045
0.043941 0.224131 0.028973
0.327118 0.292311 0.469643
0.224867 0.043108 0.974414
0.207933 0.115902 0.305241
0.115158 0.129077 0.607338
0.304010 0.262695 0.686738
0.111730 0.131024 0.433955
0.156699 0.108547 0.209029
0.310837 0.140499 0.373738
0.048043 0.228789 0.836706
0.036608 0.252857 0.055425
0.064623 0.077351 0.114272
0.053282 0.197458 0.843951
0.134050 0.052433 0.917749
0.270974 0.100513 0.826584
0.321140 0.241280 0.668097
0.194136 0.106217 0.746918
0.287332 0.164592 0.484873
0.231142 0.060134 0.937445
0.053338 0.033497 0.050581
0.323132 0.138335 0.650847
0.068132 0.052996 0.916411
0.287332 0.195339 0.485778
0.259614 0.116732 0.767514
0.296597 0.110849 0.083036
0.025002 0.119323 0.261251
0.069117 0.172051 0.343620
0.055780 0.212419 0.027602
0.079149 0.286831 0.469643
0.068492 0.192275 0.893324
0.100495 0.142110 0.621525
0.297222 0.236581 0.230967
0.314846 0.284337 0.469643
0.341632 0.124311 0.705945
0.040675 0.184633 0.371744
0.331088 0.116707 0.699759
0.142606 0.087043 0.143156
0.308065 0.337305 0.475298
0.305130 0.139192 0.644188
0.058251 0.176363 0.027602
0.098581 0.076941 0.113051
0.050781 0.151688 0.749179
0.145343 0.064671 0.122777
0.126969 0.099873 0.828602
0.124868 0.081708 0.837091
0.219660 0.083539 0.179023
0.126098 0.131297 0.576517
0.234195 0.034801 0.026656
0.311309 0.224271 0.269113
0.158159 0.130699 0.304604
0.112251 0.082933 0.177215
0.296273 0.150386 0.191679
0.300480 0.185296 0.695454
0.265267 0.079873 0.842854
0.056699 0.203752 0.559836
0.045881 0.126896 0.624294
0.324398 0.052601 0.955373
0.189691 0.147017 0.457890
0.337846 0.174747 0.932603
0.338218 0.204409 0.066056
0.210784 0.129594 0.603314
0.069936 0.260103 0.588081
0.304660 0.260479 0.710276
0.077810 0.112144 0.288063
0.064524 0.173077 0.765420
0.160528 0.147069 0.549002
0.272879 0.076040 0.899587
0.323072 0.202961 0.162383
0.322060 0.252967 0.463794
0.301491 0.172084 0.666743
0.216167 0.127228 0.385154
0.056995 0.202901 0.597492
0.087261 0.132876 0.534130
0.288299 0.065614 0.027602
0.213474 0.037548 0.059765
0.203072 0.031991 0.047169
0.287656 0.145397 0.593848
0.324456 0.119221 0.328665
0.055690 0.253302 0.037515
0.305609 0.194627 0.088235
0.025127 0.145359 0.425739
0.287332 0.166719 0.502357
0.062080 0.166578 0.090230
0.106062 0.131858 0.450118
0.112938 0.101024 0.824986
0.028417 0.261721 0.481700
0.039624 0.134135 0.494224
0.153495 0.123822 0.648172
0.027061 0.145946 0.579174
0.258305 0.107517 0.204693
0.301454 0.081470 0.885947
0.303075 0.134797 0.678341
0.287332 0.181890 0.077450
0.041585 0.104828 0.092741
0.025003 0.134310 0.589965
0.203588 0.090177 0.198811
0.099137 0.069637 0.137580
0.329610 0.100539 0.183375
0.301155 0.138745 0.208420
0.303107 0.136836 0.347897
0.306296 0.332467 0.516105
0.028417 0.235449 0.510444
0.307682 0.117394 0.246329
0.145770 0.131026 0.583777
0.330989 0.089311 0.196233
0.329544 0.349861 0.495373
0.090207 0.120863 0.340242
0.069502 0.251519 0.333086
0.304297 0.131528 0.570289
0.055814 0.087890 0.191991
0.197986 0.133332 0.478697
0.142786 0.135435 0.673393
0.079303 0.213804 0.514774
0.288585 0.071790 0.144000
0.287332 0.263139 0.471671
0.298502 0.268916 0.458696
0.321494 0.173912 0.388203
0.025002 0.130126 0.322349
0.310582 0.245405 0.233363
0.067920 0.217200 0.847345
0.064276 0.152176 0.919057
0.048278 0.131681 0.446689
0.066354 0.279460 0.469643
0.257232 0.146779 0.556746
0.311209 0.142709 0.389327
0.321607 0.188809 0.390382
0.312008 0.095027 0.843824
0.258475 0.100685 0.239748
0.035667 0.118497 0.689564
0.047322 0.232592 0.727956
0.260019 0.088028 0.192406
0.290958 0.053322 0.095521
0.048515 0.146885 0.498158
0.287332 0.227431 0.484268
0.317354 0.160464 0.719897
0.240200 0.142515 0.618367
0.334765 0.329551 0.486540
0.132901 0.145479 0.591704
0.287332 0.158079 0.043501
0.338218 0.058197 0.073491
0.050631 0.167138 0.385514
0.337265 0.104185 0.968958
0.058761 0.179970 0.509797
0.068270 0.238817 0.778268
0.296776 0.118029 0.761682
0.240237 0.051231 0.090782
0.219178 0.147644 0.533544
0.069771 0.201285 0.027602
0.068771 0.243807 0.923774
0.287332 0.288453 0.473477
0.161094 0.132396 0.547020
0.246438 0.095706 0.793083
0.106742 0.112615 0.290048
0.309169 0.220182 0.250258
0.122994 0.132112 0.554633
0.242527 0.111304 0.220657
0.193847 0.121180 0.262288
0.299875 0.148215 0.481111
0.258268 0.106186 0.808757
0.341632 0.058091 0.915974
0.075057 0.031515 0.967550
0.147439 0.141724 0.382374
0.341545 0.088371 0.147115
0.099015 0.117099 0.313683
0.314220 0.038175 0.027602
0.044214 0.171428 0.763350
0.041992 0.248024 0.666444
0.069367 0.232298 0.225041
0.047724 0.189613 0.697256
0.067627 0.256314 0.710048
0.327473 0.124162 0.274862
0.205609 0.134125 0.500571
0.063432 0.135231 0.027602
0.301820 0.264268 0.364466
0.270610 0.097079 0.787991
0.309034 0.131992 0.452753
0.298181 0.202138 0.919057
0.048353 0.206551 0.969942
0.284200 0.110702 0.726753
0.316495 0.179796 0.270754
0.028417 0.144564 0.038944
0.119805 0.133621 0.514129
0.319979 0.217172 0.078488
0.324605 0.220977 0.520529
0.324025 0.198189 0.969942
0.065906 0.168338 0.469643
0.203423 0.133389 0.520326
0.033209 0.238719 0.057085
0.172431 0.145753 0.584327
0.310188 0.062390 0.114930
0.296947 0.242685 0.340001
0.340373 0.113369 0.782623
0.070817 0.147355 0.541344
0.326080 0.130999 0.969957
0.168064 0.069019 0.135739
0.104467 0.061020 0.935341
0.341625 0.097474 0.174241
0.201536 0.132080 0.555491
0.065112 0.249051 0.614037
0.092616 0.112234 0.719877
0.053934 0.179474 0.365310
0.287332 0.161353 0.519092
0.115582 0.106421 0.263932
0.270628 0.143081 0.613967
0.167622 0.125417 0.372376
0.308751 0.151625 0.263453
0.079572 0.103715 0.252521
0.287332 0.212707 0.487414
0.328182 0.102170 0.202806
0.065811 0.201662 0.114738
0.280719 0.120212 0.751873
0.267740 0.064183 0.889773
0.228513 0.095625 0.841949
0.028417 0.151798 0.503870
0.291589 0.113284 0.292877
0.059593 0.258261 0.509313
0.341631 0.146467 0.528152
0.039456 0.222581 0.469643
0.156048 0.146070 0.575817
0.287332 0.184771 0.062996
0.272901 0.137723 0.655601
0.287332 0.140298 0.962285
0.027363 0.090739 0.857312
0.274686 0.104385 0.755151
0.040291 0.065116 0.124102
0.188962 0.117067 0.313459
0.062222 0.195391 0.411414
0.321218 0.260594 0.706389
0.304839 0.240148 0.218796
0.147041 0.144765 0.414257
0.025001 0.061970 0.114980
0.052451 0.063895 0.928499
0.309952 0.206254 0.908507
0.043266 0.093262 0.849382
0.182607 0.127944 0.390206
0.167790 0.122640 0.657355
0.248495 0.134377 0.330551
0.039065 0.073982 0.861378
0.048874 0.069906 0.874190
0.321764 0.230995 0.825370
0.178537 0.119049 0.327442
0.085290 0.097343 0.786818
0.274423 0.145772 0.433796
0.059210 0.186159 0.880189
0.327131 0.181133 0.681422
0.260477 0.120632 0.749984
0.190981 0.097256 0.225286
0.318393 0.165910 0.969942
0.324558 0.167258 0.274784
0.195905 0.101289 0.824148
0.068797 0.183340 0.442216
0.190692 0.135451 0.498248
0.287332 0.193513 0.513610
0.333927 0.219360 0.027792
0.256669 0.059209 0.939646
0.240058 0.044240 0.974944
0.102528 0.117450 0.246562
0.248101 0.148675 0.505863
0.268987 0.115495 0.238324
0.138430 0.125636 0.727501
0.238020 0.147953 0.525245
0.151041 0.134002 0.503888
0.337402 0.121573 0.969073
0.148183 0.051128 0.054115
0.028581 0.223158 0.520529
0.259245 0.118941 0.692195
0.269989 0.077732 0.161713
0.287332 0.098674 0.053731
0.141850 0.068399 0.878925
0.041075 0.172764 0.074947
0.025000 0.046342 0.046342
0.298904 0.222085 0.837427
0.165715 0.134114 0.500879
0.079303 0.131542 0.048874
0.042699 0.219852 0.849063
0.278189 0.038021 0.060838
0.145236 0.137775 0.354518
0.133581 0.132606 0.541390
0.055937 0.147187 0.461143
0.303333 0.128042 0.291215
0.095070 0.145474 0.591837
0.186041 0.138484 0.359519
0.312294 0.098649 0.177742
0.028417 0.113534 0.046399
0.219184 0.075492 0.109928
0.276565 0.056249 0.065719
0.324642 0.092913 0.969966
0.326338 0.108166 0.027602
0.097844 0.075554 0.155218
0.279933 0.049414 0.086662
0.320412 0.202680 0.511835
0.065817 0.057674 0.969942
0.161681 0.132983 0.531246
0.240429 0.148831 0.493021
0.230654 0.133630 0.484471
0.336540 0.093192 0.027602
0.143415 0.148575 0.488039
0.302906 0.108463 0.795341
0.041311 0.096019 0.069195
0.300842 0.173703 0.027602
0.040860 0.129027 0.607735
0.082073 0.143837 0.608110
0.245852 0.147883 0.474667
0.313939 0.274100 0.532849
0.193859 0.114076 0.232341
0.294558 0.131117 0.581312
0.229908 0.127237 0.287821
0.085728 0.130209 0.418160
0.303304 0.144601 0.784242
0.059736 0.188504 0.326519
0.038591 0.036292 0.971226
0.323538 0.256531 0.421059
0.279686 0.082732 0.130311
0.121401 0.086488 0.870669
0.064364 0.131476 0.183561
0.077118 0.044020 0.974841
0.308787 0.176520 0.078488
0.248886 0.135692 0.671388
0.297178 0.247732 0.284793
0.200712 0.124058 0.646336
0.159496 0.148916 0.499416
0.086634 0.133831 0.488338
0.065419 0.250192 0.963601
0.159187 0.145664 0.431682
0.031851 0.089017 0.814118
0.068884 0.182855 0.427680
0.274046 0.100070 0.181976
0.316716 0.119795 0.152034
0.125515 0.148735 0.491150
0.198360 0.140057 0.370613
0.055765 0.094409 0.059373
0.185068 0.131389 0.701640
0.314340 0.261941 0.333854
0.111168 0.132721 0.466832
0.326704 0.227016 0.810717
0.115542 0.061368 0.896478
0.079303 0.081316 0.930680
0.311322 0.260694 0.724763
0.066506 0.114446 0.884509
0.069737 0.187094 0.642107
0.302779 0.172264 0.765514
0.320825 0.213358 0.969942
0.287332 0.152850 0.494004
0.058201 0.112636 0.871934
0.244170 0.094688 0.844894
0.174350 0.112065 0.720632
0.318439 0.262615 0.364513
0.292364 0.114254 0.778648
0.321944 0.158386 0.734884
0.309319 0.150273 0.469643
0.211931 0.117700 0.247619
0.257317 0.130965 0.585410
0.317926 0.237137 0.213198
0.082460 0.131230 0.578331
0.061975 0.145648 0.969942
0.306487 0.231664 0.828564
0.058724 0.268546 0.520529
0.139145 0.072720 0.865341
0.079303 0.148823 0.048844
0.049251 0.193925 0.857553
0.069855 0.096271 0.792009
0.322518 0.132030 0.128561
0.133401 0.116215 0.241354
0.205887 0.143808 0.594043
0.083409 0.145182 0.422334
0.314936 0.098723 0.911007
0.078056 0.320309 0.506598
0.233577 0.059113 0.901842
0.068644 0.259283 0.422915
0.323378 0.177811 0.308835
0.104556 0.097143 0.837184
0.025323 0.136027 0.342178
0.041975 0.088933 0.862986
0.257285 0.127055 0.383938
0.333209 0.159242 0.969956
0.193542 0.117696 0.247600
0.299442 0.101875 0.921120
0.104657 0.039804 0.064877
0.051508 0.253302 0.052868
0.227392 0.120161 0.752102
0.122838 0.068862 0.094293
0.046925 0.150613 0.250219
0.324436 0.140457 0.634353
0.028417 0.199314 0.952893
0.338218 0.271303 0.488367
0.223074 0.107727 0.205574
0.208547 0.141454 0.380469
0.087554 0.123818 0.735675
0.337799 0.141058 0.934308
0.321163 0.261053 0.378907
0.316921 0.249862 0.763708
0.306626 0.089328 0.919057
0.184316 0.125512 0.373049
0.051854 0.121817 0.027602
0.307697 0.230518 0.312166
0.068453 0.165892 0.919057
0.300529 0.129945 0.176237
0.208493 0.145275 0.424149
0.246388 0.120677 0.338933
0.287332 0.133063 0.064829
0.121083 0.131981 0.452508
0.253507 0.146215 0.571907
0.341629 0.032085 0.046099
0.042319 0.160055 0.266858
0.191563 0.131074 0.582499
0.028417 0.100886 0.027781
0.064299 0.219902 0.777993
0.208307 0.070557 0.140324
0.193684 0.145377 0.426126
0.307240 0.141304 0.627771
0.239071 0.050759 0.053280
0.315181 0.246181 0.779451
0.125579 0.130900 0.703842
0.067604 0.168622 0.701867
0.338218 0.072251 0.045893
0.025001 0.056532 0.100178
0.103094 0.086646 0.141972
0.053828 0.242751 0.224646
0.178008 0.086951 0.820608
0.324229 0.114478 0.777639
0.171401 0.124691 0.641422
0.131469 0.119525 0.255307
0.148226 0.080150 0.122616
0.185142 0.086017 0.872146
0.041088 0.099523 0.180344
0.028417 0.190985 0.485530
0.320540 0.081532 0.078488
0.317334 0.267848 0.660582
0.324528 0.256705 0.509306
0.187826 0.032826 0.049063
0.324212 0.188947 0.119311
0.079303 0.196062 0.938193
0.126751 0.039498 0.027767
0.223583 0.054137 0.060934
0.337739 0.164454 0.956078
0.117782 0.096922 0.792187
0.313129 0.246241 0.723380
0.334628 0.073501 0.078488
0.044641 0.305456 0.520529
0.287332 0.083972 0.063498
0.055229 0.165525 0.258855
0.046306 0.045598 0.074642
0.322484 0.199056 0.605791
0.062286 0.131504 0.443248
0.193004 0.071492 0.910413
0.316242 0.121408 0.263253
0.069899 0.257979 0.641003
0.131293 0.047008 0.044781
0.222191 0.123709 0.736154
0.327759 0.131733 0.564761
0.076399 0.094425 0.165152
0.242989 0.065172 0.925456
0.100822 0.122321 0.350529
0.152745 0.133818 0.685957
0.268478 0.132179 0.694504
0.124106 0.071033 0.870646
0.052624 0.159938 0.969942
0.054655 0.101759 0.766967
0.028417 0.069885 0.044415
0.066418 0.159852 0.062259
0.261178 0.065547 0.924562
0.298385 0.187039 0.574406
0.028417 0.249772 0.510550
0.329371 0.035797 0.055798
0.308896 0.131174 0.436894
0.314337 0.267450 0.389598
0.251368 0.045919 0.078741
0.163655 0.113468 0.782190
0.060799 0.302486 0.520529
0.043698 0.149381 0.919057
0.066665 0.189863 0.397414
0.177520 0.055780 0.947811
0.292547 0.148600 0.507874
0.069121 0.138551 0.150908
0.142099 0.147221 0.544904
0.275861 0.128829 0.609259
0.338218 0.178591 0.482133
0.298463 0.256709 0.611671
0.139776 0.083453 0.831603
0.079303 0.218100 0.028556
0.286769 0.134573 0.680085
0.280555 0.103848 0.816102
0.298475 0.185550 0.618899
0.054657 0.052336 0.093286
0.068338 0.178653 0.407834
0.130731 0.136887 0.662116
0.164486 0.134872 0.677770
0.241764 0.123577 0.650073
0.058633 0.133435 0.199919
0.143227 0.121236 0.342873
0.258572 0.112274 0.224744
0.073423 0.030760 0.044377
0.233068 0.133312 0.522385
0.321308 0.124659 0.731881
0.322765 0.146877 0.455203
0.049621 0.235131 0.469643
0.212426 0.085321 0.138025
0.139114 0.076397 0.157731
0.178108 0.132661 0.539898
0.157764 0.093764 0.163183
0.043157 0.145445 0.592647
0.113142 0.122523 0.658272
0.068416 0.154326 0.814487
0.051781 0.202815 0.582912
0.284662 0.057790 0.904992
0.028867 0.121626 0.665253
0.313602 0.133451 0.114665
0.161938 0.084123 0.180763
0.338218 0.085688 0.054598
0.238341 0.130960 0.432747
0.338218 0.212228 0.052251
0.069883 0.166823 0.740396
0.028417 0.181073 0.470192
0.068890 0.191082 0.914033
0.028417 0.096144 0.936092
0.210689 0.128173 0.291767
0.096584 0.103667 0.205402
0.180686 0.115333 0.237639
0.130292 0.147524 0.536788
0.066929 0.239362 0.711173
0.302128 0.222265 0.469643
0.277890 0.090249 0.152711
0.314626 0.064904 0.926090
0.066621 0.173345 0.387292
0.058418 0.272726 0.455424
0.192113 0.141353 0.627404
0.171545 0.140988 0.399625
0.241011 0.138750 0.361395
0.118574 0.116223 0.241386
0.118039 0.142255 0.620397
0.309141 0.191686 0.473662
0.303696 0.025593 0.032668
0.294703 0.178739 0.374939
0.080939 0.131800 0.563010
0.321592 0.187195 0.027602
0.082275 0.054770 0.098802
0.296057 0.142483 0.167804
0.278446 0.112759 0.226789
0.037494 0.051823 0.092122
0.286205 0.131585 0.568748
0.170651 0.126942 0.623922
0.298625 0.207437 0.131963
0.287332 0.176343 0.516404
0.326840 0.262605 0.572599
0.306325 0.202399 0.555794
0.312751 0.221385 0.151549
0.318932 0.169931 0.027602
0.147122 0.130846 0.430514
0.331789 0.060935 0.969982
0.187375 0.131716 0.447385
0.061064 0.128994 0.397605
0.108535 0.102853 0.248886
0.321339 0.259597 0.350830
0.201784 0.031601 0.969030
0.215849 0.094079 0.211893
0.078191 0.319741 0.474478
0.333155 0.066142 0.127163
0.142745 0.131557 0.569534
0.041095 0.173024 0.730358
0.028417 0.242436 0.482096
0.058858 0.203760 0.544134
0.160483 0.101939 0.766154
0.109944 0.103819 0.193145
0.331410 0.229706 0.469643
0.311116 0.256059 0.287644
0.183032 0.049037 0.085808
0.257822 0.074953 0.858319
0.216488 0.114416 0.777925
0.305403 0.217996 0.520529
0.039277 0.124119 0.274672
0.317230 0.137439 0.352156
0.214955 0.133611 0.484094
0.050945 0.129843 0.411076
0.324130 0.075774 0.900218
0.308833 0.225482 0.850514
0.045311 0.320138 0.519242
0.169890 0.027646 0.037321
0.316966 0.146125 0.440625
0.135831 0.068787 0.916854
0.028417 0.314195 0.503939
0.048541 0.132636 0.465183
0.199008 0.037669 0.060039
0.314382 0.134643 0.202964
0.039068 0.114935 0.707738
0.288244 0.318902 0.504087
0.059390 0.166638 0.373561
0.237922 0.030477 0.043737
0.220290 0.131025 0.583807
0.230873 0.145463 0.592104
0.126483 0.112213 0.224482
0.096315 0.091673 0.805766
0.069979 0.188512 0.571131
0.251072 0.130563 0.425044
0.308353 0.157142 0.306173
0.062230 0.129873 0.078488
0.183528 0.132146 0.553718
0.251774 0.103614 0.252101
0.201983 0.114395 0.778021
0.092827 0.068181 0.884128
0.234006 0.140856 0.631264
0.029927 0.231598 0.921757
0.071161 0.133938 0.490406
0.338218 0.189093 0.028096
0.047051 0.240485 0.033166
0.132074 0.077420 0.850568
0.294342 0.081553 0.126797
0.041796 0.137515 0.864902
0.277916 0.141498 0.626271
0.111445 0.073053 0.147763
0.295644 0.252696 0.448006
0.063665 0.037696 0.060099
0.130426 0.146472 0.565039
0.028417 0.182267 0.944418
0.118039 0.069775 0.884718
0.195197 0.132578 0.464081
0.133287 0.129176 0.606570
0.044125 0.165334 0.520529
0.028417 0.201586 0.516209
0.325397 0.238570 0.724940
0.071670 0.227647 0.520529
0.157777 0.112225 0.224537
0.039223 0.122306 0.742470
0.078115 0.132500 0.462560
0.078987 0.220099 0.047018
0.118507 0.133163 0.691052
0.059483 0.138424 0.216325
0.341629 0.026246 0.032873
0.037272 0.133322 0.522178
0.285719 0.103982 0.193631
0.203209 0.130093 0.415945
0.029927 0.165529 0.027602
0.042774 0.131237 0.593035
0.062755 0.237423 0.258927
0.091352 0.031723 0.046560
0.047769 0.191457 0.969942
0.213625 0.132643 0.540370
0.167473 0.143255 0.612619
0.079303 0.050316 0.058824
0.065111 0.223085 0.028705
0.057814 0.101332 0.078488
0.314631 0.260051 0.948531
0.079303 0.167856 0.061875
0.145643 0.096644 0.171764
0.323163 0.200065 0.526349
0.137589 0.108524 0.736554
0.280203 0.130743 0.591358
0.049439 0.124542 0.698596
0.036758 0.082321 0.175389
0.042003 0.153759 0.078488
0.320476 0.051107 0.920900
0.156294 0.074868 0.107901
0.337278 0.226606 0.919397
0.108425 0.031147 0.045256
0.075814 0.092024 0.078488
0.216013 0.120670 0.672664
0.138368 0.074677 0.107467
0.106362 0.103900 0.757341
0.246378 0.108049 0.270801
0.295629 0.181838 0.468219
0.255729 0.138727 0.361235
0.057452 0.139562 0.367114
0.172559 0.106880 0.265871
0.135750 0.101929 0.766197
0.316506 0.137073 0.799844
0.330316 0.348201 0.480539
0.091602 0.080086 0.842189
0.086773 0.134930 0.677323
0.297138 0.266022 0.442769
0.028417 0.097876 0.953126
0.271655 0.121484 0.344631
0.307348 0.138916 0.127338
0.156123 0.147608 0.534535
0.060865 0.233955 0.330618
0.053186 0.153616 0.520529
0.059815 0.245934 0.517967
0.231083 0.113730 0.781006
0.314351 0.069232 0.027602
0.325847 0.265812 0.522537
0.276156 0.109306 0.212235
0.079303 0.087761 0.036166
0.338905 0.147156 0.546634
0.078489 0.130677 0.704847
0.317415 0.188125 0.719764
0.044186 0.269198 0.458574
0.297906 0.106116 0.808976
0.061186 0.156173 0.734643
0.079303 0.181298 0.938165
0.044366 0.167392 0.342214
0.321912 0.223207 0.179141
0.301184 0.126890 0.382772
0.066292 0.137592 0.353221
0.326737 0.244807 0.709203
0.127128 0.148420 0.512721
0.282306 0.141123 0.378134
0.171508 0.054753 0.912225
0.079303 0.174793 0.923137
0.299486 0.168222 0.720672
0.296197 0.240748 0.254419
0.135520 0.095864 0.204620
0.061812 0.087080 0.027602
0.109020 0.138710 0.361109
0.049896 0.237763 0.807760
0.047353 0.166788 0.790153
0.048137 0.186222 0.725266
0.060845 0.135002 0.334952
0.302876 0.075811 0.900130
0.072377 0.077568 0.161221
0.151061 0.101111 0.185077
0.284846 0.098013 0.783796
0.217902 0.090572 0.153672
0.275536 0.117001 0.698440
0.225381 0.053076 0.916215
0.044166 0.196569 0.105183
0.324361 0.181415 0.527946
0.301258 0.197478 0.593374
0.063475 0.091271 0.807030
0.242847 0.053442 0.915343
0.025003 0.085513 0.872348
0.066765 0.298351 0.469643
0.287332 0.052428 0.032975
0.269740 0.125428 0.635687
0.215827 0.127873 0.717442
0.287332 0.225044 0.502342
0.081647 0.072399 0.145813
0.093097 0.113758 0.294868
0.268155 0.133427 0.323856
0.322781 0.183055 0.903233
0.216278 0.138072 0.652895
0.031622 0.058314 0.969942
0.079303 0.081921 0.956353
0.289108 0.077228 0.160211
0.077442 0.279832 0.520529
0.255560 0.125089 0.729954
0.042591 0.133013 0.027602
0.154445 0.037038 0.954398
0.271886 0.122805 0.740216
0.335386 0.127039 0.078488
0.314118 0.188136 0.072268
0.052066 0.237527 0.207868
0.337794 0.220390 0.065251
0.056703 0.122720 0.928394
0.198347 0.090108 0.859289
0.039782 0.082526 0.883122
0.338218 0.191310 0.490825
0.069001 0.254342 0.567995
0.079303 0.302797 0.475617
0.327994 0.138779 0.361604
0.244375 0.099888 0.236389
0.088666 0.048480 0.965189
0.209179 0.105417 0.750514
0.126560 0.058493 0.941355
0.079303 0.106071 0.966493
0.050666 0.240185 0.922852
0.338218 0.194908 0.472022
0.135415 0.069273 0.136497
0.068435 0.123440 0.358424
0.101252 0.045655 0.078141
0.046273 0.231909 0.821518
0.313721 0.253395 0.050753
0.325885 0.109509 0.914003
0.089425 0.089105 0.149298
0.128609 0.100570 0.239262
0.302869 0.098359 0.833353
0.294635 0.138117 0.027602
0.334867 0.230915 0.968506
0.290608 0.119056 0.253337
0.219963 0.124555 0.276516
0.312000 0.118580 0.759205
0.065092 0.216027 0.222996
0.148276 0.100232 0.773828
0.302459 0.115992 0.871168
0.314135 0.168922 0.098551
0.122286 0.091533 0.806205
0.111563 0.066890 0.921370
0.053106 0.262681 0.335573
0.064777 0.158945 0.295225
0.155568 0.053864 0.914340
0.256045 0.102366 0.188817
0.094772 0.131431 0.701457
0.025002 0.123208 0.276547
0.079303 0.068954 0.035796
0.337521 0.136745 0.948234
0.064943 0.247342 0.469643
0.073950 0.064641 0.122688
0.338218 0.116428 0.032638
0.336240 0.323368 0.504465
0.287332 0.193327 0.941055
0.321119 0.189734 0.692818
0.217450 0.141271 0.628036
0.130171 0.094965 0.166761
0.172993 0.076892 0.897562
0.028417 0.200641 0.061967
0.274508 0.146373 0.567659
0.258432 0.117452 0.304220
0.063786 0.158340 0.192490
0.066000 0.087926 0.866152
0.068371 0.196598 0.533377
0.228215 0.084154 0.877999
0.215978 0.079946 0.885387
0.223823 0.099213 0.233540
0.292774 0.143725 0.608956
0.032529 0.110733 0.726628
0.341629 0.070227 0.137902
0.268059 0.071779 0.868296
0.039617 0.120104 0.257746
0.127189 0.116341 0.308339
0.161611 0.059001 0.902111
0.186299 0.123435 0.358392
0.036182 0.125428 0.372447
0.338218 0.312824 0.488741
0.197418 0.128077 0.716526
0.057464 0.176701 0.906902
0.042190 0.186587 0.078488
0.196254 0.111049 0.793005
0.079303 0.181820 0.064678
0.057862 0.112810 0.290870
0.107800 0.108468 0.736805
0.131553 0.133263 0.523743
0.145041 0.148146 0.520081
0.052879 0.132659 0.539969
0.061001 0.242537 0.411584
0.125797 0.124447 0.365529
0.287424 0.139225 0.643930
0.079303 0.170497 0.028389
0.052059 0.125548 0.373295
0.256206 0.147522 0.536823
0.094878 0.118519 0.689395
0.314656 0.186784 0.919057
0.057449 0.122198 0.303321
0.053180 0.193714 0.682163
0.065644 0.147736 0.471791
0.333024 0.055056 0.099452
0.071521 0.257896 0.953245
0.298267 0.190072 0.558029
0.068800 0.178977 0.317481
0.061742 0.258966 0.725994
0.295430 0.188307 0.415435
0.100850 0.083519 0.831397
0.245380 0.124187 0.274966
0.128535 0.126597 0.380696
0.065491 0.162888 0.027602
0.325170 0.039031 0.040908
0.170236 0.131923 0.559711
0.314637 0.129501 0.184989
0.237808 0.090833 0.857009
0.150383 0.120069 0.752522
0.289672 0.145762 0.433597
0.050599 0.117884 0.248388
0.069966 0.214682 0.183077
0.314220 0.166691 0.373139
0.070174 0.118240 0.691566
0.268489 0.107614 0.740636
0.307979 0.203538 0.537044
0.125297 0.140778 0.375698
0.312681 0.160279 0.190479
0.287332 0.215065 0.919509
0.312610 0.170187 0.787472
0.064995 0.231147 0.197067
0.302010 0.088711 0.074742
0.046559 0.193057 0.381967
0.245320 0.136811 0.347717
0.068845 0.133358 0.169344
0.328585 0.110045 0.215350
0.050423 0.131947 0.919057
0.110845 0.145429 0.593043
0.298328 0.229495 0.263043
0.073444 0.103597 0.192484
0.156924 0.113226 0.292625
0.126145 0.078607 0.164320
0.226264 0.119080 0.685021
0.134004 0.099484 0.180228
0.306767 0.154667 0.171909
0.100317 0.043404 0.939245
0.316324 0.201657 0.107108
0.051251 0.203785 0.532053
0.174641 0.147036 0.458255
0.310045 0.250710 0.365398
0.061085 0.226212 0.274947
0.298197 0.164861 0.750814
0.338218 0.300619 0.479388
0.028417 0.215789 0.053586
0.250511 0.069850 0.096534
0.315981 0.183585 0.887361
0.119422 0.110833 0.726173
0.192334 0.053979 0.952096
0.311947 0.125132 0.919057
0.309298 0.114863 0.775909
0.068655 0.176886 0.368585
0.296244 0.181256 0.343270
0.338218 0.199582 0.045036
0.268186 0.111146 0.724761
0.065745 0.182321 0.723496
0.072178 0.137830 0.654787
0.322476 0.131595 0.445065
0.108212 0.143678 0.609342
0.321984 0.182457 0.323673
0.171770 0.105181 0.811919
0.300047 0.197157 0.525905
0.296303 0.249143 0.309341
0.143512 0.133952 0.490687
0.292833 0.141460 0.626559
0.069869 0.238216 0.275931
0.253009 0.034352 0.970317
0.213530 0.103446 0.192034
0.298981 0.242550 0.377198
0.221403 0.148740 0.491257
0.241103 0.129321 0.694005
0.337987 0.092841 0.927472
0.039376 0.087225 0.190007
0.139098 0.128688 0.293936
0.287332 0.126147 0.034251
0.338218 0.129609 0.063969
0.338218 0.096300 0.044166
0.299344 0.181232 0.709429
0.070422 0.045234 0.040762
0.156292 0.088621 0.147857
0.045897 0.247780 0.964215
0.069104 0.223197 0.791457
0.140326 0.111314 0.220693
0.029614 0.230287 0.953753
0.077067 0.135970 0.341782
0.062706 0.092092 0.204517
0.205695 0.140050 0.637523
0.123951 0.138294 0.358175
0.337028 0.144247 0.404257
0.064323 0.153301 0.258565
0.075279 0.069281 0.919057
0.157357 0.103235 0.250498
0.068861 0.257096 0.359174
0.168076 0.148530 0.487181
0.079303 0.194517 0.054500
0.313872 0.245012 0.257861
0.323310 0.247716 0.289840
0.311370 0.166335 0.261444
0.303057 0.043437 0.036693
0.247089 0.132009 0.557376
0.155245 0.048078 0.928117
0.046380 0.177804 0.572033
0.141237 0.069046 0.094710
0.079303 0.241347 0.517165
0.308542 0.148629 0.507090
0.141559 0.123740 0.360543
0.181607 0.129507 0.404583
0.132014 0.118287 0.691190
0.028417 0.299647 0.501868
0.259898 0.138626 0.648588
0.192470 0.121313 0.343422
0.260948 0.097758 0.175086
0.309793 0.153089 0.742465
0.207544 0.122359 0.267257
0.313102 0.172566 0.457704
0.079303 0.307308 0.490746
0.065726 0.168499 0.357362
0.074514 0.042448 0.070872
0.277589 0.101459 0.243011
0.073977 0.128100 0.614930
0.331615 0.181684 0.469643
0.337178 0.069995 0.956942
0.091850 0.064120 0.927963
0.248385 0.071586 0.868903
0.309307 0.141172 0.489875
0.210350 0.103189 0.790878
0.069528 0.168492 0.257190
0.239736 0.147402 0.540050
0.302970 0.249034 0.523019
0.336675 0.231738 0.950592
0.056087 0.144157 0.825943
0.050208 0.203853 0.190704
0.070853 0.254850 0.520529
0.056292 0.095431 0.217591
0.043843 0.145588 0.969942
0.067956 0.133140 0.474955
0.028417 0.120595 0.033537
0.287332 0.299465 0.512929
0.222208 0.068262 0.133482
0.302451 0.163216 0.969942
0.233094 0.144090 0.606131
0.126359 0.104066 0.193881
0.209917 0.097171 0.224928
0.257706 0.129818 0.410612
0.259869 0.147462 0.466507
0.331528 0.246655 0.071189
0.309772 0.209896 0.159468
0.043508 0.172089 0.969942
0.069184 0.141700 0.194355
0.338307 0.092820 0.160373
0.054484 0.244600 0.723193
0.216632 0.129644 0.407239
0.139659 0.132733 0.694390
0.092805 0.147856 0.474109
0.054853 0.252601 0.366825
0.132998 0.122641 0.740961
0.317090 0.070570 0.872096
0.079349 0.133218 0.690629
0.061016 0.242172 0.791191
0.028638 0.201974 0.027602
0.211238 0.132229 0.457317
0.038541 0.258478 0.520529
0.047490 0.271493 0.591613
0.094589 0.144559 0.410257
0.308989 0.117982 0.078488
0.289960 0.133311 0.522401
0.043007 0.110394 0.076434
0.238599 0.066009 0.087831
0.287332 0.211949 0.051109
0.040976 0.189550 0.524818
0.065541 0.234767 0.211392
0.242326 0.130775 0.590522
0.233630 0.060044 0.110757
0.276560 0.098116 0.228917
0.308571 0.165305 0.469643
0.338218 0.263158 0.511522
0.079303 0.214912 0.941173
0.068170 0.264896 0.627300
0.151408 0.063319 0.891833
0.321907 0.229174 0.259423
0.075491 0.130750 0.591202
0.058381 0.192565 0.027602
0.208519 0.125001 0.730350
0.125244 0.131622 0.593065
0.306865 0.074135 0.078488
0.222640 0.142158 0.385434
0.028417 0.267537 0.509170
0.051526 0.164348 0.354371
0.338112 0.106715 0.922914
0.337597 0.146368 0.964780
0.207688 0.086342 0.871125
0.295793 0.176773 0.358877
0.148329 0.118485 0.689655
0.079303 0.096056 0.951527
0.042133 0.133820 0.508795
0.309580 0.103471 0.817285
0.288133 0.130059 0.415301
0.307479 0.185793 0.140091
0.076372 0.039066 0.949574
0.053011 0.204430 0.510330
0.314443 0.133900 0.506594
0.338218 0.078407 0.031826
0.321019 0.263702 0.473692
0.299159 0.280879 0.469643
0.173312 0.130416 0.422187
0.323038 0.149383 0.180809
0.300332 0.148858 0.240496
0.323807 0.141297 0.192710
0.111067 0.079976 0.842534
0.310199 0.186420 0.520529
0.324578 0.227236 0.224887
0.155526 0.067607 0.091450
0.092416 0.105001 0.752390
0.028417 0.091867 0.040082
0.178037 0.142351 0.495242
0.272436 0.139790 0.639540
0.083456 0.108725 0.209780
0.149868 0.135796 0.340553
0.273906 0.108059 0.802870
0.154405 0.076070 0.883963
0.075047 0.142398 0.387120
0.068782 0.261734 0.464434
0.040857 0.265056 0.473081
0.125492 0.073945 0.150423
0.102899 0.095556 0.793562
0.056803 0.129048 0.607565
0.079303 0.095221 0.934484
0.043773 0.193134 0.469643
0.028417 0.176573 0.043605
0.112614 0.115984 0.305818
0.296148 0.242436 0.322464
0.258137 0.111857 0.286856
0.157413 0.126287 0.629016
0.303198 0.254106 0.926394
0.338218 0.289984 0.512645
0.055801 0.191076 0.520529
0.288937 0.118244 0.691510
0.298287 0.245866 0.721440
0.089877 0.148896 0.494262
0.277254 0.129549 0.405421
0.207660 0.065767 0.126045
0.079303 0.143750 0.472271
0.028417 0.113384 0.931551
0.076877 0.147425 0.520529
0.068684 0.265525 0.554202
0.068991 0.177245 0.657509
0.253602 0.046627 0.931567
0.164311 0.065636 0.886315
0.127316 0.108838 0.210256
0.331060 0.229449 0.075731
0.260712 0.114944 0.707689
0.298801 0.113165 0.126033
0.062249 0.215281 0.520529
0.196867 0.131122 0.400599
0.324322 0.251094 0.337348
0.327139 0.171707 0.078488
0.338218 0.126694 0.043483
0.053184 0.163934 0.078488
0.275299 0.114983 0.299385
0.055159 0.144584 0.410741
0.204776 0.051127 0.958885
0.238687 0.129920 0.412600
0.121814 0.144486 0.603058
0.302088 0.070778 0.871439
0.326453 0.214166 0.919057
0.070627 0.122484 0.741668
0.056595 0.178978 0.078488
0.313344 0.246181 0.472763
0.307896 0.144549 0.410110
0.320042 0.229628 0.968833
0.072171 0.135836 0.670282
0.301413 0.134312 0.194035
0.063833 0.316831 0.520083
0.178902 0.142021 0.622209
0.293639 0.132853 0.693452
0.068344 0.072793 0.027602
0.321972 0.218322 0.162719
0.074691 0.115785 0.239542
0.057224 0.208458 0.160063
0.060220 0.130747 0.591286
0.227094 0.133894 0.397377
0.041396 0.133304 0.478133
0.110980 0.143605 0.396393
0.293607 0.047977 0.046978
0.066681 0.052199 0.956337
0.061695 0.045741 0.078337
0.068813 0.184100 0.354155
0.308188 0.082592 0.129895
0.079379 0.144122 0.401789
0.324426 0.162240 0.254982
0.323563 0.123086 0.027602
0.059888 0.092168 0.852820
0.297124 0.260051 0.945758
0.069577 0.190408 0.105509
0.067917 0.250202 0.628780
0.091188 0.093918 0.163640
0.337891 0.183747 0.957254
0.194889 0.129551 0.603647
0.242108 0.074092 0.113541
0.053013 0.273592 0.469643
0.060276 0.034722 0.959915
0.311865 0.273850 0.596967
0.178210 0.121692 0.346091
0.068458 0.195838 0.558622
0.052178 0.262828 0.707875
0.056200 0.050690 0.924072
0.313817 0.160711 0.079031
0.238309 0.047560 0.929348
0.208411 0.146406 0.566791
0.177763 0.131202 0.579050
0.303754 0.111201 0.284092
0.057941 0.044726 0.974123
0.067375 0.192953 0.454304
0.126240 0.130797 0.429572
0.270964 0.104493 0.195155
0.147930 0.100417 0.238614
0.324450 0.230254 0.239317
0.207912 0.130711 0.704685
0.065509 0.195152 0.510128
0.064279 0.107840 0.206048
0.181618 0.133760 0.510372
0.287509 0.128013 0.390695
0.287332 0.065565 0.044422
0.274297 0.143049 0.599314
0.272893 0.069298 0.915632
0.309349 0.177693 0.365443
0.302374 0.139219 0.872264
0.219478 0.140574 0.599104
0.206555 0.069266 0.915712
0.028417 0.187615 0.028634
0.045004 0.258913 0.927617
0.311207 0.045956 0.933163
0.258000 0.068393 0.878938
0.088308 0.060000 0.110658
0.322321 0.144170 0.402768
0.334516 0.278326 0.520529
0.318238 0.179927 0.474536
0.309601 0.245651 0.510553
0.072647 0.129823 0.410689
0.053365 0.246240 0.779434
0.311022 0.190674 0.705572
0.054546 0.095177 0.794755
0.306853 0.263366 0.469643
0.057845 0.259254 0.474023
0.029938 0.043056 0.027602
0.043595 0.177459 0.288089
0.291081 0.044396 0.076432
0.043121 0.226566 0.768116
0.065151 0.144043 0.400268
0.334938 0.174644 0.520529
0.317328 0.080163 0.969963
0.247923 0.128940 0.397236
0.092568 0.136972 0.397066
0.143608 0.042251 0.941989
0.069000 0.145151 0.208158
0.056278 0.141253 0.628191
0.093389 0.108133 0.738311
0.165893 0.063681 0.119826
0.164168 0.103985 0.193640
0.321656 0.163034 0.307136
0.065734 0.182185 0.474368
0.028417 0.288013 0.491716
0.125973 0.143307 0.393538
0.155362 0.116210 0.307411
0.142520 0.142093 0.396546
0.042486 0.194718 0.605229
0.323538 0.180182 0.368247
0.336933 0.076502 0.969983
0.324675 0.084172 0.027602
0.291590 0.086513 0.141579
0.056506 0.152236 0.271833
0.145173 0.114277 0.710691
0.107555 0.120511 0.673912
0.232206 0.096510 0.792073
0.312640 0.172148 0.919057
0.317851 0.128587 0.293513
0.162184 0.129311 0.400780
0.262231 0.134816 0.397283
0.110116 0.144626 0.411570
0.320910 0.164312 0.322825
0.173969 0.133106 0.691494
0.062378 0.231635 0.728596
0.319973 0.209837 0.200896
0.232246 0.046069 0.079080
0.325735 0.044468 0.936705
0.127788 0.134131 0.494168
