0.256252 0.815867 0.230349
0.313241 0.869336 0.452500
0.120733 0.300743 0.341498
0.276584 0.247153 0.339093
0.311807 0.162115 0.151050
0.120684 0.593096 0.217633
0.198854 0.398372 0.149625
0.214589 0.362166 0.136029
0.396723 0.867423 0.428933
0.422277 0.340842 0.326146
0.213715 0.428587 0.154557
0.183517 0.217592 0.097041
0.332392 0.156204 0.331607
0.200765 0.235078 0.093764
0.329228 0.891720 0.263618
0.434736 0.497920 0.397313
0.393668 0.359697 0.165501
0.461099 0.666981 0.323840
0.348212 0.247101 0.389166
0.334254 0.485998 0.457989
0.072797 0.322559 0.231695
0.104931 0.265991 0.167733
0.168876 0.453229 0.428549
0.170898 0.921775 0.387412
0.298897 0.552113 0.476972
0.200655 0.706779 0.453734
0.457587 0.665277 0.308262
0.379532 0.344348 0.151182
0.419952 0.689118 0.285009
0.210734 0.460703 0.164420
0.413263 0.758808 0.327045
0.159678 0.870507 0.450426
0.072234 0.406716 0.229350
0.451207 0.676520 0.318443
0.152225 0.474706 0.168775
0.454336 0.444064 0.229444
0.199649 0.656776 0.233748
0.281290 0.140489 0.105726
0.407829 0.613988 0.226998
0.100212 0.664650 0.262079
0.183781 0.060687 0.285520
0.363327 0.929994 0.374681
0.311023 0.601616 0.206379
0.215503 0.247838 0.088902
0.200021 0.203288 0.345357
0.415971 0.413911 0.372178
0.184290 0.173092 0.261877
0.480819 0.584933 0.283136
0.152500 0.603150 0.445774
0.044905 0.595432 0.382593
0.156756 0.062545 0.368233
0.387282 0.211122 0.349677
0.159061 0.445374 0.158982
0.177538 0.347356 0.399049
0.150465 0.224172 0.370114
0.253419 0.547775 0.176851
0.050609 0.628661 0.298189
0.168054 0.464786 0.165811
0.251133 0.877082 0.249717
0.346274 0.043016 0.352907
0.390134 0.255642 0.357995
0.311304 0.373239 0.414173
0.483386 0.571063 0.282054
0.187700 0.132302 0.336118
0.305466 0.334012 0.395134
0.249027 0.906111 0.430811
0.309218 0.281590 0.356300
0.261412 0.169853 0.198923
0.199747 0.779439 0.441793
0.356545 0.805203 0.246559
0.368549 0.214804 0.374657
0.114640 0.797137 0.337190
0.168322 0.894051 0.280489
0.311551 0.900952 0.420078
0.121786 0.877258 0.373469
0.327770 0.590941 0.467501
0.131310 0.746365 0.414121
0.406606 0.223607 0.226673
0.184171 0.919976 0.393848
0.280546 0.309760 0.389752
0.314172 0.385583 0.419321
0.112385 0.370752 0.181693
0.488085 0.477891 0.290063
0.327875 0.725440 0.455326
0.074777 0.578323 0.246732
0.185226 0.152966 0.277534
0.265230 0.402253 0.439161
0.052519 0.409900 0.321866
0.084601 0.401699 0.342175
0.166331 0.849265 0.260906
0.322344 0.316062 0.120308
0.320377 0.336486 0.395510
0.090124 0.361767 0.198918
0.167086 0.149191 0.128499
0.434932 0.631784 0.409807
0.353054 0.106760 0.343195
0.148531 0.082057 0.326172
0.372690 0.495723 0.436442
0.219986 0.231487 0.082847
0.392067 0.168326 0.281999
0.036940 0.590845 0.368348
0.199106 0.294341 0.385691
0.481658 0.641690 0.325474
0.404767 0.850619 0.325101
0.471547 0.447903 0.367149
0.470243 0.658482 0.330725
0.258191 0.168166 0.182504
0.278048 0.359531 0.418113
0.387164 0.828428 0.280545
0.340640 0.124081 0.339298
0.213306 0.738948 0.229256
0.445363 0.315979 0.285445
0.284574 0.432458 0.145787
0.332695 0.838534 0.435686
0.279477 0.630571 0.469331
0.386781 0.111884 0.063420
0.254651 0.325075 0.113296
0.157701 0.926644 0.371029
0.131689 0.549076 0.201556
0.158565 0.579608 0.198483
0.318481 0.775260 0.447217
0.167214 0.589144 0.203377
0.296496 0.538271 0.478202
0.437379 0.370668 0.316211
0.482817 0.479269 0.355906
0.238527 0.270102 0.356718
0.110199 0.280066 0.288969
0.412183 0.046032 0.365780
0.234738 0.941968 0.338967
0.182018 0.310025 0.112341
0.334705 0.939686 0.336107
0.167023 0.042472 0.280103
0.247749 0.847451 0.467449
0.426668 0.355551 0.327321
0.097267 0.409643 0.357858
0.436054 0.357900 0.306645
0.125688 0.216758 0.232971
0.118812 0.879315 0.356409
0.131701 0.892782 0.319272
0.333472 0.209487 0.257923
0.181318 0.676396 0.452589
0.337904 0.501510 0.461750
0.231248 0.468682 0.465042
0.117519 0.752872 0.373345
0.445540 0.687371 0.362331
0.333619 0.560503 0.199268
0.154444 0.048252 0.359759
0.361134 0.622082 0.215742
0.272254 0.389999 0.433268
0.064696 0.400122 0.241809
0.137407 0.876032 0.430456
0.324205 0.929950 0.303496
0.119840 0.226506 0.293383
0.390376 0.294781 0.361894
0.167997 0.069243 0.372485
0.155426 0.838571 0.431050
0.297346 0.169233 0.166594
0.283716 0.934295 0.382001
0.297952 0.929567 0.387817
0.066892 0.432505 0.357635
0.287359 0.132601 0.094628
0.189016 0.150171 0.291766
0.226912 0.683445 0.230234
0.064134 0.643490 0.390189
0.253000 0.273323 0.362307
0.357130 0.168737 0.245587
0.307937 0.058582 0.354204
0.290199 0.403166 0.139514
0.120793 0.579802 0.213342
0.153883 0.548750 0.450970
0.123835 0.751105 0.400934
0.321843 0.202060 0.258688
0.137429 0.430020 0.174543
0.394933 0.042567 0.345683
0.182667 0.103666 0.039189
0.425650 0.265083 0.273433
0.070862 0.578109 0.402860
0.326532 0.849742 0.246019
0.358686 0.355521 0.131018
0.353684 0.526187 0.459507
0.137093 0.889098 0.400684
0.477222 0.637630 0.306939
0.291834 0.376692 0.132693
0.270477 0.153198 0.129483
0.344712 0.615553 0.216855
0.207615 0.213585 0.307156
0.086793 0.292610 0.277874
0.138427 0.606838 0.435214
0.392634 0.447851 0.397769
0.271578 0.169527 0.188073
0.135456 0.205438 0.341680
0.268076 0.468749 0.468959
0.063606 0.363248 0.292987
0.084613 0.328313 0.206157
0.243673 0.941630 0.359381
0.246129 0.631157 0.210565
0.269307 0.301552 0.385562
0.073092 0.299942 0.271358
0.483840 0.608006 0.295750
0.175319 0.795694 0.432009
0.167064 0.782175 0.244618
0.424732 0.248432 0.172441
0.402646 0.902171 0.356619
0.432581 0.692582 0.321409
0.246646 0.770703 0.488671
0.078253 0.644941 0.273281
0.180680 0.044711 0.281903
0.340433 0.935977 0.322557
0.032184 0.518551 0.337194
0.425410 0.666578 0.411748
0.280112 0.833145 0.471023
0.431080 0.684552 0.291643
0.289569 0.746012 0.225753
0.151409 0.176290 0.126122
0.269296 0.534565 0.481804
0.405964 0.231022 0.297974
0.194898 0.331091 0.124446
0.128858 0.285484 0.351162
0.440807 0.658052 0.276447
0.345771 0.126854 0.051888
0.343601 0.902341 0.412103
0.214671 0.911143 0.274254
0.371166 0.072082 0.309395
0.379644 0.147235 0.340033
0.035653 0.509978 0.348560
0.180575 0.929027 0.310474
0.122722 0.222710 0.310465
0.484272 0.522050 0.372241
0.365297 0.853764 0.266070
0.419577 0.352698 0.338644
0.230415 0.240501 0.082148
0.314196 0.292300 0.364369
0.319616 0.458835 0.452276
0.315086 0.721689 0.458063
0.053814 0.443304 0.363419
0.170803 0.169099 0.161467
0.341132 0.464156 0.167860
0.138467 0.909907 0.333619
0.201825 0.568669 0.199152
0.410498 0.891724 0.340381
0.180142 0.817229 0.243556
0.334439 0.143464 0.319126
0.404179 0.564024 0.207679
0.292484 0.188443 0.086983
0.390418 0.765885 0.271186
0.439907 0.271723 0.263503
0.129132 0.877596 0.403304
0.486087 0.595758 0.372458
0.043229 0.434575 0.294089
0.090082 0.347603 0.199092
0.197178 0.277852 0.099811
0.187880 0.559462 0.197944
0.152971 0.914553 0.376215
0.166253 0.369964 0.134507
0.129115 0.436745 0.184044
0.249445 0.327782 0.403293
0.058909 0.477787 0.249183
0.328619 0.370435 0.411322
0.331978 0.602473 0.213665
0.117206 0.267330 0.311812
0.135698 0.809976 0.279280
0.395127 0.415297 0.388215
0.329883 0.117547 0.075624
0.235022 0.180149 0.227246
0.264158 0.177246 0.245210
0.103454 0.421425 0.372604
0.068828 0.388514 0.235247
0.386364 0.052531 0.353858
0.044376 0.510877 0.270647
0.385800 0.042038 0.324648
0.335479 0.863137 0.253176
0.111064 0.223879 0.195577
0.331583 0.773669 0.440660
0.279582 0.184087 0.263719
0.229531 0.829160 0.455463
0.118571 0.280139 0.321541
0.393758 0.802930 0.424193
0.248085 0.352351 0.121345
0.483561 0.462075 0.280109
0.489292 0.577009 0.294110
0.419502 0.435953 0.199441
0.287436 0.292833 0.111367
0.127271 0.312738 0.352932
0.224456 0.830481 0.435149
0.182406 0.120590 0.305009
0.156146 0.372265 0.145633
0.265341 0.731488 0.509446
0.389544 0.907247 0.331799
0.202167 0.315275 0.119589
0.488436 0.559851 0.288068
0.202137 0.526377 0.185474
0.082532 0.690645 0.332696
0.149217 0.357701 0.150438
0.138919 0.850215 0.436466
0.323087 0.155080 0.069429
0.326244 0.165147 0.079486
0.353221 0.200135 0.376529
0.189957 0.894984 0.421169
0.180196 0.392454 0.412227
0.452446 0.470910 0.379233
0.426591 0.409446 0.198574
0.385177 0.738289 0.424449
0.113492 0.722168 0.301401
0.134957 0.200419 0.235267
0.428631 0.346785 0.312666
0.118094 0.660256 0.246211
0.357756 0.049363 0.420498
0.280450 0.507053 0.166090
0.306854 0.336883 0.127863
0.214701 0.451236 0.451811
0.279445 0.767998 0.485892
0.153179 0.520619 0.445203
0.336458 0.041397 0.342793
0.178254 0.121842 0.047226
0.421979 0.033201 0.379246
0.483371 0.438864 0.316724
0.191184 0.041329 0.321372
0.374081 0.151884 0.261639
0.291123 0.675700 0.462697
0.438722 0.316892 0.199642
0.215644 0.435108 0.443816
0.040569 0.450089 0.293438
0.341993 0.794287 0.237642
0.236659 0.485009 0.472691
0.170468 0.707516 0.445950
0.340587 0.905433 0.278201
0.491557 0.535629 0.354969
0.101793 0.546394 0.425304
0.340288 0.513732 0.183223
0.123473 0.369981 0.173623
0.191583 0.579429 0.466538
0.202970 0.042316 0.347936
0.099942 0.600109 0.421275
0.242238 0.394028 0.432748
0.405737 0.863267 0.332116
0.072492 0.679667 0.337034
0.470908 0.629321 0.292959
0.155200 0.417449 0.154534
0.394010 0.733357 0.414386
0.199671 0.454347 0.446942
0.327339 0.202954 0.271125
0.135447 0.355583 0.162400
0.144875 0.470600 0.419378
0.319197 0.636101 0.463335
0.273920 0.172102 0.207200
0.107486 0.344272 0.335622
0.160906 0.078361 0.025644
0.057010 0.595001 0.400889
0.403785 0.423417 0.186084
0.249488 0.125104 0.060814
0.379778 0.254079 0.131998
0.139313 0.485347 0.425290
0.222461 0.841295 0.455126
0.435318 0.462798 0.216023
0.323135 0.190023 0.314113
0.072356 0.564113 0.245368
0.404603 0.639558 0.419680
0.171434 0.267343 0.120242
0.228687 0.179917 0.081830
0.430139 0.550780 0.419274
0.183694 0.719626 0.239148
0.139546 0.167394 0.334490
0.183306 0.396349 0.146115
0.164126 0.077008 0.299978
0.437149 0.384625 0.201302
0.175330 0.143169 0.119188
0.053492 0.642981 0.377281
0.223167 0.370971 0.414429
0.169926 0.152951 0.088696
0.344051 0.115419 0.073612
0.198672 0.503532 0.467169
0.166866 0.753136 0.438156
0.118488 0.695940 0.291576
0.236469 0.505508 0.168212
0.350176 0.102868 0.038309
0.366719 0.049302 0.409749
0.102430 0.311756 0.176793
0.354746 0.063585 0.245143
0.437916 0.262875 0.230298
0.134570 0.675618 0.243491
0.409800 0.696742 0.393257
0.310927 0.474453 0.166770
0.350815 0.246331 0.113519
0.399169 0.694508 0.411724
0.166083 0.157840 0.141357
0.117159 0.860938 0.367671
0.176403 0.136181 0.273996
0.077970 0.329763 0.220897
0.415189 0.292311 0.300402
0.343891 0.133727 0.285441
0.312464 0.460436 0.163439
0.418589 0.275825 0.284489
0.410736 0.506964 0.420864
0.294265 0.309067 0.384155
0.110105 0.973068 0.304136
0.195922 0.832954 0.448882
0.235697 0.933102 0.305622
0.306803 0.436347 0.154867
0.165255 0.473765 0.435642
0.382375 0.134682 0.091368
0.374433 0.630195 0.441288
0.411381 0.774535 0.328888
0.072799 0.445493 0.227521
0.241589 0.225111 0.318517
0.167457 0.189801 0.230884
0.057879 0.442237 0.250423
0.278062 0.454685 0.150328
0.157911 0.767064 0.435272
0.218662 0.751264 0.461067
0.144222 0.847372 0.279277
0.247759 0.782181 0.496078
0.426637 0.228715 0.200257
0.188885 0.276968 0.391412
0.334955 0.543126 0.193086
0.135336 0.408385 0.388829
0.071451 0.466844 0.230397
0.329967 0.170131 0.332317
0.131831 0.248111 0.139084
0.170827 0.898309 0.412246
0.301082 0.800130 0.229919
0.394871 0.937093 0.331953
0.203422 0.585172 0.470228
0.174922 0.182998 0.240518
0.372851 0.169471 0.143604
0.461887 0.617439 0.404731
0.379665 0.261073 0.371815
0.176303 0.356096 0.129742
0.306479 0.624362 0.215027
0.478731 0.563736 0.392016
0.421511 0.405199 0.361531
0.338270 0.591087 0.208585
0.262935 0.611094 0.198446
0.170127 0.098503 0.049953
0.387149 0.121592 0.075770
0.437490 0.570280 0.228699
0.162970 0.489491 0.172634
0.234258 0.172307 0.183212
0.154279 0.185455 0.227151
0.216263 0.331221 0.393570
0.292553 0.332513 0.400483
0.375476 0.883279 0.426236
0.371932 0.452589 0.416374
0.437319 0.396075 0.341794
0.234469 0.437211 0.450410
0.211813 0.168315 0.078324
0.413928 0.748843 0.312855
0.370952 0.756185 0.433856
0.371155 0.115619 0.337211
0.087496 0.506632 0.227421
0.376278 0.203973 0.184963
0.235226 0.740146 0.225763
0.151873 0.110738 0.320874
0.205229 0.895733 0.422860
0.175519 0.703589 0.245799
0.334359 0.063650 0.312557
0.437912 0.329256 0.294463
0.127604 0.218009 0.219220
0.399751 0.894253 0.331834
0.156554 0.324157 0.138813
0.093791 0.528456 0.224394
0.247925 0.406728 0.136322
0.053641 0.460435 0.372644
0.365096 0.078168 0.025311
0.304808 0.373429 0.136618
0.160522 0.357364 0.138385
0.314200 0.430567 0.440287
0.180201 0.235311 0.106121
0.336984 0.856098 0.440273
0.462570 0.669410 0.337983
0.192917 0.324526 0.394795
0.243319 0.168632 0.168967
0.125262 0.797976 0.413246
0.372868 0.549549 0.188383
0.405039 0.216048 0.290564
0.163545 0.174600 0.239672
0.300500 0.828158 0.434656
0.177470 0.173055 0.249821
0.084128 0.577951 0.235826
0.416718 0.277328 0.164044
0.250095 0.753403 0.480966
0.181288 0.327674 0.119128
0.376104 0.899371 0.300028
0.244682 0.152508 0.126422
0.351725 0.099856 0.052206
0.134655 0.499013 0.427410
0.469190 0.405475 0.315472
0.260007 0.076809 0.043923
0.165745 0.668092 0.446684
0.299073 0.608089 0.205267
0.214888 0.138273 0.103803
0.088889 0.345037 0.300850
0.405423 0.661254 0.413167
0.374534 0.186689 0.119645
0.179524 0.326004 0.398685
0.415340 0.320192 0.171578
0.183795 0.722701 0.450366
0.390831 0.343403 0.160224
0.409249 0.845799 0.338691
0.244790 0.865175 0.244855
0.212866 0.180018 0.086206
0.296166 0.239530 0.081006
0.129596 0.498468 0.195237
0.372374 0.764145 0.253391
0.056454 0.562146 0.399220
0.046529 0.650785 0.339959
0.101450 0.029253 0.382212
0.451783 0.630742 0.269451
0.154523 0.074172 0.355726
0.315186 0.202912 0.084796
0.350636 0.110188 0.303014
0.429373 0.233984 0.185899
0.342638 0.180802 0.367013
0.469099 0.538954 0.257859
0.346055 0.629696 0.456449
0.153310 0.432709 0.158988
0.335083 0.324082 0.120225
0.323717 0.265883 0.096832
0.038984 0.453651 0.307618
0.366143 0.100784 0.341826
0.142203 0.344985 0.155525
0.064625 0.450682 0.239364
0.274086 0.761874 0.224843
0.416118 0.362627 0.347415
0.365662 0.184355 0.229869
0.429241 0.505699 0.407727
0.306706 0.782958 0.452530
0.477121 0.628169 0.379599
0.264036 0.538359 0.172600
0.143738 0.704738 0.267359
0.171012 0.871279 0.266183
0.124015 0.889825 0.366271
0.230044 0.375018 0.133715
0.357502 0.302016 0.125028
0.394758 0.330207 0.159842
0.391570 0.786978 0.275524
0.321500 0.190560 0.087800
0.421106 0.704084 0.341886
0.278461 0.689805 0.461424
0.146600 0.775032 0.431819
0.463003 0.432520 0.356469
0.216050 0.691891 0.458155
0.463841 0.395292 0.306829
0.402283 0.214248 0.243050
0.393070 0.312325 0.360145
0.464293 0.329814 0.265560
0.227357 0.928156 0.295316
0.103075 0.666767 0.411976
0.487492 0.578635 0.376332
0.226531 0.513145 0.173680
0.468490 0.655752 0.316456
0.307986 0.662264 0.230357
0.149683 0.198433 0.213190
0.146765 0.503449 0.434746
0.034819 0.623284 0.340860
0.334589 0.247760 0.383564
0.115113 0.816425 0.342777
0.041279 0.482854 0.278706
0.386746 0.689860 0.427539
0.159394 0.104414 0.056523
0.154253 0.254935 0.378459
0.189744 0.469021 0.449253
0.392409 0.635916 0.431567
0.130654 0.483084 0.191227
0.403182 0.878491 0.376954
0.205113 0.246035 0.357082
0.463735 0.550647 0.397646
0.117141 0.226560 0.214970
0.434327 0.261760 0.216466
0.168486 0.416468 0.150987
0.160413 0.177655 0.159424
0.396934 0.397420 0.175840
0.258346 0.455776 0.148853
0.065672 0.373914 0.244075
0.174341 0.200534 0.089903
0.377809 0.442499 0.406688
0.203667 0.263884 0.367928
0.143728 0.579137 0.201325
0.225656 0.646861 0.464940
0.207761 0.253591 0.343921
0.405812 0.313167 0.342312
0.188580 0.935261 0.370648
0.443119 0.683795 0.376953
0.361774 0.757591 0.245605
0.199497 0.090099 0.046412
0.377854 0.682034 0.435310
0.101461 0.675906 0.271011
0.410025 0.951947 0.311638
0.106507 0.440663 0.380134
0.057197 0.408039 0.335985
0.267391 0.185953 0.273474
0.333428 0.145755 0.120309
0.098946 0.352516 0.324816
0.404119 0.631873 0.233068
0.410984 0.689965 0.274327
0.413090 0.724961 0.369750
0.401011 0.696074 0.282818
0.373810 0.074082 0.353567
0.209148 0.060144 0.339627
0.404944 0.831160 0.313863
0.342762 0.660803 0.235405
0.219102 0.261940 0.095223
0.376893 0.142417 0.273103
0.087285 0.577318 0.407463
0.229395 0.196653 0.281250
0.136607 0.628440 0.433435
0.255622 0.306286 0.388856
0.047969 0.474594 0.366331
0.244987 0.469926 0.155224
0.391047 0.628870 0.224855
0.361727 0.109555 0.041222
0.216813 0.405325 0.146935
0.352838 0.145021 0.075993
0.352609 0.807994 0.441190
0.169121 0.057295 0.237310
0.113841 0.265766 0.292888
0.353630 0.165100 0.365678
0.365173 0.397974 0.402444
0.307922 0.446046 0.450237
0.176453 0.879032 0.436118
0.043735 0.455347 0.277741
0.216823 0.448429 0.158954
0.149367 0.122502 0.064708
0.201054 0.058653 0.324798
0.292437 0.348828 0.125716
0.201523 0.232119 0.360539
0.419125 0.604263 0.425252
0.386197 0.223288 0.355937
0.296019 0.115106 0.070737
0.184854 0.179278 0.184270
0.138828 0.883874 0.415348
0.349238 0.327484 0.119124
0.199689 0.179623 0.327884
0.120610 0.785175 0.380286
0.168434 0.836244 0.255467
0.042427 0.625515 0.309124
0.286577 0.394220 0.431921
0.122280 0.208174 0.271853
0.145332 0.187847 0.138997
0.125878 0.857336 0.315279
0.165154 0.139762 0.110255
0.108882 0.059924 0.370296
0.415904 0.511990 0.213840
0.205170 0.465478 0.455175
0.316425 0.505451 0.177189
0.355669 0.042881 0.320855
0.053453 0.431338 0.352639
0.183501 0.185684 0.253596
0.282999 0.309836 0.113064
0.358095 0.049612 0.244074
0.376423 0.577445 0.197833
0.161187 0.110888 0.343331
0.389357 0.213542 0.210516
0.333073 0.386681 0.415770
0.301060 0.388614 0.423722
0.156546 0.065868 0.297982
0.254633 0.856318 0.241418
0.285906 0.775972 0.474152
0.442865 0.371512 0.211041
0.301327 0.324582 0.122893
0.238547 0.277729 0.109205
0.088440 0.271418 0.197376
0.357921 0.921543 0.385233
0.439378 0.518892 0.401068
0.299204 0.246735 0.331230
0.247623 0.514763 0.167978
0.500672 0.571697 0.314231
0.343684 0.042404 0.313070
0.328825 0.869261 0.448138
0.242975 0.206333 0.093401
0.327283 0.295196 0.109810
0.345811 0.201361 0.217324
0.356517 0.719110 0.246680
0.049649 0.648653 0.356543
0.409002 0.285412 0.317531
0.188622 0.337550 0.400605
0.043094 0.626314 0.369233
0.415685 0.623040 0.235102
0.221786 0.186402 0.234569
0.345172 0.770995 0.437441
0.428517 0.691149 0.385060
0.075954 0.509210 0.391520
0.338791 0.553816 0.465778
0.122533 0.215169 0.188178
0.175282 0.040617 0.267934
0.326716 0.137782 0.103671
0.182123 0.160230 0.266063
0.159210 0.315490 0.386668
0.450824 0.336123 0.227588
0.127235 0.196210 0.311920
0.348165 0.503396 0.178952
0.373874 0.804676 0.258930
0.389547 0.240429 0.355754
0.143611 0.168639 0.134723
0.353593 0.122909 0.082759
0.290586 0.736320 0.467313
0.169543 0.100175 0.343762
0.119308 0.847380 0.327299
0.373149 0.048326 0.355163
0.245976 0.262138 0.104788
0.229749 0.356688 0.129015
0.143457 0.622983 0.217971
0.373088 0.130039 0.341846
0.342469 0.168587 0.168707
0.164929 0.051944 0.423364
0.131097 0.574654 0.438069
0.120120 0.222747 0.258425
0.395545 0.487457 0.192415
0.154898 0.721700 0.435266
0.342259 0.060406 0.359455
0.142704 0.040542 0.341382
0.373072 0.321039 0.142158
0.201255 0.905532 0.272979
0.370793 0.173296 0.239249
0.220792 0.295293 0.368627
0.115596 0.864559 0.348577
0.388319 0.888272 0.403077
0.212147 0.784703 0.447019
0.215430 0.562236 0.192308
0.314627 0.399048 0.425354
0.272713 0.803401 0.490340
0.208130 0.871367 0.449951
0.210616 0.112453 0.069182
0.373212 0.040004 0.319953
0.066236 0.595267 0.261697
0.342522 0.181892 0.187318
0.054916 0.373610 0.271065
0.165436 0.604974 0.453206
0.344154 0.294529 0.111273
0.155009 0.211627 0.206216
0.429322 0.595246 0.417363
0.040509 0.469691 0.283284
0.126088 0.220025 0.325432
0.124948 0.861019 0.419465
0.211952 0.395853 0.424053
0.215110 0.176990 0.203769
0.172584 0.223228 0.106966
0.322243 0.845803 0.440638
0.246647 0.935429 0.315350
0.168741 0.180328 0.369778
0.160814 0.042301 0.373777
0.178756 0.125253 0.349410
0.318320 0.812468 0.443509
0.228941 0.326106 0.395172
0.123341 0.791827 0.400163
0.256847 0.204270 0.091099
0.065678 0.572459 0.255521
0.386728 0.270651 0.364292
0.335376 0.577977 0.466176
0.409030 0.784594 0.308112
0.226846 0.391209 0.425954
0.201699 0.290842 0.107878
0.333058 0.529902 0.189199
0.198816 0.915987 0.283023
0.194809 0.344514 0.130285
0.233940 0.452650 0.154163
0.110560 0.744980 0.328488
0.344931 0.108575 0.318488
0.048968 0.419709 0.338360
0.378616 0.040568 0.339148
0.372697 0.389492 0.151823
0.323834 0.144838 0.059866
0.177083 0.158834 0.150288
0.362534 0.397704 0.142869
0.216361 0.815951 0.233210
0.324497 0.878881 0.256551
0.319509 0.602706 0.468470
0.365388 0.643123 0.446249
0.123909 0.842581 0.313964
0.262874 0.360120 0.419736
0.204483 0.185356 0.210332
0.398287 0.768115 0.282199
0.160048 0.116662 0.293190
0.280464 0.608012 0.473017
0.190038 0.053139 0.308531
0.453788 0.605960 0.406113
0.119297 0.729221 0.290966
0.108467 0.463033 0.389484
0.167299 0.356458 0.396732
0.378249 0.058106 0.308859
0.177643 0.076710 0.301737
0.189755 0.170064 0.276280
0.063251 0.399569 0.324003
0.045148 0.421284 0.297945
0.394640 0.833868 0.294213
0.435227 0.454942 0.377494
0.444153 0.448608 0.218881
0.466293 0.650286 0.303417
0.193210 0.602209 0.213767
0.186396 0.511844 0.182759
0.255006 0.190585 0.084715
0.215982 0.201872 0.278597
0.281707 0.800338 0.228680
0.227461 0.877170 0.251248
0.335198 0.233426 0.097964
0.340120 0.429520 0.157370
0.327362 0.215948 0.085755
0.309378 0.123757 0.053229
0.228387 0.623600 0.468904
0.411259 0.784863 0.339675
0.305117 0.733464 0.462779
0.388935 0.813817 0.278530
0.371500 0.403601 0.153021
0.390838 0.216745 0.196969
0.184017 0.102738 0.328273
0.350172 0.095628 0.313474
0.201904 0.178694 0.197404
0.325506 0.186409 0.209150
0.311318 0.181739 0.211433
0.353001 0.198539 0.205915
0.157727 0.054611 0.287179
0.261098 0.940054 0.343999
0.229505 0.105505 0.049958
0.298537 0.123417 0.081886
0.168678 0.325632 0.126867
0.366736 0.361122 0.140539
0.394681 0.268029 0.352537
0.195072 0.857148 0.249756
0.149840 0.197304 0.175036
0.338275 0.107615 0.064012
0.197472 0.156170 0.072288
0.403385 0.938607 0.318278
0.303959 0.720531 0.228239
0.088551 0.263319 0.225132
0.151902 0.117836 0.334360
0.163609 0.123680 0.057525
0.292578 0.850927 0.240532
0.078426 0.632789 0.264772
0.424716 0.387183 0.352169
0.111595 0.737453 0.307324
0.106222 0.652669 0.411906
0.333346 0.104656 0.040695
0.248890 0.109957 0.055171
0.389341 0.061416 0.325309
0.469843 0.524592 0.256071
0.152602 0.563506 0.450431
0.042693 0.641438 0.330332
0.127113 0.193439 0.275468
0.142440 0.186386 0.347672
0.292234 0.500135 0.167548
0.151480 0.373238 0.389861
0.288801 0.246953 0.090516
0.476802 0.420274 0.271997
0.183551 0.411966 0.151889
0.347868 0.818939 0.245156
0.349648 0.403777 0.147606
0.119088 0.316584 0.341407
0.321516 0.058638 0.330564
0.136711 0.831173 0.284331
0.138174 0.941353 0.344413
0.196766 0.840026 0.435462
0.117331 0.834271 0.330736
0.411060 0.345117 0.346656
0.328920 0.926981 0.388519
0.073073 0.306993 0.230301
0.423831 0.439231 0.376219
0.256056 0.349229 0.413999
0.201986 0.581602 0.203387
0.282866 0.724211 0.465415
0.077914 0.554440 0.236537
0.170600 0.170648 0.088538
0.490006 0.484362 0.325244
0.212267 0.512424 0.178133
0.469004 0.391838 0.260114
0.174840 0.906419 0.283768
0.228275 0.873434 0.454358
0.076239 0.386929 0.333871
0.487505 0.485051 0.342167
0.380284 0.910580 0.319594
0.284964 0.694684 0.227238
0.360755 0.910579 0.395210
0.232126 0.234115 0.322628
0.411613 0.454879 0.198168
0.163126 0.047512 0.267277
0.438923 0.302373 0.283136
0.409645 0.720319 0.382296
0.318196 0.773181 0.230472
0.402597 0.546799 0.440860
0.277145 0.379477 0.128251
0.219901 0.228985 0.310520
0.234650 0.502358 0.477422
0.180560 0.110832 0.315121
0.279744 0.257655 0.347604
0.140332 0.151514 0.328610
0.213372 0.203651 0.085367
0.329509 0.542144 0.469571
0.340558 0.928935 0.380385
0.104309 0.425142 0.198493
0.211882 0.374884 0.140378
0.197121 0.191301 0.086132
0.306240 0.672113 0.461026
0.223664 0.179196 0.214408
0.406092 0.059302 0.347180
0.215322 0.840284 0.441134
0.191621 0.083805 0.033962
0.450723 0.431012 0.365252
0.131034 0.846737 0.298173
0.189990 0.149927 0.340061
0.121936 0.841713 0.417294
0.114747 0.784927 0.343621
0.313453 0.414008 0.150996
0.205008 0.844534 0.242544
0.400053 0.739092 0.403610
0.236791 0.292871 0.375657
0.151177 0.659162 0.228873
0.456936 0.385696 0.235507
0.329806 0.564189 0.468748
0.355452 0.431083 0.419420
0.406589 0.776715 0.376100
0.453627 0.430373 0.228759
0.137748 0.204947 0.180393
0.291869 0.153346 0.067699
0.395704 0.212979 0.228963
0.338353 0.531758 0.466727
0.193553 0.350012 0.403574
0.280788 0.262591 0.105127
0.151252 0.172321 0.145961
0.324678 0.244156 0.098230
0.161988 0.275360 0.388212
0.358107 0.178748 0.170753
0.198795 0.538814 0.470546
0.360796 0.118597 0.346326
0.149360 0.333205 0.146698
0.046600 0.641286 0.316227
0.380318 0.537264 0.190059
0.278457 0.708779 0.460040
0.135453 0.767841 0.423545
0.249754 0.578013 0.187375
0.091963 0.670260 0.279329
0.277829 0.353406 0.121636
0.105446 0.228729 0.207012
0.120033 0.373945 0.363789
0.157275 0.895136 0.411049
0.119330 0.844490 0.390431
0.142690 0.140521 0.099632
0.293173 0.705450 0.458630
0.310660 0.199901 0.272101
0.218484 0.060506 0.356802
0.331429 0.159770 0.318001
0.343550 0.871467 0.260396
0.319488 0.920885 0.397317
0.277357 0.773960 0.498097
0.218272 0.632851 0.465755
0.405779 0.885875 0.356781
0.275844 0.522166 0.481679
0.432456 0.536830 0.413814
0.241925 0.762899 0.475027
0.236841 0.342058 0.122773
0.363393 0.247478 0.120985
0.213376 0.127991 0.053615
0.271453 0.697207 0.225049
0.198492 0.852400 0.441948
0.250608 0.894868 0.259490
0.195091 0.824994 0.437472
0.099392 0.328269 0.182508
0.483850 0.549292 0.278779
0.270752 0.782355 0.226264
0.059794 0.656629 0.311154
0.399955 0.254436 0.339586
0.106294 0.218535 0.181719
0.310786 0.492504 0.171691
0.231655 0.551817 0.183448
0.278633 0.121578 0.078368
0.390662 0.433496 0.395453
0.265917 0.938004 0.331319
0.404362 0.781795 0.295067
0.352624 0.214048 0.380065
0.079492 0.515249 0.234470
0.224571 0.166255 0.072662
0.096814 0.225828 0.191493
0.058637 0.611148 0.278004
0.293030 0.406984 0.436004
0.320331 0.858159 0.435170
0.103099 0.530985 0.423485
0.166359 0.181554 0.172720
0.167672 0.620700 0.452229
0.129578 0.642806 0.425475
0.318268 0.738443 0.230467
0.471017 0.468628 0.253982
0.250716 0.177312 0.237784
0.212680 0.186131 0.222449
0.381082 0.231785 0.366135
0.489863 0.604368 0.361450
0.188218 0.186719 0.200039
0.136241 0.663300 0.237761
0.041021 0.573445 0.285245
0.136496 0.381462 0.380580
0.209588 0.302033 0.115903
0.285611 0.751866 0.471338
0.198081 0.518515 0.470575
0.220763 0.620279 0.212676
0.323241 0.523233 0.472366
0.367207 0.435235 0.412976
0.224057 0.635107 0.218643
0.212487 0.048354 0.355742
0.227331 0.898967 0.428993
0.126712 0.736768 0.405132
0.251065 0.648028 0.217903
0.394997 0.890342 0.318366
0.159675 0.295099 0.386925
0.441653 0.268165 0.249069
0.269135 0.594554 0.476750
0.197458 0.120652 0.079338
0.125369 0.045936 0.343422
0.156706 0.174556 0.110037
0.328643 0.471672 0.454629
0.334268 0.179141 0.083001
0.346083 0.044364 0.283350
0.303527 0.819634 0.444912
0.328359 0.189460 0.279475
0.096641 0.460407 0.381155
0.283418 0.466889 0.155133
0.111502 0.749921 0.342154
0.155729 0.042294 0.345755
0.449974 0.329585 0.287450
0.480857 0.423584 0.316485
0.135048 0.781964 0.424645
0.474261 0.615718 0.288431
0.166542 0.731174 0.441750
0.405492 0.862547 0.385755
0.264290 0.503514 0.162145
0.129834 0.587232 0.432756
0.309298 0.938761 0.319540
0.254150 0.449201 0.459547
0.201644 0.202877 0.278056
0.255126 0.137683 0.066449
0.431046 0.671681 0.276474
0.094818 0.476469 0.388018
0.498936 0.544323 0.323546
0.255769 0.389251 0.433039
0.103507 0.560427 0.423021
0.142708 0.871151 0.445625
0.476127 0.564941 0.271746
0.172418 0.865649 0.452610
0.180973 0.452289 0.435539
0.158551 0.331614 0.387104
0.243185 0.729074 0.225015
0.358766 0.089343 0.031162
0.420329 0.563296 0.215753
0.186710 0.533810 0.466372
0.239030 0.818461 0.231723
0.349248 0.310517 0.117774
0.185605 0.294106 0.107690
0.346715 0.361986 0.132399
0.184345 0.182363 0.366976
0.363100 0.041231 0.374225
0.262888 0.128838 0.089973
0.350686 0.781518 0.240734
0.464004 0.478178 0.245268
0.438059 0.607542 0.241309
0.419525 0.232863 0.216825
0.274570 0.941482 0.346345
0.116152 0.848945 0.342161
0.150792 0.137574 0.087918
0.163057 0.037862 0.430808
0.306271 0.932242 0.305370
0.411830 0.276568 0.305141
0.320539 0.862032 0.248407
0.349803 0.048187 0.375161
0.404236 0.526862 0.434330
0.222064 0.290967 0.114005
0.479864 0.422680 0.287376
0.257722 0.602500 0.475288
0.126598 0.722621 0.280980
0.083059 0.343584 0.211109
0.462354 0.431520 0.241517
0.213255 0.771937 0.229189
0.308727 0.216013 0.083012
0.400729 0.659217 0.242131
0.157100 0.930871 0.344425
0.242787 0.330643 0.117755
0.149633 0.206040 0.188146
0.375339 0.615680 0.442555
0.394601 0.251739 0.139865
0.029949 0.570596 0.304073
0.264537 0.654232 0.219070
0.468661 0.624019 0.394395
0.244247 0.578121 0.478578
0.273734 0.498743 0.478727
0.233051 0.696735 0.228072
0.353137 0.108304 0.063168
0.162188 0.213996 0.107925
0.303613 0.784226 0.228784
0.201268 0.201994 0.252730
0.194662 0.070739 0.332067
0.218583 0.310453 0.121701
0.046175 0.581841 0.387949
0.079694 0.533971 0.232768
0.180934 0.610497 0.459351
0.041333 0.439037 0.307810
0.354964 0.926045 0.313384
0.192316 0.838975 0.244720
0.294727 0.823014 0.456509
0.161134 0.780946 0.436226
0.327522 0.175096 0.309100
0.490155 0.474005 0.303421
0.389526 0.543812 0.199468
0.360294 0.064697 0.397987
0.078602 0.357782 0.299794
0.288041 0.323927 0.117893
0.034347 0.499892 0.333127
0.165650 0.908380 0.293911
0.181705 0.751356 0.237497
0.453209 0.612452 0.261278
0.238382 0.166080 0.155212
0.362018 0.699327 0.252335
0.379482 0.404291 0.395213
0.402570 0.210677 0.303123
0.073051 0.533310 0.396071
0.292574 0.481277 0.162357
0.168349 0.042416 0.386198
0.462599 0.562991 0.255555
0.347174 0.057122 0.235543
0.320623 0.878327 0.441854
0.175812 0.502864 0.178529
0.355295 0.516366 0.181951
0.113979 0.768828 0.336287
0.390118 0.181906 0.255408
0.178618 0.595472 0.208068
0.169664 0.387063 0.405528
0.148795 0.459293 0.168830
0.345182 0.935484 0.366756
0.393011 0.607674 0.433386
0.233627 0.189672 0.266733
0.382010 0.817856 0.433320
0.186187 0.155848 0.352315
0.290919 0.231560 0.321709
0.083613 0.473519 0.223023
0.078520 0.380375 0.218635
0.403119 0.671274 0.249379
0.449192 0.376535 0.221991
0.065364 0.306411 0.250366
0.451730 0.641135 0.401826
0.419393 0.716274 0.334145
0.215808 0.146086 0.115080
0.358929 0.514146 0.453245
0.404878 0.223035 0.157600
0.222470 0.815714 0.434892
0.322506 0.675140 0.238638
0.310886 0.064574 0.372922
0.366623 0.043630 0.307614
0.105189 0.696630 0.315790
0.320204 0.551758 0.472603
0.162162 0.202728 0.196598
0.231071 0.935732 0.378505
0.138594 0.123469 0.078151
0.409443 0.548831 0.209309
0.190158 0.773845 0.234450
0.488744 0.565948 0.370621
0.387895 0.146310 0.307718
0.453510 0.679362 0.334851
0.295253 0.606782 0.472073
0.326128 0.855808 0.458712
0.381690 0.180090 0.244072
0.199759 0.488652 0.462946
0.092729 0.590929 0.231091
0.374014 0.707290 0.260473
0.029733 0.607660 0.339356
0.305208 0.703506 0.229707
0.238030 0.147155 0.115603
0.199732 0.927419 0.388820
0.183762 0.691275 0.241755
0.294262 0.561578 0.186498
0.429139 0.241596 0.210069
0.140607 0.565522 0.198425
0.406546 0.358347 0.357438
0.204763 0.208350 0.330721
0.392870 0.386141 0.379209
0.184786 0.151121 0.074152
0.329773 0.693168 0.454505
0.363270 0.309963 0.389061
0.224677 0.135503 0.059246
0.082510 0.333861 0.292752
0.165230 0.236305 0.116582
0.071935 0.678043 0.357973
0.214460 0.659118 0.230187
0.260766 0.384681 0.127819
0.407144 0.293420 0.328554
0.457581 0.648507 0.390970
0.052156 0.511910 0.259435
0.355569 0.916812 0.299193
0.134181 0.793897 0.277633
0.371367 0.719743 0.255518
0.449544 0.564912 0.241044
0.311528 0.397642 0.145659
0.213519 0.248007 0.327121
0.371483 0.383347 0.394963
0.454401 0.284284 0.243178
0.153521 0.398286 0.152967
0.421466 0.604086 0.229673
0.407936 0.761229 0.373000
0.149460 0.178979 0.239573
0.171190 0.889642 0.422937
0.245849 0.083397 0.044513
0.185612 0.780207 0.438190
0.340587 0.204747 0.373692
0.400646 0.341312 0.358338
0.343753 0.415965 0.152910
0.395462 0.530923 0.202148
0.394653 0.616044 0.221214
0.324943 0.225115 0.357668
0.077855 0.614709 0.407678
0.309927 0.925021 0.292001
0.103083 0.692377 0.386855
0.112166 0.294312 0.163492
0.282242 0.169767 0.178067
0.373857 0.823067 0.262974
0.054410 0.546742 0.395244
0.298902 0.346750 0.404390
0.486618 0.459609 0.293412
0.413737 0.652392 0.246493
0.358623 0.075793 0.289649
0.120338 0.353457 0.356183
0.367131 0.506205 0.444946
0.316517 0.217135 0.303025
0.480904 0.515896 0.269181
0.326475 0.159605 0.150082
0.389142 0.506255 0.190095
0.367208 0.609725 0.209165
0.231806 0.312705 0.386864
0.401998 0.268321 0.336309
0.122801 0.674070 0.251150
0.423610 0.576554 0.221699
0.272870 0.736693 0.224372
0.361995 0.114366 0.293440
0.396214 0.896424 0.372792
0.032244 0.510936 0.294993
0.133053 0.165739 0.290128
0.265283 0.157737 0.141224
0.368523 0.347480 0.140049
0.247420 0.742412 0.472897
0.115789 0.563882 0.430074
0.477844 0.400708 0.301180
0.375513 0.153082 0.122373
0.279202 0.235804 0.328852
0.285636 0.233122 0.086818
0.174342 0.233082 0.384964
0.258982 0.374023 0.425965
0.474731 0.609703 0.388594
0.468704 0.644362 0.380650
0.062976 0.387263 0.247893
0.202013 0.428012 0.435228
0.415234 0.665713 0.254673
0.484380 0.438982 0.303133
0.086675 0.264287 0.210162
0.166319 0.312024 0.128051
0.113592 0.690259 0.277289
0.200775 0.724199 0.456289
0.265557 0.753960 0.514505
0.072305 0.285074 0.262890
0.373886 0.894918 0.407840
0.315148 0.322517 0.387725
0.292853 0.593433 0.197366
0.376599 0.376165 0.153633
0.196087 0.137579 0.055415
0.077300 0.612400 0.255803
0.220619 0.941192 0.334812
0.430048 0.696623 0.351328
0.093008 0.257236 0.239397
0.105283 0.708028 0.343794
0.093013 0.610109 0.409124
0.150076 0.643985 0.223423
0.343500 0.695326 0.451324
0.351766 0.909959 0.288088
0.328694 0.179711 0.195729
0.377793 0.633736 0.220229
0.191606 0.765445 0.442654
0.457338 0.340581 0.241563
0.393760 0.658689 0.421332
0.298769 0.197376 0.280606
0.379143 0.506614 0.180785
0.184144 0.148516 0.128911
0.237740 0.819543 0.465574
0.381265 0.463386 0.173763
0.421339 0.264705 0.168081
0.409747 0.793252 0.351654
0.379163 0.773895 0.260132
0.086889 0.488610 0.224041
0.159743 0.105452 0.039024
0.397534 0.460915 0.402984
0.410748 0.789087 0.323554
0.438427 0.671520 0.288050
0.441991 0.534017 0.401428
0.274776 0.528856 0.171543
0.462522 0.515299 0.245857
0.068644 0.296944 0.240168
0.341821 0.151194 0.276394
0.130507 0.232083 0.143000
0.228430 0.534893 0.478170
0.073581 0.312087 0.278151
0.115079 0.790424 0.324343
0.463792 0.368044 0.293943
0.357938 0.151350 0.088480
0.213505 0.166788 0.166555
0.033457 0.492212 0.318714
0.464961 0.334197 0.280097
0.326601 0.165502 0.166481
0.150222 0.673414 0.437205
0.184947 0.627908 0.458424
0.307697 0.310667 0.379218
0.345307 0.277676 0.113476
0.121117 0.466903 0.402322
0.052047 0.529372 0.261743
0.235130 0.653847 0.222499
0.274620 0.756956 0.497034
0.302837 0.249934 0.086829
0.325061 0.079472 0.035213
0.292559 0.578135 0.191673
0.454343 0.599308 0.256792
0.038834 0.533909 0.369035
0.152665 0.288370 0.136482
0.088115 0.439731 0.373700
0.183554 0.054396 0.271342
0.382055 0.239768 0.129687
0.479825 0.485391 0.367869
0.381430 0.169514 0.253350
0.323083 0.115326 0.046774
0.234630 0.158007 0.135207
0.188410 0.482343 0.454621
0.057689 0.585768 0.268764
0.277956 0.326838 0.402648
0.268527 0.723412 0.466859
0.089146 0.379675 0.336831
0.412332 0.373497 0.357938
0.199172 0.060542 0.361016
0.252716 0.431184 0.450693
0.149980 0.310390 0.142975
0.085189 0.437666 0.214154
0.431444 0.578051 0.416356
0.196371 0.642968 0.229988
0.163368 0.881051 0.275579
0.060122 0.537303 0.253611
0.243051 0.730547 0.467439
0.394259 0.371369 0.373286
0.370264 0.141137 0.350027
0.214267 0.786400 0.229989
0.116752 0.547858 0.436652
0.343115 0.040669 0.326703
0.148456 0.488490 0.175326
0.356373 0.369223 0.401152
0.405931 0.272396 0.323958
0.069800 0.480696 0.233857
0.207078 0.681652 0.457815
0.185837 0.163311 0.081609
0.136489 0.171789 0.266017
0.325840 0.198960 0.342112
0.381722 0.418687 0.397310
0.306433 0.185070 0.087925
0.171053 0.144548 0.077140
0.198402 0.940452 0.336337
0.230866 0.147391 0.064712
0.284348 0.337682 0.119997
0.061400 0.666220 0.352961
0.390363 0.519893 0.194376
0.097892 0.605737 0.233656
0.223136 0.164539 0.153593
0.309438 0.118085 0.075122
0.039583 0.482060 0.347438
0.218750 0.171578 0.178642
0.092486 0.558455 0.415162
0.334906 0.183254 0.266113
0.176018 0.577440 0.460148
0.403973 0.490969 0.419390
0.345449 0.419768 0.422027
0.113988 0.257093 0.281685
0.238785 0.866129 0.460470
0.296195 0.191511 0.266889
0.369168 0.659600 0.230425
0.120504 0.385182 0.178906
0.211644 0.637874 0.223745
0.094225 0.266900 0.185078
0.384077 0.203478 0.219991
0.140137 0.176034 0.251972
0.151918 0.810405 0.436509
0.263106 0.901020 0.441042
0.118911 0.917788 0.338845
0.451589 0.588520 0.403959
0.381573 0.396045 0.161969
0.312339 0.814545 0.233400
0.054495 0.645339 0.304686
0.444426 0.592514 0.243216
0.336972 0.429050 0.429563
0.438697 0.595729 0.406226
0.119431 0.904992 0.333451
0.426016 0.276129 0.175356
0.309048 0.156379 0.135207
0.183579 0.050792 0.296699
0.386054 0.894351 0.308894
0.367281 0.184465 0.106321
0.311978 0.752327 0.228813
0.295786 0.626730 0.468693
0.185914 0.910574 0.404397
0.321264 0.152063 0.130619
0.358739 0.743837 0.244845
0.192702 0.875005 0.441913
0.241556 0.098431 0.049591
0.453789 0.582550 0.251109
0.282562 0.433043 0.450426
0.442565 0.690956 0.331652
0.276801 0.896603 0.260787
0.057045 0.580437 0.401540
0.377607 0.648235 0.225941
0.139570 0.563828 0.446121
0.135263 0.252664 0.356547
0.410497 0.753491 0.361400
0.157865 0.301381 0.135141
0.166822 0.515982 0.453663
0.137097 0.393352 0.168751
0.400880 0.824898 0.302422
0.389603 0.719989 0.418701
0.288264 0.517884 0.171508
0.248268 0.824084 0.474274
0.283361 0.606624 0.199571
0.224895 0.784912 0.457269
0.453788 0.323282 0.233327
0.377619 0.835080 0.270725
0.314820 0.890936 0.430601
0.349330 0.346100 0.125818
0.128415 0.203961 0.323576
0.320539 0.703033 0.233970
0.130723 0.205152 0.155190
0.218729 0.796623 0.448063
0.276066 0.482772 0.158142
0.211383 0.475892 0.462261
0.174607 0.271210 0.393725
0.082911 0.522491 0.398030
0.117114 0.807459 0.319285
0.209547 0.941601 0.348211
0.326399 0.296342 0.385913
0.052111 0.433971 0.261949
0.205172 0.199577 0.293773
0.244927 0.561139 0.182337
0.341877 0.921229 0.392304
0.408170 0.362048 0.176225
0.266581 0.752426 0.481316
0.036704 0.474239 0.296241
0.469455 0.425805 0.254770
0.119743 0.509766 0.423736
0.388878 0.265577 0.139849
0.373454 0.216104 0.122836
0.121147 0.063106 0.363292
0.378903 0.275184 0.374431
0.405348 0.216226 0.274504
0.230751 0.468967 0.159832
0.371434 0.519943 0.445918
0.295508 0.792994 0.461027
0.079752 0.684313 0.367361
0.227565 0.864380 0.245690
0.231621 0.245925 0.333197
0.322610 0.110322 0.066601
0.270110 0.195020 0.294967
0.284126 0.547829 0.479828
0.098641 0.683234 0.283918
0.262426 0.688109 0.462041
0.040435 0.551530 0.375333
0.404685 0.380876 0.367367
0.427348 0.528178 0.221370
0.411015 0.290658 0.160743
0.081832 0.310908 0.211323
0.397391 0.750168 0.278545
0.439585 0.546395 0.406620
0.171256 0.910437 0.399001
0.294840 0.279816 0.110899
0.111350 0.535122 0.433548
0.494133 0.500781 0.308831
0.212732 0.920244 0.285193
0.310479 0.469369 0.460956
0.410553 0.876109 0.344013
0.304115 0.649923 0.224897
0.278576 0.174780 0.221728
0.400500 0.301776 0.348545
0.336335 0.138621 0.333261
0.277135 0.415145 0.138650
0.458563 0.317480 0.276226
0.371855 0.910052 0.384952
0.193567 0.396067 0.418629
0.304110 0.233202 0.315756
0.149919 0.689627 0.436559
0.046090 0.437446 0.340793
0.340985 0.474936 0.449375
0.104495 0.236983 0.172524
0.413420 0.626428 0.418807
0.178908 0.440773 0.428196
0.242079 0.183917 0.081811
0.336509 0.202140 0.229529
0.453116 0.307784 0.231081
0.187665 0.497745 0.460512
0.210503 0.391840 0.145393
0.325667 0.466799 0.169717
0.383098 0.162084 0.339111
0.118068 0.822771 0.322781
0.405250 0.210611 0.166247
0.435263 0.332404 0.196253
0.163150 0.343578 0.133807
0.286200 0.153553 0.127243
0.409847 0.829916 0.367492
0.152672 0.237406 0.124024
0.464398 0.623130 0.281446
0.433315 0.597398 0.233252
0.198526 0.362382 0.137189
0.089727 0.632301 0.250430
0.361833 0.772958 0.246071
0.173785 0.113253 0.292961
0.311888 0.895878 0.263016
0.167276 0.043105 0.309479
0.213116 0.089584 0.046528
0.323838 0.288079 0.375206
0.141539 0.294052 0.144985
0.480207 0.415251 0.302417
0.125923 0.485819 0.419591
0.164048 0.573414 0.454794
0.282074 0.644555 0.217222
0.111282 0.331754 0.174111
0.199389 0.101616 0.058127
0.368596 0.273970 0.383689
0.343108 0.074387 0.309527
0.127684 0.423053 0.182194
0.124519 0.341921 0.167434
0.091664 0.513286 0.404990
0.400080 0.732038 0.282330
0.484185 0.483085 0.277929
0.324994 0.213705 0.349567
0.459343 0.536394 0.246032
0.349371 0.040706 0.270660
0.151967 0.918949 0.324569
0.323647 0.450298 0.164482
0.353252 0.190809 0.192651
0.234583 0.336001 0.402736
0.149357 0.535215 0.449580
0.242590 0.351658 0.412705
0.452903 0.343114 0.290645
0.315210 0.050612 0.343096
0.404639 0.562571 0.434853
0.126567 0.561274 0.439221
0.365199 0.105065 0.057499
0.168016 0.039601 0.354144
0.400715 0.464655 0.192792
0.121782 0.865960 0.328114
0.051122 0.481670 0.259990
0.154006 0.215533 0.120056
0.099150 0.540209 0.219197
0.293415 0.913272 0.410886
0.290386 0.708115 0.227066
0.171729 0.153151 0.258452
0.201572 0.906468 0.411193
0.292657 0.765812 0.466248
0.153549 0.039940 0.328121
0.236551 0.911795 0.272594
0.233798 0.123210 0.081303
0.136329 0.114504 0.066133
0.231068 0.763024 0.465745
0.303021 0.423633 0.149953
0.281437 0.160242 0.142324
0.416451 0.420715 0.194091
0.243800 0.788239 0.483245
0.128972 0.690225 0.415145
0.341665 0.139843 0.064314
0.310833 0.941978 0.353496
0.376577 0.130415 0.078089
0.247287 0.188124 0.274301
0.321259 0.202085 0.322092
0.105020 0.254052 0.259675
0.339589 0.126956 0.088737
0.294596 0.871101 0.457457
0.115458 0.317222 0.167323
0.389836 0.764188 0.423472
0.360108 0.901841 0.406037
0.230616 0.941992 0.366410
0.401192 0.845344 0.426070
0.051834 0.651851 0.324273
0.046198 0.568299 0.391042
0.104303 0.494638 0.213852
0.476573 0.402246 0.285770
0.486582 0.536575 0.370764
0.436708 0.345620 0.200716
0.396271 0.580280 0.435074
0.153163 0.102677 0.332781
0.127182 0.614358 0.431213
0.182510 0.116402 0.074991
0.164188 0.927192 0.322718
0.295753 0.374327 0.419289
0.118992 0.736755 0.385860
0.407640 0.229555 0.284312
0.329883 0.503902 0.181377
0.341897 0.100613 0.330497
0.432568 0.283827 0.184521
0.236409 0.291544 0.111786
0.264189 0.092221 0.050433
0.159082 0.866074 0.272565
0.407961 0.815034 0.373747
0.131706 0.422760 0.390917
0.149174 0.113417 0.054094
0.071614 0.339351 0.235042
0.168299 0.305602 0.392217
0.342394 0.234866 0.383753
0.472820 0.482040 0.256674
0.192813 0.193436 0.261647
0.467109 0.605170 0.400162
0.081545 0.590986 0.242624
0.255193 0.529706 0.481849
0.151400 0.427328 0.405254
0.379196 0.917549 0.332895
0.421429 0.701262 0.327255
0.211792 0.875297 0.252774
0.152556 0.305160 0.380714
0.038876 0.604255 0.367324
0.135707 0.374166 0.166225
0.237746 0.804644 0.465378
0.289647 0.267408 0.353879
0.140306 0.817537 0.431315
0.353572 0.606688 0.211038
0.335435 0.839210 0.245464
0.294339 0.926944 0.292966
0.408933 0.807189 0.356167
0.096896 0.438338 0.206361
0.216869 0.695125 0.231682
0.261428 0.204300 0.304238
0.122418 0.627384 0.427170
0.327529 0.896483 0.420740
0.339271 0.357361 0.405328
0.396297 0.358028 0.366522
0.411359 0.769581 0.341874
0.182285 0.893870 0.271975
0.437329 0.483388 0.388357
0.333265 0.604157 0.463553
0.178844 0.486359 0.173873
0.406800 0.261700 0.149799
0.258784 0.940188 0.358405
0.218124 0.753842 0.227885
0.185402 0.365285 0.135012
0.417246 0.450888 0.384566
0.144010 0.518087 0.186059
0.083806 0.604863 0.244730
0.279382 0.786079 0.491648
0.467108 0.492704 0.250235
0.410733 0.424348 0.379748
0.420603 0.497380 0.213832
0.454630 0.540419 0.397202
0.313611 0.102920 0.059046
0.400423 0.514814 0.202358
0.366185 0.328853 0.387805
0.170923 0.042589 0.325255
0.312275 0.248300 0.327205
0.322405 0.941216 0.360666
0.452836 0.358559 0.296725
0.392007 0.705176 0.274966
0.118445 0.801190 0.370615
0.353269 0.683881 0.448624
0.045552 0.422708 0.319687
0.222980 0.486764 0.470254
0.227289 0.775402 0.227674
0.112445 0.283538 0.302773
0.250552 0.765417 0.500906
0.245460 0.117745 0.073336
0.184863 0.379733 0.410682
0.144918 0.082507 0.026773
0.378704 0.357827 0.152660
0.160216 0.160290 0.106811
0.034989 0.532173 0.355338
0.326055 0.263384 0.375233
0.462182 0.638653 0.287834
0.165726 0.057684 0.251870
0.262667 0.468534 0.151814
0.139356 0.692299 0.427671
0.120591 0.801202 0.303578
0.315561 0.230915 0.323524
0.273781 0.266842 0.356560
0.161530 0.378719 0.398393
0.248716 0.297656 0.109152
0.089549 0.644504 0.257535
0.165762 0.102788 0.302893
0.318081 0.177653 0.085260
0.234659 0.304731 0.114596
0.292447 0.104171 0.059269
0.123057 0.201839 0.287335
0.195117 0.450087 0.164977
0.299665 0.750850 0.464645
0.113937 0.510056 0.210784
0.239595 0.712985 0.225806
0.258451 0.181870 0.263181
0.421808 0.346351 0.182923
0.243777 0.193601 0.286630
0.495490 0.609663 0.339367
0.452202 0.375496 0.304004
0.365444 0.893974 0.285634
0.249197 0.406749 0.440472
0.332004 0.049683 0.315004
0.302108 0.207588 0.293703
0.359171 0.441588 0.158743
0.264648 0.736565 0.472611
0.213390 0.217626 0.295447
0.357482 0.414705 0.412896
0.387995 0.372565 0.164427
0.263583 0.640806 0.213505
0.400400 0.221272 0.212583
0.256374 0.703842 0.224193
0.471540 0.426043 0.347979
0.040911 0.586787 0.289036
0.349806 0.316566 0.396394
0.413879 0.749747 0.347933
0.199235 0.131033 0.094070
0.113857 0.930601 0.321040
0.367339 0.158181 0.134482
0.452676 0.423810 0.351403
0.336100 0.476076 0.172224
0.405605 0.814911 0.388819
0.334043 0.194404 0.084028
0.358232 0.856450 0.431585
0.218740 0.102572 0.057910
0.158832 0.909972 0.390082
0.151195 0.934699 0.362153
0.261564 0.370202 0.123764
0.107024 0.476030 0.395440
0.233320 0.788621 0.228300
0.264208 0.937698 0.373481
0.102536 0.513818 0.219075
0.353110 0.831045 0.251076
0.048914 0.456948 0.358535
0.138550 0.329791 0.154627
0.382221 0.290079 0.372633
0.330908 0.940371 0.350005
0.357970 0.454552 0.428451
0.113457 0.232573 0.162422
0.115188 0.734142 0.371682
0.250060 0.828033 0.233165
0.232596 0.721937 0.463309
0.363945 0.593019 0.453141
0.407601 0.965704 0.315512
0.060486 0.515983 0.249395
0.167572 0.603616 0.208666
0.266696 0.266183 0.102682
0.199145 0.175467 0.083280
0.392734 0.401390 0.383957
0.182809 0.125621 0.087043
0.119021 0.771249 0.376441
0.110868 0.708644 0.304562
0.062024 0.307295 0.266851
0.088388 0.532789 0.406954
0.405795 0.716830 0.289068
0.089234 0.320806 0.292494
0.369486 0.343066 0.386024
0.168375 0.435414 0.419547
0.388189 0.959530 0.323664
0.163019 0.567014 0.195337
0.377748 0.076967 0.322449
0.362664 0.201779 0.196756
0.232218 0.848713 0.465869
0.390338 0.740603 0.271636
0.261375 0.288859 0.105974
0.164849 0.642843 0.224742
0.084267 0.548039 0.404299
0.489000 0.471336 0.317037
0.193716 0.169222 0.339696
0.379009 0.183682 0.136934
0.183033 0.279775 0.111223
0.400066 0.875458 0.321621
0.386719 0.851749 0.287424
0.050093 0.405022 0.304678
0.421317 0.330269 0.314424
0.158404 0.149035 0.261530
0.205631 0.356709 0.404734
0.374677 0.080516 0.340981
0.247316 0.936407 0.378351
0.297334 0.320899 0.391089
0.137409 0.874021 0.298449
0.474392 0.387598 0.296470
0.302117 0.182232 0.223546
0.210258 0.160779 0.148838
0.149087 0.059362 0.307730
0.160503 0.233032 0.381413
0.345418 0.136563 0.105903
0.231796 0.449579 0.456057
0.264285 0.923379 0.290040
0.400875 0.197571 0.296077
0.425775 0.332876 0.182253
0.296095 0.172014 0.180054
0.253807 0.528533 0.170942
0.122238 0.207026 0.176979
