0.265168 0.301130 0.291951
0.210538 0.144208 0.220503
0.454373 0.890429 0.244136
0.452726 0.671868 0.143085
0.160311 0.261552 0.367340
0.446757 0.876642 0.277743
0.402183 0.868321 0.146291
0.383816 0.386265 0.239334
0.227618 0.308258 0.157016
0.300615 0.484517 0.246140
0.323244 0.318858 0.217217
0.321101 0.303772 0.217984
0.450350 0.819529 0.240592
0.260958 0.580652 0.352113
0.312952 0.381096 0.209293
0.428496 0.484608 0.270211
0.282213 0.820880 0.176033
0.294994 0.326291 0.323821
0.398709 0.949183 0.203341
0.392631 0.788448 0.123149
0.269924 0.693708 0.250170
0.313031 0.402549 0.294828
0.141678 0.085562 0.271218
0.220597 0.241308 0.328718
0.278526 0.333219 0.201365
0.364636 0.537006 0.066413
0.282064 0.490545 0.382409
0.360557 0.968174 0.265874
0.425963 0.508773 0.322019
0.363227 0.424505 0.289223
0.237745 0.780067 0.396429
0.302042 0.531233 0.263794
0.463812 0.606714 0.209529
0.309822 0.777583 0.155529
0.242226 0.795371 0.261754
0.157268 0.571343 0.490903
0.202471 0.655669 0.464316
0.369074 0.963250 0.287414
0.219055 0.627279 0.431106
0.312411 0.742566 0.425201
0.445323 0.549806 0.156177
0.335094 0.585302 0.198891
0.337497 0.340049 0.195465
0.226605 0.252821 0.165829
0.117436 0.108631 0.279121
0.432007 0.712269 0.114300
0.094190 0.058100 0.262282
0.131888 0.437589 0.483129
0.275323 0.947838 0.206881
0.318601 0.509562 0.186041
0.443757 0.845135 0.293255
0.188141 0.310994 0.067710
0.136958 0.170507 0.166437
0.253542 0.345485 0.139983
0.249859 0.292204 0.226497
0.373468 0.721720 0.405378
0.287697 0.368972 0.292872
0.325989 0.453339 0.361521
0.241891 0.270487 0.281959
0.138020 0.155633 0.139429
0.359465 0.934430 0.328930
0.463215 0.625179 0.235415
0.156260 0.199077 0.075785
0.139415 0.155773 0.122411
0.300241 0.357368 0.107473
0.233039 0.379862 0.065042
0.355172 0.718743 0.110607
0.098241 0.104099 0.276300
0.207416 0.762378 0.328194
0.280692 0.843353 0.367232
0.241942 0.362911 0.328480
0.160078 0.253855 0.380260
0.264391 0.364879 0.236285
0.222945 0.614003 0.440299
0.343543 0.629980 0.187963
0.459589 0.684950 0.255654
0.451995 0.866487 0.234333
0.110546 0.397453 0.453072
0.437625 0.574230 0.103789
0.139432 0.108727 0.123168
0.456259 0.640479 0.137155
0.317544 0.970158 0.236100
0.313730 0.332330 0.296993
0.236519 0.549432 0.372798
0.252563 0.352022 0.189503
0.251411 0.847303 0.339335
0.316486 0.607372 0.240128
0.153907 0.212593 0.080703
0.329620 0.680110 0.162456
0.284924 0.288797 0.330109
0.432586 0.905908 0.191697
0.323473 0.449723 0.377268
0.427073 0.908357 0.301420
0.450152 0.654383 0.117600
0.252232 0.694450 0.278180
0.211192 0.206158 0.336874
0.147027 0.223257 0.387438
0.306360 0.319997 0.214836
0.230127 0.355949 0.334574
0.355426 0.765166 0.408844
0.354692 0.366421 0.221705
0.247981 0.347367 0.243559
0.334955 0.645251 0.197323
0.200942 0.250379 0.256461
0.110290 0.149834 0.251965
0.416899 0.441044 0.256365
0.253286 0.837194 0.353380
0.255320 0.250438 0.190812
0.284562 0.945757 0.194674
0.458923 0.713724 0.207421
0.249140 0.790417 0.393067
0.125393 0.614996 0.385560
0.297512 0.536053 0.276759
0.049759 0.505180 0.472802
0.287631 0.426349 0.278640
0.285025 0.251508 0.187919
0.458902 0.591304 0.290173
0.265168 0.295753 0.125617
0.247397 0.816032 0.244783
0.233087 0.561984 0.403192
0.291277 0.557399 0.297795
0.329073 0.486711 0.398435
0.430809 0.526699 0.127155
0.229183 0.333698 0.385598
0.420011 0.453588 0.265995
0.459609 0.685996 0.271047
0.363421 0.795313 0.120179
0.375314 0.620019 0.095659
0.283617 0.569050 0.424572
0.217448 0.268196 0.035876
0.332715 0.511674 0.069977
0.252319 0.234780 0.149691
0.286075 0.343490 0.320314
0.438800 0.841895 0.183930
0.285493 0.383484 0.287276
0.299537 0.518422 0.275735
0.422320 0.514810 0.338862
0.109338 0.121838 0.339997
0.202506 0.109734 0.252085
0.356313 0.453257 0.386512
0.270275 0.280328 0.062619
0.323566 0.528308 0.185211
0.362585 0.402208 0.339006
0.083011 0.101838 0.116742
0.247266 0.547625 0.383238
0.237011 0.845804 0.248265
0.254931 0.720208 0.254641
0.164432 0.224543 0.152160
0.221976 0.235628 0.191410
0.142134 0.183613 0.165660
0.129068 0.110951 0.172583
0.072603 0.101526 0.168405
0.253146 0.214637 0.256167
0.416316 0.592400 0.386665
0.112930 0.235116 0.053473
0.271471 0.951160 0.262006
0.300373 0.495846 0.254433
0.374539 0.747986 0.107844
0.286437 0.381630 0.046396
0.059227 0.049434 0.224398
0.384205 0.552742 0.067752
0.201491 0.200775 0.218865
0.406636 0.814793 0.357247
0.077986 0.582274 0.450637
0.287049 0.434077 0.054636
0.058766 0.097198 0.123807
0.187889 0.301003 0.053881
0.070172 0.392065 0.452563
0.046978 0.136716 0.381244
0.403863 0.403345 0.284810
0.335997 0.397830 0.135415
0.275267 0.325800 0.320744
0.441175 0.871214 0.197818
0.206818 0.732286 0.317740
0.308539 0.427655 0.269897
0.117185 0.517491 0.419511
0.438308 0.787017 0.318064
0.339188 0.909828 0.142297
0.303321 0.367200 0.049599
0.349655 0.430915 0.236325
0.062896 0.134155 0.335359
0.376133 0.413295 0.288591
0.342203 0.439619 0.275763
0.427096 0.652729 0.367102
0.465306 0.619392 0.181913
0.059082 0.150585 0.382270
0.344968 0.682967 0.431698
0.325097 0.812383 0.394218
0.237845 0.564092 0.364755
0.282458 0.329364 0.044559
0.191074 0.691185 0.345314
0.170318 0.706203 0.355229
0.031167 0.106882 0.367365
0.194574 0.223819 0.328994
0.289864 0.331708 0.217402
0.240245 0.805940 0.370029
0.130427 0.480012 0.454515
0.279362 0.608287 0.298433
0.306984 0.397258 0.116433
0.449455 0.631800 0.105030
0.326739 0.331511 0.199140
0.398016 0.904072 0.331217
0.277386 0.497385 0.368776
0.349840 0.858753 0.128635
0.176420 0.177388 0.123213
0.400409 0.410087 0.175894
0.452415 0.590458 0.304880
0.139941 0.114792 0.279641
0.244726 0.845843 0.235506
0.107984 0.361921 0.463013
0.425583 0.667028 0.369518
0.336804 0.300708 0.284162
0.232522 0.839557 0.302476
0.156493 0.185810 0.270205
0.154367 0.653094 0.411599
0.180327 0.199257 0.049956
0.231284 0.741266 0.425071
0.265813 0.267394 0.123094
0.430224 0.762620 0.134118
0.367541 0.371978 0.225431
0.253428 0.867804 0.181297
0.250139 0.357249 0.265303
0.107597 0.151107 0.126382
0.355173 0.615469 0.157719
0.425951 0.821510 0.339687
0.296997 0.412378 0.117105
0.187530 0.273679 0.341313
0.253562 0.399775 0.334308
0.263644 0.343141 0.285129
0.254979 0.219487 0.237313
0.288990 0.265415 0.366939
0.224973 0.360322 0.346817
0.132197 0.140927 0.253487
0.180521 0.650082 0.411113
0.091299 0.453836 0.527853
0.305902 0.473895 0.164769
0.265804 0.602362 0.455573
0.312567 0.422177 0.399152
0.254494 0.251816 0.333315
0.341164 0.423685 0.227900
0.291860 0.299459 0.125392
0.196237 0.577519 0.386322
0.287797 0.677409 0.238648
0.227020 0.266896 0.131971
0.395070 0.663580 0.402679
0.161818 0.698096 0.427721
0.205300 0.156738 0.131747
0.313484 0.403473 0.051791
0.246052 0.182417 0.159080
0.420464 0.812007 0.348236
0.383040 0.425266 0.255141
0.227919 0.312854 0.058153
0.089244 0.333074 0.505968
0.205884 0.251048 0.134958
0.381526 0.400517 0.287118
0.269423 0.332113 0.291237
0.334602 0.570944 0.190378
0.186468 0.241670 0.331211
0.299580 0.260809 0.292150
0.443095 0.518122 0.219394
0.310642 0.590257 0.251056
0.057607 0.432599 0.500342
0.229446 0.275800 0.262554
0.303948 0.279529 0.216936
0.365558 0.331253 0.236714
0.268418 0.944121 0.275632
0.344363 0.733686 0.115983
0.283478 0.457768 0.313571
0.377754 0.507031 0.388932
0.128970 0.156485 0.331905
0.237926 0.732243 0.438541
0.145012 0.199754 0.336818
0.447828 0.817945 0.197000
0.334133 0.962827 0.298213
0.411795 0.574846 0.078359
0.067608 0.560020 0.472464
0.132127 0.179836 0.390367
0.346544 0.434951 0.103222
0.351036 0.489515 0.060731
0.267428 0.293965 0.323498
0.223709 0.279251 0.153752
0.220095 0.266171 0.091744
0.328861 0.548334 0.187575
0.215592 0.334833 0.077620
0.315664 0.645570 0.229090
0.357894 0.568092 0.422184
0.333551 0.502684 0.399545
0.335749 0.331660 0.137083
0.281379 0.342019 0.105986
0.453620 0.549466 0.245909
0.439500 0.839933 0.306735
0.408520 0.751318 0.117037
0.238136 0.278937 0.133995
0.302250 0.764074 0.417907
0.097057 0.404001 0.448861
0.133168 0.092722 0.216045
0.312276 0.541747 0.407596
0.348979 0.587543 0.153116
0.170247 0.261902 0.346499
0.319594 0.239377 0.268108
0.338855 0.391256 0.329622
0.237128 0.836413 0.266327
0.157304 0.148795 0.376677
0.293807 0.455497 0.064466
0.254340 0.926770 0.286795
0.234984 0.634948 0.463145
0.379094 0.403700 0.178781
0.401192 0.536420 0.075639
0.053725 0.469998 0.456770
0.290615 0.315488 0.091492
0.077700 0.114267 0.225627
0.256848 0.191824 0.154529
0.401776 0.440433 0.315960
0.340727 0.403008 0.117871
0.312564 0.314389 0.344981
0.316233 0.506804 0.202004
0.063576 0.124529 0.137349
0.424469 0.916797 0.188598
0.416964 0.768857 0.126600
0.184957 0.118859 0.275280
0.114896 0.351654 0.473168
0.150350 0.184276 0.257901
0.140800 0.124770 0.175468
0.304445 0.250777 0.178289
0.388546 0.719357 0.098713
0.268282 0.256771 0.362129
0.236956 0.267276 0.089130
0.176962 0.556222 0.472559
0.174022 0.140712 0.124705
0.463560 0.637804 0.227397
0.214655 0.225840 0.067815
0.354100 0.704166 0.109712
0.343423 0.289408 0.269795
0.121076 0.486009 0.506204
0.393533 0.812842 0.367938
0.372652 0.947337 0.310200
0.376737 0.757583 0.393789
0.064592 0.181842 0.042682
0.236588 0.285888 0.238064
0.404355 0.682685 0.095932
0.455325 0.828779 0.258888
0.335324 0.447906 0.351970
0.250958 0.268624 0.327622
0.263245 0.860947 0.172024
0.413124 0.825509 0.347383
0.192710 0.223891 0.275732
0.279019 0.404649 0.049995
0.131382 0.137207 0.379214
0.341105 0.643935 0.183570
0.090368 0.121459 0.118609
0.299757 0.421239 0.050301
0.302411 0.597863 0.267280
0.240881 0.216350 0.291008
0.383911 0.399685 0.155993
0.186466 0.633404 0.369240
0.209199 0.709201 0.445979
0.231739 0.271750 0.190602
0.429955 0.574004 0.090107
0.295610 0.307119 0.070837
0.388401 0.406762 0.208433
0.461706 0.610914 0.266163
0.132970 0.452729 0.479742
0.041235 0.105150 0.347406
0.413791 0.909653 0.313409
0.405478 0.780516 0.125817
0.143694 0.657138 0.439333
0.340674 0.862807 0.366540
0.255321 0.308023 0.038503
0.414748 0.494581 0.129296
0.343171 0.486288 0.395757
0.085603 0.148878 0.143305
0.279319 0.598100 0.452154
0.313032 0.418175 0.200286
0.414313 0.660227 0.094378
0.267101 0.781408 0.406112
0.384937 0.907448 0.153085
0.145323 0.188606 0.073272
0.150725 0.612684 0.378552
0.067543 0.102735 0.269020
0.461701 0.667210 0.216277
0.080946 0.504055 0.519371
0.428257 0.607678 0.365387
0.267036 0.309870 0.127174
0.207799 0.655112 0.350699
0.119840 0.364136 0.478052
0.417789 0.800377 0.355684
0.282646 0.883997 0.343032
0.405996 0.870327 0.336724
0.356563 0.640416 0.143905
0.216701 0.195347 0.373288
0.329032 0.291961 0.223248
0.259681 0.406154 0.385821
0.362644 0.911530 0.341346
0.035065 0.076695 0.240947
0.432315 0.513025 0.158093
0.241742 0.330299 0.394211
0.359222 0.588713 0.117343
0.097952 0.351975 0.463267
0.168237 0.218551 0.139438
0.335240 0.407611 0.391112
0.454614 0.754905 0.232860
0.454382 0.756961 0.194575
0.248757 0.917685 0.204071
0.303588 0.828506 0.384966
0.077645 0.414593 0.446295
0.258292 0.937055 0.269009
0.343306 0.441666 0.368271
0.091026 0.580046 0.490120
0.126001 0.127732 0.366444
0.262215 0.248581 0.218915
0.326858 0.428208 0.155811
0.245451 0.354592 0.150440
0.368064 0.414593 0.140348
0.280507 0.513973 0.378794
0.189417 0.613571 0.378512
0.244493 0.392570 0.058553
0.231513 0.893419 0.245709
0.148722 0.097724 0.274299
0.241837 0.240078 0.389829
0.068498 0.446642 0.511565
0.041960 0.409927 0.481404
0.448836 0.845926 0.277619
0.237646 0.329660 0.325308
0.234471 0.294522 0.327801
0.448144 0.634521 0.319697
0.307930 0.623717 0.255330
0.457644 0.727248 0.240847
0.281423 0.233342 0.289527
0.188677 0.626618 0.385173
0.369634 0.957455 0.191216
0.164691 0.171433 0.224773
0.269864 0.381802 0.244773
0.179260 0.744961 0.361693
0.343008 0.404585 0.072823
0.228654 0.192345 0.288058
0.140663 0.168155 0.389704
0.272452 0.237435 0.219804
0.222224 0.165902 0.136232
0.295218 0.445214 0.336031
0.075914 0.118103 0.266535
0.394248 0.407423 0.163799
0.243340 0.295666 0.398494
0.329055 0.591209 0.213941
0.170783 0.199844 0.393441
0.362960 0.424840 0.087271
0.426517 0.479932 0.223034
0.104798 0.381913 0.519979
0.241837 0.314303 0.187677
0.417891 0.786468 0.133171
0.304780 0.248046 0.156263
0.332456 0.352423 0.203294
0.217743 0.283510 0.165482
0.368240 0.688631 0.101690
0.322422 0.733680 0.150677
0.333906 0.551718 0.142175
0.221934 0.302778 0.096138
0.409667 0.723675 0.382120
0.328185 0.658814 0.197044
0.272479 0.865487 0.161941
0.350217 0.621683 0.170590
0.311339 0.636432 0.245120
0.153769 0.154094 0.121047
0.121433 0.125796 0.348488
0.116947 0.454225 0.445079
0.087831 0.187615 0.370685
0.458988 0.714984 0.251821
0.069919 0.158886 0.046059
0.188053 0.636630 0.466120
0.233628 0.876235 0.235946
0.289773 0.575344 0.292670
0.359069 0.652159 0.118917
0.096316 0.339357 0.516178
0.270048 0.358634 0.043011
0.268830 0.427978 0.335883
0.452572 0.640056 0.118838
0.200573 0.681471 0.342062
0.394966 0.575330 0.398435
0.283820 0.962552 0.262115
0.095003 0.123483 0.384649
0.195384 0.264874 0.332956
0.242258 0.926402 0.254431
0.188259 0.142976 0.218214
0.356562 0.357300 0.190572
0.249587 0.157387 0.258676
0.330749 0.968800 0.271269
0.397594 0.731392 0.387471
0.370230 0.815305 0.122782
0.220571 0.618589 0.467087
0.201218 0.294461 0.092121
0.422109 0.741010 0.369335
0.302962 0.230389 0.227098
0.170040 0.733052 0.364530
0.406835 0.943001 0.288450
0.074180 0.189335 0.035864
0.221315 0.207224 0.288499
0.243491 0.754391 0.418332
0.224055 0.596898 0.437807
0.267974 0.953019 0.246492
0.420733 0.869864 0.168570
0.247522 0.214687 0.126025
0.397551 0.550455 0.384977
0.280260 0.540311 0.343277
0.331115 0.404980 0.322705
0.289186 0.264947 0.193297
0.426599 0.607935 0.089602
0.301301 0.209391 0.250407
0.348122 0.638505 0.438142
0.264544 0.707914 0.247622
0.428572 0.496460 0.184003
0.077820 0.572222 0.479008
0.075670 0.086022 0.118658
0.163836 0.721913 0.370826
0.361207 0.873410 0.136085
0.241873 0.904565 0.279902
0.334758 0.647353 0.442443
0.455366 0.694003 0.298201
0.398311 0.469267 0.345392
0.196052 0.699001 0.333834
0.208215 0.258907 0.090938
0.266194 0.352180 0.136440
0.100039 0.112451 0.349515
0.299993 0.323960 0.202015
0.316831 0.340740 0.203070
0.330331 0.294976 0.173165
0.254238 0.748632 0.430557
0.308931 0.334445 0.079362
0.092792 0.584108 0.413202
0.261481 0.412776 0.334532
0.349919 0.422350 0.074811
0.259833 0.747465 0.244514
0.450062 0.539462 0.206779
0.221559 0.697996 0.451490
0.219933 0.299650 0.391306
0.051720 0.495237 0.460112
0.297517 0.233585 0.283852
0.230398 0.282474 0.181364
0.178256 0.218325 0.080887
0.107439 0.618414 0.469536
0.059294 0.339604 0.500486
0.193478 0.247445 0.089342
0.105003 0.112050 0.173673
0.253982 0.856995 0.190516
0.283695 0.448499 0.092109
0.348465 0.408734 0.140471
0.128686 0.409958 0.487763
0.264036 0.912021 0.180077
0.294279 0.663981 0.243824
0.211779 0.629132 0.470074
0.146832 0.560242 0.386641
0.125940 0.509474 0.503711
0.378848 0.955633 0.294132
0.261416 0.365672 0.144600
0.312728 0.489842 0.189577
0.374584 0.418337 0.352665
0.235952 0.347933 0.387069
0.254630 0.420863 0.066480
0.330786 0.338194 0.295510
0.308391 0.369610 0.109408
0.339269 0.449098 0.072299
0.357319 0.650391 0.430111
0.331496 0.400817 0.299315
0.337098 0.798824 0.127074
0.237516 0.253623 0.079507
0.256086 0.866375 0.329976
0.283016 0.856911 0.359360
0.170130 0.155568 0.349604
0.075446 0.563807 0.435953
0.376362 0.931195 0.328411
0.312467 0.498475 0.125677
0.340090 0.570453 0.160813
0.301593 0.442771 0.221704
0.323767 0.427066 0.054445
0.254493 0.819583 0.375127
0.214188 0.714310 0.302998
0.430030 0.492646 0.208155
0.364196 0.419413 0.101720
0.268169 0.717797 0.237270
0.192200 0.132257 0.153713
0.194218 0.271725 0.392076
0.098380 0.087453 0.276291
0.244990 0.602446 0.343619
0.289062 0.478914 0.293089
0.237768 0.231047 0.289843
0.237404 0.208009 0.214014
0.066081 0.508470 0.510181
0.080899 0.343417 0.466205
0.170974 0.213172 0.249150
0.290402 0.669896 0.447609
0.124334 0.382568 0.471825
0.411803 0.947392 0.263125
0.198756 0.649132 0.362715
0.086270 0.145734 0.330911
0.203206 0.240526 0.274581
0.416399 0.528919 0.094067
0.449384 0.651811 0.315659
0.452776 0.576897 0.299898
0.448117 0.747888 0.175673
0.460151 0.680700 0.223387
0.261442 0.293350 0.067518
0.211295 0.631338 0.410435
0.238281 0.302807 0.099511
0.320323 0.391322 0.298456
0.072802 0.434152 0.445710
0.219167 0.254058 0.129596
0.220615 0.591847 0.403158
0.271423 0.428261 0.059100
0.415473 0.433996 0.268431
0.420306 0.814915 0.148741
0.126570 0.433050 0.500619
0.445275 0.714693 0.319482
0.281600 0.361118 0.319604
0.234821 0.388628 0.086893
0.160104 0.158077 0.224502
0.303383 0.859553 0.363142
0.417104 0.786117 0.359504
0.171741 0.205020 0.271046
0.372540 0.461150 0.374906
0.265618 0.207814 0.173611
0.134014 0.586614 0.375746
0.047319 0.096352 0.252034
0.259637 0.831141 0.369261
0.099437 0.624872 0.422526
0.037497 0.140585 0.370478
0.215236 0.321184 0.371474
0.261257 0.856425 0.343054
0.453771 0.781300 0.244994
0.160410 0.211848 0.031708
0.059051 0.518850 0.499390
0.268112 0.339234 0.320628
0.350423 0.732897 0.417177
0.105184 0.120237 0.374657
0.444081 0.723520 0.138253
0.336583 0.549684 0.119683
0.409081 0.432994 0.177096
0.418513 0.944723 0.237236
0.252285 0.203951 0.179331
0.118552 0.482318 0.446304
0.420215 0.683103 0.380771
0.348672 0.440289 0.078693
0.111717 0.117877 0.355338
0.238556 0.300699 0.239508
0.248120 0.415630 0.360028
0.111017 0.167545 0.142928
0.081041 0.495364 0.441295
0.281836 0.195174 0.234350
0.278526 0.500213 0.351050
0.431395 0.921500 0.202970
0.155499 0.133165 0.154101
0.244188 0.899228 0.292670
0.451119 0.834318 0.243733
0.139417 0.122462 0.261890
0.360744 0.740972 0.110798
0.052628 0.097721 0.231931
0.070463 0.067420 0.130228
0.420978 0.595029 0.085994
0.224554 0.269548 0.397419
0.239518 0.253708 0.394689
0.456116 0.559068 0.255700
0.100503 0.137308 0.121918
0.216135 0.781209 0.366315
0.274291 0.232135 0.157851
0.198945 0.178742 0.349034
0.168901 0.270384 0.357607
0.326446 0.814145 0.131527
0.226842 0.664939 0.327016
0.254420 0.806204 0.237699
0.278176 0.297095 0.294567
0.331032 0.897006 0.139915
0.296395 0.930423 0.162865
0.053219 0.350163 0.493367
0.094569 0.166016 0.029384
0.302823 0.285881 0.362100
0.451566 0.543244 0.226395
0.230698 0.314158 0.173171
0.211797 0.747467 0.410627
0.329327 0.528781 0.097469
0.246700 0.868619 0.195849
0.283611 0.691722 0.233475
0.252324 0.777821 0.250565
0.240145 0.813858 0.257757
0.425850 0.795064 0.149883
0.314320 0.528115 0.220850
0.204324 0.292710 0.386195
0.399638 0.901785 0.158886
0.201513 0.608193 0.473040
0.310956 0.468040 0.398420
0.150620 0.155157 0.365810
0.266423 0.323545 0.039141
0.253991 0.308821 0.286032
0.122785 0.404949 0.502964
0.359974 0.525294 0.401101
0.196155 0.186016 0.285884
0.111558 0.603077 0.391424
0.361604 0.676809 0.105470
0.416628 0.607376 0.389956
0.347168 0.696963 0.427664
0.142185 0.226420 0.080183
0.180221 0.629718 0.476338
0.255306 0.171107 0.271383
0.044300 0.423612 0.479590
0.355000 0.454001 0.063866
0.300762 0.427397 0.216316
0.328072 0.970224 0.226754
0.096173 0.372178 0.525327
0.294256 0.460905 0.255582
0.046815 0.492024 0.481444
0.297817 0.686872 0.445411
0.308425 0.420756 0.119984
0.240873 0.361997 0.387064
0.260401 0.270953 0.072009
0.300685 0.450493 0.108772
0.192753 0.292283 0.376769
0.237143 0.851103 0.295885
0.286391 0.367097 0.046144
0.304393 0.967821 0.244408
0.310858 0.358370 0.057580
0.372479 0.634448 0.100331
0.437074 0.897270 0.291604
0.210544 0.264071 0.395642
0.083825 0.568731 0.494945
0.065338 0.493947 0.510691
0.276208 0.182811 0.254835
0.367675 0.631976 0.114150
0.430174 0.935063 0.234225
0.204692 0.590831 0.460344
0.287813 0.602562 0.288582
0.170865 0.640488 0.471968
0.189332 0.711356 0.331031
0.412804 0.446436 0.298625
0.134653 0.527413 0.502227
0.379049 0.366619 0.274298
0.046914 0.458552 0.467941
0.406549 0.935133 0.187330
0.245330 0.366242 0.168362
0.073580 0.547849 0.504443
0.291995 0.581403 0.437718
0.318123 0.354891 0.071047
0.276488 0.913686 0.168456
0.143041 0.501544 0.474906
0.382176 0.939385 0.317184
0.346165 0.327641 0.145721
0.229692 0.230768 0.332168
0.449607 0.777679 0.286636
0.432204 0.728277 0.344766
0.276640 0.304883 0.200252
0.287431 0.917834 0.159634
0.141184 0.571522 0.380384
0.296611 0.418459 0.163068
0.207632 0.638023 0.439778
0.425326 0.723996 0.362217
0.336072 0.438281 0.335102
0.276945 0.573847 0.320812
0.285489 0.590860 0.295741
0.321251 0.383180 0.131708
0.416103 0.463514 0.301649
0.378109 0.928827 0.158828
0.091822 0.537637 0.420857
0.157509 0.271202 0.060016
0.214674 0.288846 0.037188
0.279351 0.392956 0.278208
0.347024 0.439250 0.351522
0.338659 0.972787 0.235938
0.286997 0.736257 0.430659
0.318441 0.697157 0.170354
0.301351 0.809787 0.397871
0.393909 0.702904 0.096565
0.266973 0.869736 0.338314
0.382586 0.830352 0.132920
0.289508 0.196380 0.254805
0.283656 0.509962 0.339904
0.460608 0.606034 0.288766
0.276172 0.287891 0.073967
0.292654 0.604249 0.450733
0.236940 0.595357 0.459829
0.427098 0.657927 0.100307
0.250015 0.267681 0.082300
0.426404 0.593276 0.365558
0.095560 0.494098 0.439694
0.220482 0.263526 0.269855
0.155873 0.626399 0.378730
0.171365 0.713533 0.412738
0.105524 0.626043 0.403851
0.444620 0.523036 0.203502
0.281155 0.308873 0.125204
0.357779 0.943527 0.318565
0.113405 0.441125 0.516499
0.249336 0.894374 0.186284
0.272336 0.884491 0.333357
0.085916 0.127142 0.229045
0.202192 0.260960 0.145077
0.307299 0.299121 0.352166
0.293206 0.392055 0.115121
0.188044 0.283581 0.042325
0.344655 0.562580 0.115599
0.260390 0.378210 0.254272
0.077152 0.125365 0.240778
0.462651 0.636461 0.246715
0.205147 0.567270 0.411149
0.249606 0.321951 0.038256
0.189717 0.218505 0.126971
0.285241 0.477071 0.389963
0.054332 0.453520 0.455714
0.269634 0.383479 0.271119
0.103514 0.192204 0.027025
0.462825 0.606924 0.174666
0.076589 0.331276 0.519578
0.197226 0.566208 0.396646
0.400038 0.856452 0.346337
0.253359 0.738051 0.254400
0.398296 0.446559 0.328742
0.232964 0.303980 0.258790
0.226728 0.278884 0.036361
0.422146 0.465662 0.248380
0.230532 0.556940 0.388738
0.226423 0.206692 0.377231
0.214752 0.702709 0.311125
0.351578 0.330001 0.158832
0.050861 0.043816 0.236524
0.445924 0.854976 0.219809
0.083826 0.488556 0.522250
0.276545 0.379981 0.197343
0.374311 0.731328 0.104954
0.306010 0.454447 0.212785
0.335864 0.370426 0.376207
0.459545 0.685103 0.239737
0.164101 0.596249 0.486003
0.070808 0.191437 0.063251
0.157929 0.657803 0.430285
0.286039 0.619247 0.453928
0.054655 0.528051 0.483270
0.266647 0.622739 0.456886
0.242545 0.909864 0.220592
0.384727 0.826346 0.369527
0.262490 0.222148 0.130099
0.209906 0.242808 0.231468
0.241448 0.327966 0.265309
0.318945 0.416900 0.230570
0.367049 0.406018 0.311927
0.323509 0.458208 0.397289
0.348185 0.422040 0.150411
0.250064 0.308752 0.397554
0.226371 0.572674 0.429364
0.219398 0.338554 0.063830
0.333121 0.847833 0.132604
0.455711 0.744812 0.187682
0.211447 0.638043 0.426339
0.127461 0.414434 0.455426
0.086707 0.079980 0.274989
0.209430 0.669361 0.340817
0.176256 0.537723 0.451196
0.320909 0.772638 0.412134
0.368223 0.637767 0.424899
0.448421 0.620645 0.318997
0.357024 0.703384 0.420255
0.391993 0.877809 0.346044
0.440933 0.664910 0.334063
0.251167 0.758513 0.254644
0.083928 0.065889 0.135192
0.364262 0.396535 0.224495
0.322991 0.524031 0.129098
0.399813 0.954367 0.273532
0.299964 0.338569 0.204603
0.353903 0.718999 0.418427
0.394417 0.615737 0.407101
0.262173 0.204798 0.139950
0.353548 0.854136 0.367009
0.379618 0.536992 0.066989
0.222047 0.182070 0.127911
0.340427 0.551091 0.101883
0.349251 0.386178 0.362507
0.326896 0.692976 0.157578
0.097446 0.143140 0.250592
0.121990 0.527063 0.510935
0.129263 0.572633 0.501397
0.383950 0.848363 0.137835
0.394144 0.942710 0.188420
0.384091 0.420128 0.136286
0.136934 0.187343 0.334671
0.182226 0.136776 0.281502
0.306200 0.345109 0.057972
0.055162 0.378695 0.466490
0.314946 0.264486 0.222556
0.152061 0.507789 0.458841
0.181852 0.213217 0.329498
0.369990 0.653692 0.421524
0.199817 0.646563 0.430526
0.252464 0.591721 0.354400
0.293100 0.315789 0.215989
0.331379 0.963873 0.196745
0.050026 0.371929 0.478238
0.116916 0.149025 0.331240
0.218209 0.578301 0.417873
0.223256 0.347058 0.074243
0.405715 0.736438 0.111067
0.364768 0.620593 0.122108
0.089954 0.047692 0.239729
0.143307 0.684495 0.416463
0.064214 0.114952 0.126988
0.102089 0.105022 0.215190
0.292957 0.417221 0.239634
0.321335 0.701848 0.438766
0.165411 0.148444 0.280586
0.225375 0.278917 0.094586
0.195188 0.555986 0.427681
0.324586 0.906533 0.346456
0.407489 0.845380 0.143571
0.309771 0.694469 0.441972
0.257063 0.940928 0.254009
0.304522 0.924692 0.335188
0.334145 0.883055 0.134148
0.240877 0.322980 0.097822
0.440654 0.922705 0.236444
0.277856 0.341269 0.129902
0.279279 0.648316 0.286583
0.243619 0.355024 0.179254
0.165817 0.191407 0.065034
0.303601 0.463509 0.142215
0.237151 0.246258 0.288975
0.298585 0.523094 0.396939
0.134345 0.225446 0.356658
0.276893 0.802011 0.202511
0.321439 0.435212 0.267297
0.293797 0.781139 0.413525
0.302379 0.368888 0.218907
0.073818 0.043740 0.254399
0.358951 0.616318 0.144409
0.262379 0.170357 0.258333
0.292503 0.873263 0.144792
0.061626 0.100009 0.377298
0.311074 0.282530 0.134468
0.377626 0.584602 0.077118
0.350463 0.794519 0.400214
0.211386 0.190077 0.215711
0.266982 0.344911 0.398866
0.242933 0.250720 0.063839
0.390047 0.875616 0.144116
0.306683 0.498753 0.233941
0.301230 0.296067 0.215102
0.292583 0.537379 0.295066
0.311691 0.486855 0.170829
0.426178 0.476306 0.238208
0.321050 0.516658 0.097627
0.125640 0.394369 0.463182
0.084031 0.522151 0.431145
0.319417 0.904262 0.145626
0.262933 0.173472 0.238093
0.055456 0.161427 0.370412
0.297442 0.410991 0.130877
0.270575 0.588798 0.446846
0.372401 0.388214 0.289903
0.157453 0.084586 0.241561
0.222466 0.279921 0.383631
0.175295 0.162543 0.219355
0.227557 0.220790 0.288592
0.239037 0.281915 0.094122
0.131908 0.425186 0.474462
0.461925 0.649868 0.243015
0.299660 0.430425 0.397630
0.273896 0.386820 0.148015
0.462529 0.598513 0.187329
0.231162 0.204214 0.362753
0.114804 0.605679 0.483593
0.278472 0.374892 0.320768
0.286346 0.328887 0.127279
0.262201 0.730142 0.243624
0.433855 0.794684 0.163111
0.232880 0.578231 0.365848
0.080664 0.417789 0.521617
0.456054 0.661612 0.151765
0.295070 0.524247 0.300926
0.439012 0.520236 0.169346
0.278100 0.559527 0.332934
0.438044 0.511574 0.286696
0.095498 0.441181 0.442060
0.099040 0.109759 0.114775
0.393564 0.678120 0.401992
0.130282 0.586337 0.496734
0.288603 0.421065 0.309497
0.449275 0.764776 0.292081
0.436812 0.589546 0.094751
0.253812 0.351882 0.395262
0.214494 0.289847 0.094712
0.188280 0.195259 0.221318
0.152583 0.250486 0.357605
0.362750 0.425898 0.172720
0.175731 0.210086 0.130205
0.189671 0.106408 0.233268
0.451677 0.781678 0.200506
0.236357 0.268222 0.229112
0.156310 0.198326 0.175204
0.065670 0.034235 0.235656
0.098649 0.058296 0.222928
0.342820 0.654426 0.162768
0.222129 0.238495 0.286723
0.291947 0.640649 0.450558
0.227808 0.713107 0.289016
0.302201 0.843785 0.139870
0.306992 0.476689 0.149945
0.323375 0.460274 0.091292
0.328626 0.667047 0.185035
0.427187 0.482161 0.285796
0.284777 0.903481 0.155619
0.249686 0.701666 0.447462
0.148009 0.631668 0.477259
0.438477 0.639441 0.341932
0.283693 0.318842 0.396180
0.116710 0.201335 0.378739
0.116597 0.161191 0.129588
0.422119 0.725783 0.114054
0.132034 0.070176 0.241215
0.363199 0.969205 0.235035
0.157114 0.124133 0.171157
0.063780 0.467192 0.446921
0.448701 0.761243 0.179831
0.045227 0.119632 0.382899
0.400772 0.549991 0.072726
0.061177 0.089150 0.361374
0.124986 0.149814 0.121517
0.221297 0.236310 0.124937
0.287033 0.461685 0.298507
0.304536 0.633775 0.449144
0.412425 0.433618 0.286606
0.253812 0.882228 0.316169
0.300943 0.584228 0.270121
0.217767 0.256076 0.327141
0.341776 0.952114 0.312499
0.332882 0.828161 0.384282
0.460410 0.668937 0.239357
0.273570 0.292256 0.217132
0.259210 0.629815 0.313533
0.099616 0.151730 0.330310
0.160413 0.647229 0.379101
0.293715 0.241848 0.180230
0.303596 0.401680 0.201533
0.271769 0.660140 0.285040
0.447962 0.870942 0.220123
0.334196 0.389518 0.215340
0.243954 0.409036 0.069021
0.383363 0.941019 0.175681
0.119290 0.108035 0.117243
0.314185 0.289881 0.189060
0.448862 0.744108 0.300528
0.319175 0.681971 0.441323
0.452531 0.602971 0.129810
0.271558 0.326021 0.128521
0.433933 0.497260 0.239980
0.191281 0.188665 0.187538
0.147043 0.176906 0.336315
0.302105 0.963578 0.209329
0.351736 0.468977 0.390829
0.309547 0.894434 0.144836
0.148514 0.219792 0.049358
0.336097 0.741311 0.124543
0.138776 0.492613 0.452754
0.263770 0.361031 0.194571
0.065252 0.371131 0.460492
0.271720 0.250817 0.375299
0.237936 0.141626 0.249244
0.274706 0.265315 0.197632
0.161205 0.199491 0.247710
0.086308 0.187565 0.354737
0.274730 0.378630 0.110580
0.367726 0.748191 0.401930
0.059687 0.088395 0.269872
0.314592 0.500326 0.162149
0.380080 0.965122 0.223720
0.273767 0.831431 0.372851
0.066320 0.556870 0.457991
0.304227 0.446805 0.056129
0.332116 0.874556 0.251076
0.259057 0.324242 0.285776
0.286216 0.229025 0.173621
0.260475 0.351708 0.321951
0.400875 0.914706 0.165777
0.151613 0.151586 0.277241
0.364286 0.933890 0.161436
0.340798 0.400602 0.103792
0.458027 0.728197 0.279304
0.296219 0.563523 0.286114
0.153739 0.141883 0.223568
0.343179 0.410702 0.209897
0.168093 0.658346 0.373868
0.271280 0.294087 0.048403
0.318890 0.773169 0.141543
0.459174 0.691821 0.178132
0.375212 0.872890 0.139712
0.227380 0.662083 0.460797
0.445919 0.833687 0.198154
0.425488 0.851852 0.325808
0.248630 0.330320 0.277425
0.201053 0.277082 0.036842
0.385619 0.693719 0.404119
0.370323 0.623437 0.424973
0.400581 0.455526 0.123050
0.459315 0.577920 0.262370
0.052274 0.474602 0.494945
0.039656 0.086255 0.259971
0.408501 0.813908 0.138454
0.332814 0.357074 0.369402
0.344056 0.375122 0.354650
0.332396 0.349146 0.216834
0.046147 0.095369 0.133002
0.239926 0.308965 0.325234
0.198614 0.669513 0.460586
0.340762 0.430966 0.158180
0.439094 0.509579 0.267078
0.123943 0.208331 0.352589
0.098324 0.545834 0.512827
0.117009 0.650471 0.401845
0.461792 0.658973 0.229290
0.097595 0.615240 0.454780
0.182951 0.217801 0.237426
0.205754 0.223678 0.125176
0.325623 0.798860 0.401913
0.157933 0.266104 0.074268
0.148594 0.167031 0.175790
0.303056 0.706084 0.198094
0.347682 0.427753 0.338736
0.072272 0.384486 0.516553
0.276105 0.218483 0.174343
0.104726 0.153747 0.168472
0.286501 0.302788 0.215928
0.071923 0.478995 0.516302
0.414586 0.913028 0.177655
0.446608 0.571028 0.312541
0.156007 0.163378 0.386409
0.346838 0.429906 0.288142
0.421530 0.502668 0.138678
0.274650 0.294465 0.086554
0.256273 0.200653 0.217490
0.347054 0.640906 0.170828
0.265188 0.935872 0.291442
0.451915 0.813233 0.252967
0.219388 0.271549 0.183029
0.300189 0.291933 0.342444
0.252065 0.171293 0.228631
0.233821 0.171509 0.147239
0.345305 0.964649 0.289338
0.275543 0.465467 0.380781
0.166519 0.133854 0.217191
0.118737 0.192758 0.025753
0.224184 0.651619 0.337320
0.240870 0.233492 0.122945
0.437535 0.691521 0.339797
0.111052 0.494768 0.435907
0.170005 0.273014 0.046626
0.338557 0.302965 0.226479
0.334029 0.411326 0.222661
0.439450 0.825810 0.309630
0.078556 0.202315 0.044322
0.221716 0.278076 0.328855
0.448636 0.776187 0.183290
0.295413 0.330317 0.054048
0.141276 0.677309 0.429532
0.215003 0.168947 0.176843
0.334483 0.719478 0.431128
0.349312 0.421156 0.102978
0.102533 0.166747 0.388893
0.464952 0.635401 0.197365
0.264092 0.765677 0.418477
0.403833 0.537642 0.373254
0.355057 0.578686 0.107190
0.260586 0.547859 0.395312
0.432958 0.839956 0.325718
0.098469 0.354416 0.519916
0.115711 0.474247 0.513439
0.213007 0.775670 0.326951
0.212897 0.252310 0.188653
0.217111 0.625574 0.358911
0.423874 0.498093 0.154762
0.346320 0.398303 0.299627
0.205335 0.693391 0.454380
0.311554 0.934905 0.327591
0.245938 0.185075 0.145370
0.390986 0.864650 0.352949
0.143531 0.574913 0.496532
0.443781 0.525463 0.288804
0.143873 0.170129 0.246695
0.249301 0.390337 0.101425
0.431440 0.689600 0.109483
0.312508 0.514570 0.398675
0.406692 0.499668 0.104189
0.387310 0.571548 0.069180
0.383631 0.668385 0.410169
0.188636 0.217313 0.394821
0.260112 0.844275 0.192554
0.308635 0.349074 0.298426
0.454525 0.761841 0.245138
0.183401 0.243569 0.034039
0.404784 0.525291 0.365430
0.364092 0.410580 0.296879
0.085315 0.428563 0.443347
0.306620 0.419769 0.241856
0.290370 0.418410 0.188589
0.413069 0.420757 0.273223
0.178045 0.618896 0.372016
0.250207 0.306273 0.228515
0.395004 0.827707 0.359872
0.152903 0.589635 0.491342
0.070648 0.461006 0.517195
0.451241 0.686504 0.146401
0.224553 0.816169 0.312187
0.153318 0.645894 0.471109
0.323428 0.327119 0.130689
0.255685 0.702682 0.263691
0.051766 0.076761 0.268801
0.280487 0.962796 0.247610
0.333604 0.613390 0.444537
0.433637 0.638797 0.098022
0.239994 0.284283 0.038023
0.307541 0.390955 0.318166
0.375757 0.385884 0.162596
0.301644 0.383653 0.398048
0.257769 0.221998 0.277331
0.102752 0.224162 0.043461
0.331999 0.864303 0.133722
0.282978 0.265602 0.380616
0.176471 0.172567 0.384202
0.263509 0.675299 0.453923
0.324867 0.842631 0.379890
0.144854 0.695450 0.390885
0.395880 0.700912 0.396310
0.250804 0.576213 0.361005
0.183410 0.183117 0.336319
0.459776 0.678826 0.283464
0.103925 0.414581 0.524319
0.288466 0.435733 0.264693
0.099436 0.196943 0.364377
0.381278 0.799997 0.383104
0.217430 0.226808 0.392855
0.413575 0.515116 0.351137
0.240790 0.344158 0.325942
0.172280 0.260182 0.384513
0.206019 0.587516 0.369168
0.288273 0.421918 0.257640
0.296668 0.501185 0.272774
0.075863 0.180024 0.365330
0.188204 0.256684 0.393143
0.346292 0.609378 0.183279
0.103274 0.225681 0.060865
0.328212 0.573743 0.205160
0.253820 0.312231 0.100883
0.454615 0.559134 0.209883
0.137562 0.643725 0.465211
0.060513 0.533810 0.496251
0.321206 0.398538 0.114997
0.296474 0.476690 0.256865
0.457258 0.730689 0.192550
0.222777 0.273151 0.342537
0.305587 0.484645 0.117089
0.242942 0.178581 0.219587
0.130480 0.449810 0.450329
0.222234 0.678216 0.322848
0.177891 0.276642 0.085429
0.371958 0.592487 0.087972
0.461883 0.640281 0.261173
0.451064 0.792736 0.209967
0.317571 0.862351 0.365239
0.320582 0.876429 0.357162
0.268266 0.417791 0.387623
0.413887 0.452289 0.176842
0.241050 0.218664 0.349649
0.142621 0.180910 0.061026
0.109074 0.126372 0.116529
0.083083 0.187790 0.070012
0.430068 0.894759 0.304373
0.213913 0.203991 0.383788
0.291718 0.439920 0.176904
0.241473 0.880768 0.191037
0.448348 0.731012 0.306463
0.338151 0.804673 0.396594
0.072774 0.095323 0.355179
0.229587 0.239510 0.067118
0.169371 0.203501 0.058751
0.172071 0.171682 0.338795
0.161872 0.168244 0.179895
0.452215 0.784141 0.222668
0.290455 0.631166 0.283559
0.325523 0.479904 0.060082
0.232204 0.856632 0.313426
0.304136 0.365924 0.296734
0.266294 0.179218 0.268576
0.188434 0.188468 0.121936
0.123569 0.150993 0.231418
0.298318 0.764407 0.180158
0.267410 0.639395 0.303788
0.418098 0.688341 0.103989
0.323255 0.352952 0.297708
0.453478 0.796731 0.249587
0.310480 0.461545 0.085472
0.392367 0.950139 0.290400
0.239304 0.198503 0.182899
0.354256 0.408443 0.109226
0.113375 0.638663 0.449277
0.277106 0.935037 0.185068
0.279852 0.192167 0.266732
0.256132 0.845287 0.207754
0.073053 0.478811 0.444020
0.072033 0.054305 0.220210
0.334338 0.705071 0.434189
0.260153 0.895302 0.315337
0.155509 0.707651 0.386208
0.091585 0.216838 0.047177
0.295563 0.403629 0.048544
0.185109 0.194082 0.283608
0.272222 0.817581 0.381590
0.085135 0.178195 0.342824
0.295358 0.341326 0.102631
0.243153 0.225183 0.271185
0.147150 0.139216 0.177941
0.305532 0.419790 0.319210
0.312375 0.332557 0.215103
0.302941 0.283690 0.194332
0.352029 0.807273 0.392911
0.439190 0.857740 0.303790
0.347380 0.534473 0.071632
0.288001 0.457133 0.283119
0.226522 0.718954 0.444797
0.282482 0.450761 0.073124
0.437195 0.930828 0.248970
0.306095 0.436597 0.118709
0.318395 0.865125 0.137433
0.418959 0.739329 0.117235
0.167181 0.654237 0.417078
0.155086 0.241094 0.036828
0.160871 0.196950 0.261957
0.227708 0.376742 0.355905
0.379828 0.589374 0.414846
0.388523 0.689134 0.094342
0.148718 0.089898 0.221242
0.168063 0.191347 0.050847
0.315153 0.359564 0.128730
0.339465 0.570155 0.423796
0.433092 0.877423 0.308295
0.372354 0.473395 0.070503
0.282757 0.431326 0.330554
0.135742 0.160324 0.237292
0.370752 0.808478 0.388068
0.086516 0.431983 0.524840
0.263963 0.227005 0.214807
0.304041 0.794789 0.407367
0.353040 0.633074 0.156588
0.254598 0.329471 0.322429
0.443673 0.650447 0.328976
0.451390 0.877139 0.264189
0.127322 0.180367 0.345973
0.049585 0.409906 0.464842
0.253206 0.225816 0.359695
0.269070 0.441963 0.338836
0.245093 0.831335 0.241562
0.153404 0.236106 0.078131
0.455983 0.742414 0.239804
0.330609 0.374133 0.078177
0.291703 0.304319 0.296757
0.345524 0.283836 0.252069
0.251650 0.249112 0.291516
0.309967 0.513004 0.230293
0.357662 0.666163 0.115149
0.056325 0.160891 0.352533
0.294011 0.716021 0.203274
0.169225 0.129960 0.280548
0.321167 0.785918 0.407658
0.260331 0.384747 0.108372
0.397609 0.461624 0.110591
0.404442 0.406302 0.248088
0.248780 0.924653 0.274267
0.432074 0.780361 0.156731
0.332148 0.560208 0.416676
0.411146 0.476446 0.141570
0.300007 0.962706 0.284300
0.325335 0.377887 0.216371
0.065686 0.088810 0.166517
0.196656 0.579239 0.462974
0.286063 0.443857 0.108179
0.311692 0.345765 0.127990
0.403288 0.520491 0.080345
0.222089 0.800302 0.311072
0.459333 0.694679 0.227573
0.400326 0.603242 0.401812
0.321526 0.440790 0.328921
0.287305 0.237334 0.221110
0.082172 0.466000 0.524400
0.112507 0.543243 0.405080
0.348426 0.621080 0.440999
0.456027 0.759607 0.278348
0.440878 0.780534 0.171419
0.167757 0.200608 0.330963
0.263659 0.706072 0.444873
0.274772 0.665212 0.451841
0.364853 0.505856 0.395764
0.217286 0.562219 0.388270
0.310640 0.650729 0.446228
0.265707 0.431621 0.092927
0.450303 0.555143 0.169293
0.046726 0.398274 0.473783
0.251300 0.319988 0.230287
0.295815 0.216022 0.274545
0.454091 0.728953 0.293935
0.109056 0.070630 0.217650
0.071110 0.557175 0.490251
0.290239 0.964450 0.237701
0.289815 0.450178 0.347841
0.166538 0.112983 0.145727
0.225373 0.259895 0.148701
0.320272 0.280898 0.178576
0.170083 0.534725 0.463284
0.333695 0.454046 0.098266
0.145090 0.154679 0.227871
0.299939 0.460607 0.158294
0.244012 0.344548 0.261349
0.354260 0.416924 0.345945
0.261970 0.616631 0.317051
0.257632 0.299367 0.088946
0.169487 0.281836 0.075369
0.161008 0.092757 0.268529
0.132251 0.196295 0.027652
0.459265 0.581415 0.185327
0.352027 0.751793 0.115009
0.338938 0.422309 0.328724
0.321798 0.253797 0.276932
0.241320 0.265727 0.337298
0.249313 0.408761 0.344860
0.455643 0.677747 0.298960
0.295398 0.902958 0.340248
0.229612 0.245421 0.047305
0.335725 0.895309 0.353120
0.393225 0.520783 0.375350
0.404282 0.421390 0.168936
0.223318 0.360616 0.361881
0.238775 0.225075 0.256720
0.103999 0.536787 0.413918
0.142151 0.143574 0.145212
0.168406 0.184453 0.390498
0.033434 0.058543 0.247366
0.086267 0.072988 0.122678
0.295813 0.471840 0.086263
0.265941 0.280161 0.080708
0.334047 0.833667 0.131501
0.440074 0.579349 0.331037
0.428270 0.781446 0.349374
0.228799 0.607146 0.464167
0.327353 0.251618 0.263863
0.084408 0.344428 0.522482
0.106256 0.485533 0.520723
0.121367 0.529174 0.410754
0.299087 0.359361 0.130470
0.174360 0.194969 0.125378
0.304457 0.506051 0.245935
0.421158 0.719953 0.374964
0.183827 0.576902 0.473849
0.322304 0.239039 0.241448
0.463209 0.612158 0.230005
0.339925 0.374133 0.337932
0.118979 0.374024 0.462324
0.276184 0.364455 0.201169
0.433551 0.524077 0.142019
0.370738 0.476679 0.388133
0.251409 0.263222 0.289854
0.352046 0.309463 0.234301
0.324592 0.548263 0.411026
0.159858 0.670229 0.374742
0.274396 0.373415 0.141844
0.194647 0.742458 0.398293
0.269383 0.389213 0.322885
0.078425 0.380972 0.452180
0.242234 0.300422 0.036991
0.382485 0.962555 0.279418
0.306362 0.839968 0.377574
0.298362 0.291957 0.294894
0.194882 0.173635 0.183774
0.458948 0.716257 0.286461
0.299322 0.411681 0.304941
0.176216 0.161093 0.376394
0.169188 0.543281 0.475444
0.298773 0.466655 0.242238
0.070506 0.171918 0.376316
0.174409 0.113828 0.220673
0.220785 0.322844 0.067070
0.128583 0.600613 0.490913
0.253686 0.369405 0.324538
0.314705 0.350018 0.216136
0.380903 0.949650 0.187695
0.160455 0.138608 0.121860
0.083305 0.394345 0.523607
0.156136 0.164977 0.335329
0.246217 0.731829 0.264759
0.295031 0.277827 0.294326
0.456080 0.751857 0.263238
0.186980 0.586089 0.372136
0.069161 0.068966 0.216529
0.368579 0.419431 0.190307
0.082627 0.064869 0.270590
0.303722 0.411467 0.215162
0.437815 0.545172 0.134631
0.326276 0.290464 0.146771
0.279951 0.874008 0.152662
0.225616 0.287228 0.396319
0.280477 0.281654 0.295403
0.166428 0.649114 0.402754
0.326142 0.267955 0.279226
0.237956 0.393924 0.347139
0.097104 0.088100 0.118740
0.283423 0.387962 0.233778
0.242479 0.193123 0.216754
0.295036 0.396910 0.399641
0.320084 0.431914 0.169029
0.344666 0.356125 0.197926
0.314588 0.492791 0.072162
0.426707 0.855028 0.173125
0.441220 0.657132 0.106742
0.443195 0.762577 0.306930
0.307547 0.225269 0.247914
0.278068 0.451840 0.328084
0.237989 0.354235 0.166287
0.277068 0.420101 0.108193
0.250978 0.777328 0.403216
0.227580 0.802599 0.297791
0.050992 0.416440 0.490154
0.209414 0.637728 0.359356
0.393159 0.447161 0.108537
0.266420 0.827511 0.203176
0.453162 0.625615 0.122176
0.063333 0.057245 0.146590
0.173869 0.120635 0.156707
0.326254 0.495311 0.065013
0.389652 0.607264 0.082097
0.410823 0.898621 0.321217
0.316323 0.366030 0.217142
0.441601 0.875833 0.292883
0.461391 0.678921 0.201422
0.351501 0.410503 0.376606
0.141113 0.164070 0.333174
0.275395 0.311910 0.042665
0.297210 0.472238 0.397445
0.363014 0.329871 0.270032
0.351538 0.313470 0.278033
0.367363 0.703409 0.104017
0.107838 0.635893 0.414139
0.316365 0.273438 0.144218
0.255802 0.381559 0.392533
0.276080 0.945186 0.289533
0.338231 0.325812 0.188656
0.100819 0.604272 0.404682
0.216965 0.624159 0.448671
0.289336 0.446717 0.396776
0.464631 0.611984 0.194658
0.453593 0.629401 0.307035
0.327287 0.364871 0.330860
0.293746 0.750195 0.424208
0.318317 0.501913 0.399077
0.345074 0.697472 0.125385
0.383399 0.487271 0.074927
0.045183 0.458858 0.485441
0.339286 0.434476 0.172913
0.339327 0.499652 0.062138
0.183780 0.198534 0.332256
0.318061 0.510677 0.131158
0.063627 0.327781 0.511018
0.289572 0.719537 0.437186
0.379502 0.522073 0.066683
0.169010 0.285279 0.060794
0.268796 0.801775 0.215993
0.384726 0.634342 0.091602
0.360450 0.603616 0.127691
0.114706 0.425290 0.447758
0.230099 0.246599 0.152621
0.454903 0.688848 0.161007
0.455075 0.675450 0.156657
0.142812 0.134899 0.270788
0.312040 0.669212 0.443955
0.255095 0.285273 0.091618
0.135121 0.242800 0.043717
0.312282 0.425814 0.154711
0.275226 0.438443 0.084565
0.144953 0.605731 0.488185
0.185067 0.172634 0.284986
0.155769 0.251897 0.076806
0.451099 0.806645 0.226613
0.292130 0.423280 0.126372
0.288385 0.827891 0.379900
0.118168 0.187005 0.336840
0.290399 0.923916 0.332087
0.464315 0.634033 0.211745
0.282932 0.460626 0.391828
0.182959 0.560478 0.395141
0.459886 0.663231 0.290403
0.222083 0.690957 0.312801
0.339275 0.958442 0.185260
0.325662 0.678618 0.176218
0.198100 0.766577 0.339989
0.288846 0.403717 0.268884
0.262862 0.945644 0.235567
0.443576 0.813082 0.298901
0.365677 0.386955 0.147407
0.294487 0.307385 0.199739
0.389821 0.641276 0.409111
0.310206 0.438486 0.392622
0.102459 0.428658 0.526139
0.450000 0.860984 0.271702
0.354719 0.425469 0.362457
0.276932 0.760663 0.217152
0.402738 0.426372 0.155839
0.413092 0.828271 0.143630
0.227887 0.328532 0.051846
0.100812 0.095850 0.170346
0.240981 0.244823 0.139567
0.238423 0.753006 0.275798
0.279772 0.437203 0.317796
0.208461 0.215356 0.392093
0.229000 0.207549 0.348783
0.214383 0.604709 0.452910
0.309697 0.704016 0.184379
0.336820 0.387375 0.094688
0.320136 0.442989 0.053889
0.305390 0.561544 0.260275
0.338198 0.734931 0.425388
0.136337 0.510634 0.426401
0.241467 0.317357 0.241490
0.307578 0.520332 0.243903
0.030320 0.130234 0.361201
0.380179 0.616687 0.417805
0.459053 0.710568 0.234650
0.337111 0.272300 0.244896
0.277705 0.261814 0.341147
0.359614 0.400570 0.206203
0.456751 0.735432 0.260791
0.443293 0.595337 0.327215
0.424614 0.469836 0.264279
0.345764 0.667101 0.135100
0.194371 0.263173 0.160075
0.110682 0.146939 0.235592
0.227774 0.357249 0.376262
0.167445 0.175977 0.281942
0.392206 0.390279 0.283692
0.150507 0.257849 0.062686
0.097449 0.571487 0.405521
0.058077 0.457724 0.505867
0.101073 0.463757 0.525469
0.113398 0.617078 0.392224
0.324988 0.529995 0.168294
0.266971 0.946024 0.221542
0.325003 0.306558 0.137146
0.130828 0.119406 0.215702
0.326217 0.436247 0.395825
0.296959 0.454188 0.359862
0.077519 0.041027 0.237930
0.056799 0.117875 0.150870
0.313449 0.318277 0.199585
0.081156 0.052396 0.264345
0.143166 0.226892 0.345568
0.458067 0.573307 0.285721
0.426213 0.766136 0.356627
0.298532 0.965833 0.259366
0.309565 0.329593 0.127850
0.224474 0.181309 0.216165
0.253740 0.657081 0.306297
0.185964 0.202411 0.392644
0.325339 0.366793 0.298636
0.290359 0.338644 0.295145
0.299271 0.420845 0.203742
0.328122 0.393482 0.311389
0.213226 0.323573 0.051000
0.113248 0.230332 0.069978
0.056747 0.354741 0.477743
0.122239 0.622152 0.474975
0.198605 0.250951 0.330041
0.171459 0.632419 0.375349
0.337419 0.334198 0.219260
0.178233 0.570439 0.382401
0.307697 0.380031 0.296545
0.263964 0.430439 0.374036
0.176860 0.098273 0.264090
0.407227 0.618434 0.397533
0.421985 0.646602 0.379476
0.174343 0.259161 0.037656
0.458777 0.629717 0.149010
0.155695 0.237827 0.342911
0.352325 0.504576 0.061525
0.381026 0.492375 0.378964
0.158013 0.599740 0.372023
0.263266 0.280667 0.049661
0.314625 0.964446 0.286389
0.215885 0.590767 0.448307
0.207833 0.579596 0.452837
0.244232 0.264586 0.190462
0.264560 0.848736 0.180129
0.144423 0.696275 0.375890
0.277319 0.525391 0.356853
0.190075 0.102181 0.252827
0.268712 0.390367 0.257098
0.373914 0.862334 0.357851
0.360253 0.318485 0.242544
0.350406 0.429619 0.375411
0.154180 0.115406 0.267837
0.347839 0.499899 0.396681
0.097336 0.120875 0.222075
0.269397 0.234387 0.189644
0.099012 0.381223 0.454216
0.239732 0.823781 0.272868
0.315786 0.383989 0.054501
0.393037 0.475397 0.358061
0.238961 0.302749 0.274807
0.273795 0.305721 0.094586
0.347627 0.419400 0.297890
0.198474 0.629167 0.474143
0.357095 0.485117 0.393359
0.211614 0.174269 0.215657
0.397455 0.932472 0.174537
0.266481 0.842763 0.363808
0.272121 0.435196 0.384594
0.117625 0.207586 0.365832
0.119981 0.063560 0.246348
0.246779 0.362936 0.046464
0.146737 0.199585 0.029641
0.448772 0.532702 0.244734
0.335829 0.280704 0.233047
0.213647 0.578581 0.438598
0.439160 0.537018 0.146191
0.425124 0.528529 0.343942
0.132491 0.444103 0.466526
0.438856 0.563121 0.328012
0.460923 0.590604 0.213190
0.284813 0.557835 0.314902
0.172494 0.219712 0.033847
0.192807 0.205164 0.187277
0.337382 0.780941 0.123332
0.169732 0.246633 0.390116
0.166720 0.212880 0.074952
0.462029 0.597333 0.226105
0.403786 0.686841 0.393666
0.197362 0.765689 0.359844
0.239334 0.274229 0.398618
0.343128 0.420876 0.384961
0.360929 0.438861 0.072364
0.212401 0.229561 0.223814
0.369515 0.859341 0.135882
0.450925 0.604841 0.312236
0.197750 0.232947 0.036382
0.234866 0.670539 0.315662
0.332780 0.442511 0.061445
0.298348 0.348526 0.217794
0.365971 0.420841 0.369948
0.053603 0.069401 0.140318
0.388999 0.620986 0.087252
0.322642 0.421028 0.119640
0.110667 0.135488 0.332743
0.149319 0.586697 0.372175
0.270807 0.315043 0.292459
0.250660 0.260790 0.069802
0.134863 0.136971 0.238647
0.438872 0.890762 0.195859
0.268708 0.330538 0.398622
0.137016 0.215345 0.382000
0.372778 0.405796 0.193643
0.301309 0.262419 0.217905
0.375678 0.397454 0.304224
0.291863 0.474160 0.272870
0.318123 0.592086 0.440565
0.147370 0.166283 0.128849
0.436508 0.504982 0.214022
0.096570 0.418281 0.445842
0.256264 0.931807 0.201237
0.060425 0.149930 0.340608
0.317486 0.315614 0.359309
0.307892 0.607922 0.255789
0.270575 0.196875 0.278256
0.079966 0.128913 0.167429
0.325835 0.936893 0.328648
0.117947 0.189935 0.364323
0.211046 0.129979 0.228479
0.433655 0.825638 0.326788
0.437683 0.811641 0.317264
0.403519 0.411304 0.298141
0.037403 0.132850 0.346211
0.355080 0.334070 0.228086
0.358817 0.310369 0.254233
0.238267 0.892275 0.215859
