0.572950 0.389162 0.578289
0.592483 0.670629 0.517182
0.130707 0.681614 0.600299
0.117650 0.892020 0.386824
0.349120 0.165585 0.727689
0.418162 0.895919 0.148120
0.277395 0.787808 0.696203
0.443775 0.600850 0.754852
0.203094 0.735435 0.674310
0.605519 0.712246 0.467397
0.371692 0.966033 0.299604
0.585060 0.594451 0.544835
0.445371 0.952858 0.446799
0.270111 0.967057 0.356922
0.332681 0.047225 0.547252
0.482705 0.620768 0.726446
0.403648 0.969179 0.388898
0.123011 0.456031 0.215314
0.507396 0.825687 0.609342
0.503654 0.279826 0.665539
0.188069 0.915488 0.507233
0.081875 0.659193 0.495568
0.411550 0.072810 0.545950
0.280774 0.228392 0.729088
0.218491 0.686703 0.716479
0.098322 0.642552 0.548906
0.117408 0.471109 0.225085
0.322029 0.679964 0.753430
0.481102 0.912726 0.529150
0.123264 0.726921 0.576478
0.343035 0.959339 0.489683
0.341611 0.542996 0.037378
0.638524 0.525120 0.308444
0.047578 0.525946 0.353916
0.255993 0.508547 0.065408
0.087827 0.395814 0.353531
0.292642 0.869609 0.103467
0.217848 0.843506 0.111404
0.591482 0.429489 0.544220
0.623333 0.509165 0.315411
0.552583 0.558315 0.634338
0.442203 0.312794 0.711496
0.142450 0.479972 0.639667
0.427046 0.077030 0.556716
0.577372 0.201319 0.382131
0.126634 0.421345 0.216546
0.383094 0.334202 0.759412
0.521345 0.640854 0.677167
0.608422 0.432350 0.281283
0.418209 0.431712 0.637732
0.322542 0.932082 0.195487
0.222762 0.921942 0.524959
0.246104 0.487245 0.705654
0.469364 0.833408 0.107315
0.193491 0.212798 0.674710
0.155140 0.827489 0.581585
0.188930 0.940642 0.422583
0.093562 0.722887 0.516269
0.403778 0.441531 0.653801
0.483915 0.866385 0.151155
0.339173 0.248941 0.734209
0.179485 0.934089 0.441810
0.091239 0.745545 0.504920
0.486037 0.124116 0.624461
0.396093 0.340413 0.743699
0.496060 0.893937 0.549935
0.253427 0.206552 0.685598
0.486762 0.487971 0.667463
0.365628 0.091391 0.716555
0.482187 0.378945 0.694856
0.061247 0.663772 0.388162
0.383124 0.851021 0.086606
0.172691 0.752077 0.638650
0.428959 0.936155 0.233535
0.115603 0.692769 0.146993
0.552152 0.499026 0.632993
0.562873 0.781523 0.161251
0.470413 0.946460 0.441546
0.122650 0.391554 0.613520
0.594436 0.644862 0.194281
0.495514 0.119520 0.524629
0.272788 0.455740 0.636842
0.092032 0.490411 0.277848
0.543255 0.171938 0.509279
0.206391 0.500735 0.088297
0.175020 0.842856 0.142882
0.592460 0.767001 0.505762
0.165311 0.901320 0.254977
0.109709 0.551513 0.586000
0.402126 0.244495 0.733302
0.424819 0.871589 0.631369
0.136572 0.368342 0.206635
0.053547 0.462676 0.300218
0.215283 0.479897 0.088157
0.068173 0.362485 0.345966
0.084684 0.322475 0.436887
0.100398 0.225049 0.442334
0.164826 0.490242 0.131458
0.111057 0.556922 0.195412
0.074419 0.573889 0.305440
0.606993 0.753591 0.310325
0.296440 0.815192 0.064820
0.082012 0.559059 0.521541
0.142515 0.685567 0.108735
0.570044 0.618492 0.578535
0.039176 0.567681 0.376955
0.069479 0.379362 0.387831
0.225896 0.525656 0.740827
0.494413 0.523769 0.719011
0.488602 0.866647 0.585138
0.108993 0.301471 0.544299
0.293649 0.550848 0.775337
0.509993 0.731779 0.664730
0.329248 0.895203 0.129591
0.097824 0.861808 0.352874
0.281562 0.496232 0.730174
0.164064 0.593448 0.690696
0.575412 0.217262 0.287479
0.518519 0.188815 0.616263
0.094775 0.537601 0.250468
0.140700 0.322259 0.632547
0.225434 0.833011 0.640954
0.589464 0.333833 0.264246
0.399555 0.256243 0.711684
0.459569 0.870953 0.139330
0.568868 0.490418 0.172467
0.241090 0.092218 0.661824
0.626135 0.608563 0.359714
0.587779 0.511625 0.547787
0.233451 0.696075 0.719576
0.257773 0.522344 0.748723
0.110557 0.268036 0.288631
0.297144 0.912921 0.592668
0.441223 0.939884 0.260706
0.082019 0.408714 0.342475
0.596079 0.432793 0.526346
0.568156 0.832403 0.529861
0.402540 0.846291 0.088973
0.550609 0.661411 0.109702
0.400572 0.167590 0.705777
0.087474 0.620940 0.236204
0.190935 0.783746 0.091581
0.491945 0.110932 0.585030
0.527188 0.795718 0.611539
0.550455 0.391884 0.628607
0.049970 0.478176 0.350003
0.528340 0.235416 0.614310
0.356463 0.939488 0.531358
0.592507 0.586160 0.527854
0.231450 0.919053 0.541012
0.080321 0.441867 0.379265
0.129137 0.544829 0.169303
0.204014 0.826251 0.630918
0.088965 0.376142 0.361675
0.577093 0.278275 0.487008
0.283815 0.459727 0.705620
0.261536 0.966026 0.381389
0.471814 0.800600 0.087742
0.085752 0.843913 0.380341
0.467656 0.763310 0.071743
0.443429 0.841222 0.100299
0.606535 0.743092 0.246666
0.444016 0.924423 0.219840
0.351686 0.051020 0.549208
0.087514 0.842085 0.357095
0.070044 0.561493 0.467776
0.546547 0.825279 0.568771
0.100015 0.223407 0.367973
0.235630 0.229890 0.705665
0.392241 0.807644 0.062784
0.447805 0.459473 0.693412
0.617585 0.656756 0.300419
0.188702 0.876200 0.171667
0.068033 0.737063 0.319562
0.158691 0.520563 0.703639
0.214628 0.724645 0.688200
0.290701 0.386077 0.760173
0.091616 0.445498 0.310381
0.512297 0.294464 0.657737
0.249531 0.699097 0.727008
0.130958 0.197714 0.550334
0.599216 0.449568 0.518062
0.394171 0.764056 0.715280
0.235042 0.426575 0.632282
0.065223 0.476639 0.382758
0.089042 0.810119 0.267247
0.259321 0.812329 0.674145
0.550279 0.468586 0.624837
0.246967 0.245423 0.716999
0.502501 0.297782 0.673995
0.232013 0.321726 0.711574
0.131467 0.527427 0.173578
0.467591 0.272190 0.696001
0.410995 0.679715 0.034760
0.616661 0.658303 0.268409
0.489027 0.507848 0.081556
0.256133 0.068880 0.585425
0.277582 0.369577 0.743309
0.607910 0.702927 0.213597
0.346734 0.091630 0.724506
0.276044 0.809223 0.066035
0.152733 0.621463 0.663509
0.131099 0.903468 0.369311
0.333553 0.554011 0.779978
0.618321 0.567815 0.270192
0.111346 0.205223 0.465973
0.386262 0.837193 0.668331
0.471646 0.441043 0.694376
0.632646 0.446722 0.275051
0.448302 0.436241 0.616038
0.444105 0.102011 0.653707
0.130133 0.161190 0.449816
0.499206 0.523899 0.085163
0.233379 0.443085 0.086908
0.107812 0.771237 0.537850
0.595100 0.806936 0.444347
0.068476 0.410092 0.328477
0.209203 0.609558 0.062579
0.097948 0.323899 0.324590
0.363330 0.191463 0.724133
0.092792 0.806652 0.224644
0.200382 0.760465 0.078850
0.601372 0.329031 0.409455
0.594872 0.602230 0.517888
0.559485 0.511531 0.613692
0.444144 0.222731 0.694811
0.313375 0.432518 0.777179
0.150145 0.181940 0.605116
0.551678 0.362897 0.619063
0.567328 0.316319 0.551280
0.087997 0.616834 0.529273
0.068097 0.427656 0.445102
0.570487 0.841791 0.256795
0.134913 0.783572 0.576201
0.307909 0.071362 0.694630
0.610209 0.710478 0.444860
0.459134 0.894498 0.171113
0.351030 0.293378 0.763325
0.406144 0.622793 0.037708
0.432128 0.439115 0.703123
0.055753 0.403632 0.356971
0.554590 0.341579 0.602792
0.596638 0.626511 0.509758
0.559780 0.275865 0.547479
0.140910 0.267601 0.209356
0.338538 0.382446 0.068770
0.618981 0.370370 0.342497
0.081659 0.423130 0.379141
0.059931 0.493322 0.373220
0.582645 0.270148 0.460222
0.457890 0.897975 0.571227
0.362832 0.075051 0.704492
0.550788 0.632527 0.620362
0.573472 0.320921 0.532538
0.252318 0.934736 0.512488
0.131920 0.654992 0.607275
0.466949 0.217350 0.678336
0.575598 0.258783 0.238655
0.109385 0.487320 0.235928
0.592390 0.335559 0.471291
0.496145 0.507678 0.707427
0.082560 0.498747 0.527635
0.390532 0.531684 0.767705
0.241762 0.637618 0.744956
0.164597 0.622783 0.677028
0.210167 0.768915 0.667067
0.328182 0.318925 0.770222
0.330962 0.972305 0.344140
0.101116 0.737915 0.170547
0.345163 0.682828 0.753411
0.217505 0.478310 0.689563
0.219135 0.578855 0.748816
0.527079 0.494657 0.115276
0.162430 0.404899 0.157117
0.304147 0.255340 0.759365
0.487960 0.804402 0.101018
0.094358 0.437626 0.563710
0.468617 0.683330 0.722870
0.560851 0.822814 0.202643
0.485566 0.797950 0.650297
0.151965 0.494005 0.660747
0.285412 0.491345 0.713304
0.415701 0.355187 0.089263
0.217448 0.950368 0.435768
0.457240 0.710615 0.054895
0.254748 0.806577 0.070954
0.381869 0.505021 0.048879
0.604329 0.376129 0.355944
0.572322 0.508280 0.175477
0.190544 0.891651 0.194629
0.169889 0.911410 0.491452
0.247585 0.612020 0.049114
0.152588 0.412680 0.670220
0.238850 0.362658 0.718733
0.039582 0.449209 0.334839
0.507103 0.316134 0.673757
0.269242 0.490862 0.065163
0.185378 0.574685 0.725061
0.097501 0.248121 0.445037
0.149710 0.201323 0.614461
0.438373 0.529940 0.646618
0.302914 0.094931 0.716253
0.459553 0.700113 0.722461
0.197272 0.933705 0.465201
0.174085 0.930236 0.323590
0.570628 0.544997 0.161149
0.429544 0.469972 0.695840
0.353628 0.453166 0.056204
0.598246 0.492687 0.525633
0.295216 0.337662 0.757346
0.609075 0.605457 0.237574
0.318977 0.219182 0.728464
0.095262 0.425809 0.284772
0.175575 0.587616 0.088133
0.034729 0.577298 0.392117
0.621615 0.472471 0.299663
0.195369 0.344204 0.690792
0.213737 0.132078 0.659836
0.508999 0.116739 0.490381
0.507315 0.235854 0.649361
0.284968 0.938079 0.218813
0.516612 0.349167 0.144067
0.567375 0.195906 0.425247
0.463253 0.334950 0.702724
0.245636 0.456430 0.598276
0.116863 0.406030 0.237236
0.217649 0.684255 0.056712
0.344130 0.825958 0.061348
0.390293 0.048972 0.509457
0.277643 0.476368 0.635789
0.094531 0.301371 0.340376
0.214903 0.950696 0.336796
0.548702 0.349768 0.175385
0.619633 0.606516 0.423230
0.199992 0.134832 0.646437
0.256890 0.363732 0.726556
0.444472 0.502689 0.710148
0.424576 0.098529 0.671686
0.575088 0.793634 0.200472
0.318492 0.910953 0.599938
0.436894 0.802948 0.681705
0.204028 0.149302 0.660081
0.414617 0.932355 0.524104
0.655416 0.446494 0.278023
0.166379 0.722375 0.091258
0.600906 0.420117 0.491712
0.184407 0.912370 0.252724
0.422088 0.961767 0.327224
0.196230 0.704591 0.068025
0.284077 0.271902 0.732024
0.453287 0.352474 0.710118
0.136737 0.179699 0.556325
0.101827 0.243347 0.465428
0.448101 0.677849 0.048369
0.087426 0.711485 0.501924
0.089022 0.490894 0.543840
0.607594 0.751106 0.291198
0.085908 0.304187 0.422308
0.403136 0.512929 0.637026
0.067680 0.743838 0.380835
0.278844 0.347758 0.089162
0.365133 0.930432 0.549711
0.090170 0.425133 0.548663
0.425940 0.282833 0.708379
0.488746 0.935751 0.457347
0.206174 0.241806 0.686839
0.607494 0.660089 0.224372
0.134629 0.760378 0.585319
0.536834 0.912910 0.422070
0.099071 0.277155 0.332223
0.205181 0.536657 0.738203
0.151927 0.673491 0.637145
0.601233 0.399678 0.275686
0.618381 0.645236 0.280814
0.318884 0.052944 0.558668
0.313770 0.745186 0.724939
0.227475 0.958158 0.382102
0.526736 0.331445 0.649232
0.534320 0.546426 0.675157
0.400448 0.861774 0.100327
0.430879 0.448014 0.686720
0.296227 0.409311 0.764648
0.289429 0.106710 0.714559
0.190514 0.110431 0.511946
0.592819 0.407408 0.375824
0.231227 0.618166 0.053663
0.605815 0.769156 0.323096
0.316875 0.564329 0.776990
0.414060 0.407181 0.080488
0.136339 0.387971 0.204436
0.400672 0.561630 0.775212
0.511858 0.880626 0.554222
0.135800 0.144751 0.437379
0.172766 0.890103 0.216498
0.145765 0.386222 0.187796
0.184424 0.940212 0.402254
0.401654 0.903286 0.151805
0.069923 0.746256 0.401887
0.089322 0.659940 0.214273
0.628659 0.573078 0.331211
0.358436 0.962764 0.283275
0.158596 0.890081 0.522895
0.248800 0.317159 0.717144
0.644043 0.431695 0.275104
0.064526 0.729323 0.370416
0.088902 0.298546 0.364953
0.402217 0.065606 0.593020
0.627966 0.589126 0.350542
0.466832 0.487220 0.604522
0.588228 0.846068 0.380403
0.359417 0.380629 0.803299
0.297414 0.920684 0.573476
0.516109 0.700798 0.084719
0.235056 0.870230 0.129032
0.089312 0.636669 0.526093
0.143509 0.139229 0.454449
0.513275 0.933394 0.402705
0.295482 0.635873 0.758411
0.131389 0.332497 0.615902
0.405859 0.571001 0.044068
0.170686 0.470429 0.129421
0.588735 0.259197 0.373946
0.230480 0.292548 0.706471
0.171380 0.905748 0.508479
0.090387 0.534661 0.541761
0.106206 0.612530 0.190580
0.223809 0.533789 0.072132
0.326549 0.973988 0.403689
0.426406 0.576358 0.049359
0.178959 0.456011 0.629789
0.206366 0.591981 0.736745
0.281099 0.663305 0.035453
0.163932 0.132865 0.597341
0.375470 0.764765 0.042184
0.312949 0.080035 0.712380
0.167643 0.770110 0.102553
0.586814 0.314174 0.260650
0.266023 0.439578 0.076264
0.587070 0.828499 0.451558
0.587649 0.834664 0.316257
0.471590 0.160508 0.657650
0.210179 0.302853 0.699680
0.403161 0.063600 0.521588
0.559668 0.315910 0.195988
0.102952 0.427306 0.578727
0.625556 0.469800 0.354257
0.265734 0.742173 0.713367
0.148775 0.637648 0.649135
0.450117 0.437396 0.700358
0.124240 0.572764 0.620724
0.591940 0.829418 0.337662
0.104914 0.643787 0.565998
0.602481 0.785164 0.416248
0.060670 0.491796 0.451841
0.147551 0.653035 0.636084
0.288257 0.448993 0.723473
0.444216 0.272386 0.702196
0.256803 0.779541 0.693599
0.380719 0.071448 0.664344
0.395902 0.505212 0.651572
0.345951 0.418247 0.791793
0.548895 0.452038 0.153621
0.184155 0.937500 0.341342
0.548356 0.873122 0.513404
0.111301 0.533308 0.586557
0.468216 0.932080 0.267401
0.222913 0.822749 0.095246
0.352262 0.371859 0.074149
0.571890 0.278141 0.507258
0.478980 0.920863 0.251002
0.317740 0.149406 0.728853
0.517580 0.723577 0.090990
0.550125 0.784709 0.145748
0.424481 0.524351 0.631421
0.053957 0.572682 0.392605
0.153981 0.136119 0.545545
0.613796 0.688602 0.278163
0.629947 0.350736 0.320640
0.118759 0.891315 0.362345
0.096863 0.245085 0.374928
0.595439 0.821669 0.382429
0.624286 0.491940 0.290616
0.074525 0.519423 0.320435
0.104223 0.324470 0.291177
0.592593 0.299509 0.347522
0.168090 0.334251 0.164752
0.594917 0.550696 0.212478
0.368918 0.454639 0.737106
0.191138 0.514190 0.098558
0.548047 0.808752 0.577263
0.546328 0.320641 0.608733
0.537677 0.490041 0.643011
0.477833 0.515813 0.722474
0.581667 0.386756 0.234030
0.449328 0.945757 0.465684
0.060532 0.632850 0.371896
0.108320 0.714085 0.552858
0.500657 0.934463 0.334633
0.471042 0.494126 0.076611
0.162689 0.196970 0.633176
0.575595 0.211188 0.415611
0.592272 0.811118 0.289444
0.592376 0.370271 0.322057
0.073579 0.767060 0.290947
0.535488 0.172171 0.553387
0.497305 0.939033 0.363271
0.447514 0.577626 0.758705
0.257548 0.515674 0.628687
0.545275 0.619686 0.632990
0.303318 0.935393 0.205365
0.425460 0.477381 0.063438
0.538826 0.911629 0.379430
0.534884 0.250879 0.607200
0.306321 0.298470 0.086295
0.135203 0.513483 0.652192
0.496840 0.610879 0.712935
0.353172 0.472385 0.051640
0.283039 0.302248 0.093586
0.628705 0.457484 0.338157
0.413803 0.460601 0.686543
0.110165 0.380127 0.256326
0.236822 0.680027 0.049336
0.364416 0.781313 0.047182
0.528655 0.906238 0.299855
0.228084 0.597306 0.747361
0.372096 0.336700 0.081743
0.067924 0.459895 0.491915
0.247185 0.940448 0.250994
0.346996 0.922592 0.572957
0.114686 0.634136 0.585899
0.357708 0.956191 0.261150
0.082949 0.540371 0.288256
0.460006 0.648421 0.737090
0.604014 0.419590 0.471885
0.122887 0.203876 0.521951
0.096322 0.373417 0.315102
0.089364 0.765214 0.495457
0.375247 0.765291 0.716894
0.577807 0.567227 0.571085
0.108629 0.873414 0.330332
0.411699 0.526829 0.754818
0.610898 0.724151 0.429566
0.382354 0.317749 0.742441
0.643941 0.420436 0.316295
0.595186 0.401034 0.356851
0.055171 0.540243 0.320948
0.573406 0.851267 0.473459
0.229084 0.128793 0.674554
0.597934 0.704609 0.192319
0.581096 0.253872 0.258503
0.425900 0.833097 0.086330
0.106258 0.830789 0.499978
0.538741 0.809957 0.147212
0.552217 0.190050 0.500465
0.090380 0.284382 0.400638
0.122897 0.194148 0.505228
0.239330 0.439397 0.607960
0.193130 0.904970 0.533492
0.104510 0.199408 0.362525
0.246448 0.294799 0.107442
0.562218 0.196958 0.464715
0.431363 0.904684 0.577664
0.364470 0.357286 0.078320
0.390684 0.065034 0.639979
0.343016 0.973827 0.360448
0.062213 0.339270 0.360945
0.603263 0.380189 0.438525
0.306891 0.491914 0.752904
0.468590 0.389394 0.703306
0.162841 0.923068 0.450977
0.623964 0.565242 0.287234
0.572390 0.430444 0.591230
0.241662 0.946238 0.277331
0.275304 0.537363 0.054978
0.067817 0.470685 0.364826
0.518554 0.133331 0.580929
0.632157 0.526511 0.367113
0.404460 0.781992 0.054807
0.151449 0.132447 0.469358
0.380252 0.490090 0.705400
0.618681 0.638126 0.262308
0.558780 0.310067 0.577554
0.166087 0.428852 0.676221
0.427439 0.365205 0.724860
0.460003 0.402037 0.098172
0.187957 0.922359 0.488640
0.562810 0.766129 0.574907
0.423595 0.806138 0.069221
0.229198 0.078184 0.630667
0.097866 0.518725 0.247759
0.128695 0.730869 0.128710
0.290328 0.687918 0.030838
0.600162 0.387274 0.300316
0.407041 0.366994 0.727184
0.296246 0.468518 0.717867
0.527054 0.907862 0.471763
0.322619 0.803622 0.694789
0.134349 0.800959 0.568691
0.277474 0.650822 0.751062
0.333881 0.869401 0.647814
0.056906 0.461045 0.349753
0.361493 0.434531 0.062262
0.561175 0.241182 0.520445
0.300913 0.428215 0.759533
0.641522 0.467106 0.298384
0.353577 0.865858 0.650257
0.607914 0.385501 0.339481
0.585744 0.288906 0.461251
0.199330 0.609310 0.727728
0.614201 0.321442 0.342082
0.424945 0.146155 0.693672
0.555758 0.490959 0.149380
0.283286 0.822628 0.674287
0.411648 0.278843 0.719486
0.588385 0.794378 0.502073
0.108240 0.836878 0.232764
0.077767 0.553897 0.299545
0.613068 0.514526 0.255728
0.362216 0.216767 0.724200
0.194086 0.895661 0.548792
0.512540 0.678085 0.682026
0.410854 0.127194 0.700368
0.097626 0.520105 0.558424
0.368594 0.072239 0.685403
0.407517 0.495708 0.706521
0.357245 0.259940 0.736758
0.101559 0.346243 0.541464
0.098494 0.415453 0.563518
0.182915 0.857558 0.153917
0.087359 0.571622 0.534582
0.479764 0.913607 0.233838
0.070822 0.744336 0.296674
0.369594 0.370651 0.790530
0.197845 0.259742 0.143366
0.189644 0.839198 0.606595
0.625181 0.531509 0.298203
0.305092 0.972823 0.398076
0.203461 0.097711 0.511105
0.127935 0.847694 0.532043
0.137583 0.239136 0.607216
0.608699 0.483159 0.479096
0.340514 0.953961 0.250632
0.210903 0.320047 0.124592
0.349653 0.111440 0.732019
0.513040 0.508650 0.691880
0.157152 0.689541 0.643414
0.377359 0.938202 0.212899
0.272246 0.934540 0.528402
0.283796 0.290995 0.734432
0.384487 0.416311 0.741217
0.093497 0.790248 0.209780
0.093797 0.699897 0.522307
0.319001 0.066634 0.675350
0.223265 0.364695 0.709587
0.432689 0.086443 0.654700
0.171997 0.390383 0.149173
0.283133 0.307770 0.740877
0.526475 0.873536 0.546255
0.612761 0.529981 0.317084
0.070104 0.756257 0.319215
0.305327 0.934861 0.540984
0.247760 0.902260 0.163397
0.403849 0.968986 0.370843
0.499000 0.490948 0.684435
0.475666 0.515400 0.642135
0.570821 0.273785 0.225392
0.470445 0.810442 0.654043
0.497708 0.845046 0.136768
0.098830 0.332774 0.525033
0.122500 0.661870 0.593395
0.086633 0.680462 0.211560
0.539097 0.329151 0.627215
0.469607 0.745053 0.067171
0.108939 0.290945 0.287485
0.044403 0.569894 0.357640
0.289610 0.839131 0.663945
0.361496 0.126343 0.730502
0.529613 0.133810 0.461884
0.263165 0.712925 0.726107
0.187278 0.107057 0.566493
0.253963 0.651394 0.744447
0.371904 0.921007 0.570885
0.147179 0.271107 0.632426
0.464162 0.092473 0.565020
0.572029 0.209215 0.436419
0.516330 0.539332 0.702513
0.602117 0.441329 0.496448
0.425050 0.858157 0.646848
0.211829 0.934622 0.270947
0.413898 0.448055 0.707307
0.185948 0.108255 0.548501
0.311183 0.623826 0.765550
0.052059 0.391649 0.326175
0.520970 0.849799 0.166960
0.295147 0.912796 0.158923
0.193244 0.811846 0.106048
0.060939 0.658423 0.360401
0.539071 0.854907 0.203885
0.122736 0.635782 0.147592
0.184698 0.446498 0.654508
0.400281 0.943604 0.506425
0.477956 0.133507 0.637734
0.597243 0.431383 0.250385
0.235221 0.359796 0.105924
0.078313 0.376116 0.438986
0.148964 0.901272 0.484068
0.162248 0.786636 0.114151
0.647956 0.514254 0.328002
0.416960 0.081930 0.667844
0.578013 0.852572 0.441579
0.447247 0.085498 0.559030
0.229584 0.182637 0.686604
0.275509 0.481936 0.655942
0.276276 0.942317 0.510767
0.567085 0.404948 0.195119
0.591794 0.321547 0.277362
0.332710 0.196426 0.737510
0.254773 0.499581 0.716305
0.343366 0.332669 0.783503
0.102653 0.491159 0.573275
0.248580 0.073546 0.569749
0.345293 0.273145 0.761891
0.549193 0.535805 0.128453
0.191925 0.746174 0.660721
0.547883 0.656455 0.621158
0.374253 0.957985 0.270363
0.395396 0.481763 0.698002
0.163636 0.213122 0.641890
0.239001 0.380747 0.718243
0.521006 0.743982 0.642965
0.114905 0.348811 0.585362
0.567164 0.747787 0.151537
0.203139 0.723790 0.067128
0.518487 0.779329 0.110665
0.400354 0.233061 0.683841
0.487856 0.595537 0.066023
0.557301 0.649109 0.606488
0.608850 0.675523 0.463327
0.539838 0.494293 0.128662
0.328071 0.739934 0.034772
0.526776 0.624273 0.670003
0.137768 0.890270 0.275153
0.465236 0.758592 0.692491
0.617179 0.615767 0.259467
0.258552 0.269431 0.712170
0.088057 0.450630 0.552938
0.029713 0.494456 0.306361
0.133902 0.298207 0.611484
0.588113 0.689021 0.527608
0.271342 0.252188 0.739363
0.095098 0.720009 0.185510
0.488639 0.637109 0.717627
0.580889 0.243468 0.277415
0.065102 0.669109 0.429139
0.592697 0.811278 0.461675
0.553070 0.876772 0.486182
0.095126 0.253345 0.418816
0.350471 0.343888 0.809835
0.473076 0.459230 0.087558
0.540163 0.334358 0.170730
0.338498 0.402649 0.803402
0.236742 0.554083 0.764482
0.487144 0.781537 0.658143
0.605282 0.405238 0.292430
0.064683 0.606289 0.332172
0.476338 0.888288 0.174222
0.244859 0.891218 0.593208
0.101214 0.529068 0.232666
0.321824 0.950438 0.504979
0.204130 0.338486 0.126930
0.623787 0.647881 0.355541
0.606050 0.412031 0.454703
0.557713 0.405969 0.179757
0.523090 0.720475 0.651618
0.350378 0.770705 0.040107
0.628893 0.554302 0.331706
0.204515 0.573153 0.739606
0.104874 0.397372 0.263323
0.123908 0.164663 0.408997
0.298257 0.451677 0.066366
0.571101 0.607835 0.145947
0.069260 0.631282 0.455015
0.513591 0.919341 0.468498
0.580515 0.549996 0.566434
0.428923 0.789499 0.064885
0.390580 0.518486 0.755496
0.062455 0.581000 0.417586
0.442039 0.434473 0.080513
0.506464 0.289399 0.149478
0.101747 0.366921 0.550995
0.337300 0.962933 0.281058
0.617970 0.693101 0.397420
0.079727 0.381167 0.467464
0.103216 0.601160 0.572262
0.490957 0.924152 0.286048
0.323521 0.128033 0.736166
0.370761 0.482352 0.052355
0.148438 0.572589 0.676682
0.090824 0.424696 0.322906
0.339021 0.974805 0.418627
0.552120 0.891816 0.447357
0.317519 0.343401 0.808526
0.564378 0.700069 0.131275
0.279478 0.902840 0.151149
0.571714 0.690017 0.568902
0.122636 0.244809 0.568884
0.278348 0.122545 0.711745
0.155880 0.378988 0.172481
0.079526 0.390432 0.487439
0.344857 0.040965 0.526757
0.633182 0.487840 0.347499
0.168494 0.364024 0.158764
0.361283 0.051101 0.530481
0.153301 0.541880 0.131133
0.589071 0.301223 0.286972
0.199593 0.485491 0.097406
0.071658 0.685748 0.264200
0.375061 0.614599 0.765159
0.408264 0.491925 0.057386
0.062705 0.471978 0.327950
0.150187 0.891714 0.257321
0.260411 0.487927 0.677550
0.313379 0.875621 0.104364
0.421979 0.445523 0.611310
0.246192 0.499612 0.682829
0.292383 0.742360 0.723217
0.608798 0.693867 0.457720
0.079717 0.494001 0.315224
0.628559 0.546107 0.383131
0.237318 0.951935 0.450299
0.109921 0.502415 0.225715
0.156553 0.686964 0.094790
0.119769 0.881253 0.318388
0.499028 0.384941 0.685933
0.071322 0.769614 0.379470
0.065501 0.595451 0.429145
0.335031 0.578136 0.033219
0.496161 0.742947 0.671945
0.477108 0.593928 0.735128
0.465571 0.882694 0.585727
0.241054 0.342867 0.105106
0.351212 0.589617 0.776224
0.490281 0.340196 0.688197
0.281958 0.050700 0.508388
0.222115 0.386633 0.108251
0.251972 0.473512 0.597300
0.533017 0.884825 0.255585
0.270760 0.415497 0.717279
0.506046 0.567093 0.080558
0.507938 0.391295 0.132029
0.070703 0.592235 0.313327
0.461426 0.925170 0.514671
0.309911 0.849534 0.660794
0.097331 0.391016 0.280433
0.592263 0.375865 0.510029
0.106408 0.718476 0.161633
0.069649 0.465196 0.403776
0.105892 0.279104 0.303091
0.443979 0.740484 0.053114
0.231689 0.897246 0.575969
0.096799 0.760419 0.515830
0.256516 0.912442 0.570680
0.402266 0.700476 0.741034
0.084589 0.726268 0.490892
0.093948 0.557809 0.244003
0.532205 0.313197 0.632920
0.109227 0.193171 0.381910
0.131929 0.448036 0.630851
0.199465 0.888413 0.564701
0.411481 0.185387 0.697862
0.413327 0.899285 0.599195
0.210500 0.753223 0.675919
0.309809 0.467478 0.061109
0.450305 0.765317 0.064229
0.280638 0.513549 0.748795
0.445623 0.139559 0.674460
0.306234 0.580191 0.773917
0.098569 0.851133 0.424946
0.153826 0.141410 0.582684
0.105697 0.514920 0.576066
0.529138 0.161185 0.569955
0.147224 0.552062 0.680194
0.408603 0.505997 0.676952
0.128768 0.470489 0.622135
0.277837 0.410897 0.079097
0.432513 0.772425 0.059747
0.536467 0.842324 0.570182
0.201936 0.435783 0.109514
0.288917 0.570486 0.771137
0.636181 0.502655 0.382216
0.466797 0.880500 0.157342
0.312541 0.106850 0.726398
0.117563 0.666666 0.150297
0.203660 0.488454 0.596130
0.317049 0.580997 0.035809
0.406411 0.953803 0.274641
0.651355 0.530487 0.371603
0.129817 0.875494 0.254407
0.120461 0.532830 0.190569
0.087215 0.567215 0.261900
0.274014 0.255332 0.721881
0.494606 0.191104 0.651682
0.148290 0.147374 0.560622
0.188161 0.655929 0.701030
0.176070 0.491538 0.634111
0.460807 0.595387 0.747569
0.365675 0.857027 0.087330
0.154605 0.323011 0.182097
0.617844 0.653118 0.421090
0.486461 0.929927 0.476955
0.139013 0.711473 0.605394
0.510891 0.932943 0.383115
0.578258 0.605864 0.559037
0.568639 0.320678 0.214364
0.136627 0.450784 0.190048
0.594781 0.663134 0.190987
0.625967 0.597997 0.374569
0.618935 0.693460 0.346215
0.180177 0.630424 0.077939
0.410349 0.149253 0.703984
0.198317 0.650845 0.715112
0.121777 0.806645 0.166676
0.382347 0.947439 0.504761
0.115556 0.550414 0.603921
0.239600 0.953877 0.303934
0.065572 0.719885 0.324912
0.111446 0.660854 0.575953
0.410482 0.067101 0.609306
0.266044 0.949876 0.265832
0.254753 0.508347 0.733204
0.417118 0.250255 0.724059
0.575142 0.592952 0.157885
0.097951 0.856962 0.335170
0.387710 0.891846 0.127920
0.128059 0.171867 0.468857
0.050925 0.524023 0.313677
0.152590 0.274990 0.187598
0.580692 0.298342 0.487595
0.310238 0.630205 0.031449
0.514797 0.388907 0.675600
0.540369 0.514152 0.121904
0.483579 0.731722 0.070609
0.295104 0.297761 0.751310
0.049670 0.459874 0.321130
0.143809 0.448556 0.645286
0.458181 0.494262 0.691991
0.110361 0.406805 0.590799
0.323167 0.958480 0.486028
0.431580 0.916434 0.192219
0.570959 0.863434 0.458641
0.139109 0.533848 0.665970
0.089995 0.363413 0.347792
0.580733 0.369001 0.237620
0.484726 0.576869 0.067643
0.517738 0.228903 0.633526
0.395203 0.935278 0.213113
0.255961 0.955196 0.289953
0.168272 0.927940 0.342596
0.425537 0.512050 0.612778
0.176684 0.808385 0.114815
0.484074 0.845371 0.616096
0.038716 0.489300 0.341537
0.140117 0.572630 0.658960
0.519687 0.247045 0.634251
0.340017 0.870586 0.097211
0.442006 0.423116 0.708409
0.211026 0.212697 0.682153
0.106137 0.289286 0.525155
0.062477 0.597736 0.349474
0.520967 0.173116 0.604553
0.496318 0.209041 0.654987
0.392186 0.943825 0.230353
0.616837 0.494731 0.437453
0.205413 0.327147 0.696849
0.593145 0.530716 0.211762
0.234713 0.447221 0.681867
0.173263 0.114763 0.493569
0.301349 0.779836 0.706254
0.069862 0.493071 0.493192
0.527926 0.701120 0.653599
0.067582 0.720210 0.306995
0.121531 0.879160 0.296922
0.284185 0.902734 0.601784
0.358971 0.938728 0.211182
0.655207 0.533530 0.294248
0.133483 0.838456 0.548487
0.117296 0.176060 0.391524
0.623566 0.511513 0.333922
0.189692 0.330593 0.136900
0.618032 0.591063 0.432835
0.291098 0.195205 0.722494
0.561444 0.299377 0.202778
0.080391 0.359153 0.401115
0.296393 0.381086 0.779575
0.618590 0.678307 0.329922
0.110304 0.828023 0.212232
0.119312 0.437311 0.226082
0.362054 0.343171 0.786962
0.426032 0.734063 0.046168
0.463380 0.918672 0.225729
0.416739 0.071837 0.626995
0.572354 0.729569 0.152057
0.319250 0.973489 0.420379
0.612212 0.656607 0.453432
0.067542 0.752526 0.337194
0.600504 0.636601 0.211269
0.611843 0.450262 0.282708
0.194894 0.449256 0.671771
0.254952 0.574183 0.762920
0.094686 0.390058 0.304074
0.542215 0.897260 0.465115
0.646917 0.418755 0.287368
0.123448 0.213662 0.280548
0.380525 0.962063 0.464692
0.396107 0.228438 0.727030
0.599559 0.756244 0.235139
0.379904 0.522616 0.044506
0.270156 0.913879 0.171938
0.492890 0.915892 0.262120
0.173713 0.138049 0.617871
0.291862 0.472419 0.063900
0.418561 0.734572 0.723376
0.608718 0.640945 0.232425
0.177639 0.506468 0.114090
0.255756 0.687721 0.042973
0.142406 0.323581 0.201932
0.269099 0.460613 0.618329
0.609443 0.424564 0.440685
0.074600 0.388839 0.417365
0.279306 0.425033 0.731050
0.501889 0.861438 0.163381
0.606919 0.461409 0.477594
0.578941 0.864057 0.363152
0.382239 0.063204 0.570590
0.532070 0.730673 0.632050
0.139784 0.646149 0.620890
0.264568 0.448822 0.661127
0.397247 0.216731 0.699805
0.098938 0.860365 0.408843
0.128896 0.284193 0.234011
0.207022 0.286428 0.128947
0.480543 0.320804 0.127064
0.099990 0.301064 0.503038
0.097891 0.830221 0.479019
0.085215 0.741152 0.217288
0.546170 0.288561 0.595833
0.594023 0.828370 0.357204
0.485562 0.451507 0.097868
0.625760 0.368655 0.301374
0.071741 0.428618 0.327693
0.069945 0.597903 0.448652
0.183092 0.467848 0.114528
0.627655 0.427223 0.323843
0.503133 0.924337 0.302616
0.125464 0.517962 0.631316
0.092483 0.279560 0.358469
0.518803 0.905167 0.487824
0.107698 0.755079 0.160262
0.619894 0.548347 0.315033
0.343828 0.052780 0.617412
0.207294 0.901113 0.193377
0.259876 0.135329 0.701979
0.083473 0.610899 0.250812
0.255637 0.311437 0.102542
0.593378 0.288183 0.382442
0.033095 0.551959 0.320197
0.530711 0.273184 0.170567
0.214693 0.422267 0.103835
0.217000 0.440786 0.098259
0.488173 0.278719 0.139237
0.597825 0.333604 0.446767
0.073883 0.459235 0.386527
0.096341 0.348144 0.379510
0.109768 0.208435 0.324532
0.562518 0.534326 0.609657
0.172753 0.534160 0.714640
0.579884 0.555027 0.177034
0.123808 0.590494 0.611980
0.262305 0.895748 0.147867
0.205964 0.111283 0.637295
0.385208 0.927214 0.189591
0.614286 0.684354 0.300605
0.531231 0.728885 0.101833
0.617764 0.503768 0.271490
0.207264 0.806362 0.644127
0.274823 0.494533 0.638594
0.585104 0.527199 0.195202
0.264530 0.696100 0.736941
0.118744 0.409254 0.606720
0.596672 0.356054 0.473815
0.346725 0.910914 0.152091
0.601986 0.525017 0.230893
0.146743 0.510315 0.666484
0.141879 0.253280 0.617650
0.158798 0.646877 0.663937
0.298567 0.158578 0.721115
0.557065 0.326456 0.590421
0.141784 0.412520 0.652330
0.103027 0.207778 0.346377
0.434138 0.081932 0.534180
0.543492 0.904105 0.436579
0.074363 0.331700 0.372137
0.299462 0.507360 0.759384
0.437242 0.160637 0.686518
0.609937 0.728226 0.294552
0.457263 0.423148 0.089512
0.593560 0.415179 0.529198
0.128314 0.271158 0.589502
0.495448 0.942172 0.386907
0.196842 0.300336 0.135326
0.072386 0.749209 0.446241
0.259006 0.427483 0.711005
0.601315 0.663132 0.207714
0.598590 0.384478 0.397029
0.067306 0.412367 0.382256
0.177494 0.209342 0.657697
0.110377 0.201453 0.421219
0.074389 0.795012 0.317658
0.525768 0.473707 0.121625
0.233028 0.525265 0.625459
0.234960 0.870648 0.614729
0.585722 0.832560 0.470454
0.587085 0.611423 0.536270
0.497499 0.906016 0.526425
0.470426 0.468046 0.606748
0.102597 0.210663 0.383922
0.284563 0.711698 0.035074
0.127825 0.239172 0.252828
0.037074 0.425603 0.338128
0.324990 0.514889 0.763700
0.122540 0.767195 0.145377
0.401421 0.969378 0.407498
0.131288 0.349866 0.219991
0.572279 0.333094 0.547248
0.238800 0.319701 0.109097
0.547769 0.720563 0.611586
0.207518 0.091092 0.623792
0.287591 0.764826 0.045777
0.242166 0.436232 0.701779
0.168410 0.818820 0.599871
0.305068 0.056259 0.616864
0.469047 0.251854 0.687927
0.298055 0.272534 0.761195
0.479892 0.935162 0.298522
0.112716 0.429790 0.596140
0.216118 0.425935 0.635407
0.338336 0.707735 0.744007
0.584196 0.842480 0.423440
0.211693 0.900850 0.555279
0.528390 0.922935 0.405150
0.405559 0.966711 0.346263
0.366835 0.639715 0.027628
0.262792 0.635503 0.750583
0.555877 0.732976 0.595146
0.618393 0.444121 0.381426
0.176414 0.112591 0.581359
0.604424 0.568068 0.494909
0.548476 0.510617 0.647509
0.603520 0.406404 0.335897
0.088610 0.590412 0.535744
0.109521 0.476471 0.592524
0.228968 0.497886 0.704107
0.329172 0.696359 0.025857
0.177274 0.901946 0.525067
0.583437 0.851987 0.407993
0.395080 0.903295 0.603138
0.598636 0.793511 0.288469
0.046797 0.506928 0.326708
0.183257 0.860774 0.582661
0.383609 0.971975 0.378153
0.486086 0.825233 0.112376
0.329348 0.616602 0.028597
0.453259 0.351247 0.108352
0.326018 0.844539 0.667964
0.588249 0.279524 0.443322
0.273018 0.825222 0.075943
0.354880 0.654398 0.025546
0.549286 0.598885 0.630569
0.567005 0.522860 0.594237
0.200829 0.947944 0.390991
0.522954 0.297203 0.642386
0.291063 0.882175 0.117440
0.094748 0.359670 0.526625
0.186572 0.923353 0.281849
0.624159 0.528929 0.408483
0.518100 0.435896 0.668570
0.362339 0.906120 0.606742
0.065004 0.677048 0.308709
0.200413 0.686279 0.065411
0.611061 0.445160 0.442349
0.155378 0.571078 0.117847
0.220058 0.336077 0.705307
0.448509 0.331695 0.109779
0.310676 0.468247 0.733909
0.467688 0.192377 0.675072
0.644589 0.492575 0.279540
0.233327 0.813274 0.083940
0.556160 0.883124 0.316941
0.322792 0.493881 0.764168
0.592902 0.525293 0.536698
0.257058 0.403861 0.716276
0.314095 0.393837 0.800582
0.552325 0.687353 0.609973
0.527201 0.883761 0.527537
0.509073 0.789592 0.634061
0.361899 0.847391 0.663473
0.536784 0.580080 0.661700
0.134037 0.827838 0.172405
0.292166 0.554435 0.046032
0.040864 0.545077 0.305254
0.080359 0.743196 0.237110
0.100617 0.601040 0.210070
0.069282 0.721023 0.441600
0.450811 0.451200 0.078649
0.297940 0.341057 0.775000
0.577951 0.445765 0.200553
0.319761 0.335354 0.786255
0.137790 0.471865 0.182469
0.593437 0.772539 0.230772
0.488915 0.425807 0.107424
0.564444 0.659148 0.589929
0.473122 0.100531 0.549006
0.554198 0.536673 0.634467
0.384135 0.450590 0.723001
0.465300 0.940400 0.288561
0.193848 0.278450 0.140886
0.099423 0.660336 0.189449
0.096926 0.319575 0.506013
0.486736 0.558658 0.071899
0.437018 0.934743 0.506746
0.494415 0.556294 0.722509
0.305278 0.324395 0.082737
0.587929 0.258465 0.416010
0.597676 0.304040 0.404272
0.190497 0.937615 0.318646
0.273489 0.325778 0.737192
0.535706 0.687521 0.640250
0.388492 0.570740 0.039380
0.590966 0.407262 0.245094
0.201899 0.890905 0.177958
0.305504 0.427691 0.069303
0.346458 0.407905 0.064921
0.391542 0.742103 0.039281
0.607808 0.750376 0.268573
0.110621 0.857606 0.473971
0.133024 0.242849 0.235146
0.332277 0.304230 0.085988
0.380141 0.405544 0.072819
0.111780 0.593490 0.183661
0.598943 0.783175 0.451403
0.387555 0.376042 0.752847
0.109359 0.362553 0.574615
0.172124 0.553898 0.717086
0.041044 0.510330 0.343383
0.643857 0.386436 0.319087
0.344811 0.187469 0.727763
0.202547 0.468012 0.685872
0.423802 0.691774 0.040426
0.360305 0.930131 0.191899
0.140604 0.249393 0.211720
0.097779 0.756184 0.175442
0.142338 0.826748 0.566873
0.115764 0.253373 0.541183
0.251915 0.882023 0.611365
0.586044 0.330154 0.299554
0.150539 0.299157 0.189680
0.092431 0.606495 0.543728
0.335115 0.364223 0.071999
0.104390 0.393865 0.569814
0.181747 0.600665 0.712222
0.171857 0.890867 0.538158
0.067796 0.682542 0.443541
0.474793 0.415210 0.101977
0.612990 0.741203 0.371532
0.149558 0.614287 0.108568
0.067863 0.610004 0.310152
0.384524 0.961548 0.284784
0.496001 0.592456 0.716130
0.113586 0.453096 0.236011
0.581981 0.647500 0.164314
0.238802 0.278839 0.111624
0.292235 0.746581 0.039949
0.470161 0.587838 0.060521
0.445819 0.907351 0.183527
0.375335 0.354737 0.782709
0.559465 0.629000 0.604130
0.321509 0.848926 0.081051
0.411768 0.746535 0.043821
0.177446 0.791654 0.104845
0.239270 0.726509 0.052008
0.595317 0.447929 0.538223
0.362052 0.255084 0.757704
0.538568 0.199554 0.567811
0.497636 0.611360 0.069071
0.062181 0.698019 0.392149
0.601602 0.542993 0.227445
0.262073 0.664275 0.039878
0.180995 0.425855 0.130778
0.171214 0.647863 0.083266
0.574117 0.662066 0.149484
0.541298 0.144546 0.445631
0.209385 0.670997 0.716631
0.537140 0.446405 0.643959
0.237692 0.858783 0.629409
0.585408 0.259523 0.441330
0.061986 0.395343 0.384265
0.572038 0.785581 0.182561
0.248044 0.076922 0.655286
0.573915 0.468877 0.185943
0.540968 0.890059 0.489638
0.333845 0.354602 0.821295
0.292738 0.436054 0.742376
0.484331 0.099091 0.499215
0.227004 0.551640 0.066531
0.566587 0.675622 0.582420
0.534843 0.619392 0.654100
0.480761 0.857319 0.135426
0.390952 0.637640 0.033396
0.188236 0.134237 0.632887
0.494398 0.449160 0.685359
0.213597 0.708699 0.698357
0.102481 0.851978 0.285712
0.349165 0.782494 0.708628
0.104214 0.845680 0.265716
0.531284 0.567919 0.101067
0.530501 0.699570 0.096105
0.592483 0.280013 0.422736
0.244180 0.701299 0.048308
0.530492 0.436003 0.137057
0.354619 0.795972 0.050627
0.393907 0.283225 0.727537
0.450316 0.557007 0.758570
0.312082 0.899703 0.614215
0.268162 0.828414 0.665641
0.221039 0.385889 0.709957
0.106095 0.646474 0.179199
0.264347 0.942129 0.241314
0.120143 0.363170 0.600776
0.452330 0.078678 0.512936
0.043098 0.407407 0.342629
0.408966 0.442814 0.624709
0.524631 0.135532 0.480232
0.486154 0.840713 0.121827
0.547103 0.373818 0.633449
0.444754 0.123037 0.666323
0.098520 0.614008 0.559206
0.405225 0.886695 0.128226
0.279267 0.346403 0.756476
0.397153 0.311124 0.731278
0.322480 0.943191 0.220868
0.641339 0.452836 0.321414
0.592982 0.294554 0.433724
0.361507 0.604478 0.771408
0.238009 0.907658 0.180119
0.328321 0.453600 0.777186
0.565817 0.595728 0.592533
0.537490 0.667671 0.637538
0.283134 0.969389 0.372180
0.214470 0.654452 0.726769
0.278518 0.140963 0.713509
0.598574 0.380621 0.276798
0.048201 0.506608 0.303140
0.222453 0.288235 0.118432
0.173363 0.638686 0.684464
0.538668 0.210984 0.582665
0.372437 0.167664 0.720830
0.562968 0.843825 0.238495
0.072450 0.617608 0.469217
0.309883 0.190736 0.726216
0.445370 0.958344 0.411933
0.108357 0.346361 0.565250
0.116503 0.190238 0.434263
0.245827 0.300486 0.711297
0.562014 0.744432 0.580889
0.508570 0.748905 0.090592
0.282371 0.382937 0.732198
0.578187 0.697859 0.552748
0.479631 0.149944 0.645109
0.280788 0.062239 0.586584
0.147395 0.522533 0.682511
0.081227 0.601542 0.266094
0.204696 0.533500 0.082537
0.505313 0.468932 0.673060
0.253747 0.237355 0.698411
0.233720 0.932866 0.502867
0.556189 0.894060 0.427736
0.384779 0.940150 0.521112
0.073118 0.597394 0.467944
0.088624 0.298142 0.386999
0.608357 0.369823 0.373933
0.239893 0.913137 0.559087
0.462399 0.472573 0.078248
0.155359 0.862454 0.558391
0.184690 0.313947 0.143365
0.061173 0.645437 0.388504
0.139040 0.600046 0.646243
0.368187 0.566836 0.036780
0.167668 0.575038 0.099061
0.612174 0.536826 0.250646
0.577637 0.533203 0.177217
0.154556 0.524024 0.135703
0.388373 0.970747 0.425569
0.066503 0.483176 0.402743
0.509029 0.212500 0.641063
0.400082 0.470206 0.677825
0.420684 0.959559 0.445327
0.586889 0.814646 0.265279
0.444930 0.306847 0.111395
0.250850 0.720561 0.714878
0.509383 0.839783 0.597433
0.512549 0.900867 0.252507
0.130039 0.532815 0.645152
0.522958 0.581470 0.089486
0.337230 0.436562 0.060788
0.592575 0.685677 0.182745
0.436331 0.351976 0.100251
0.199286 0.436116 0.659628
0.380018 0.967766 0.442276
0.461914 0.518307 0.731178
0.510385 0.410253 0.676662
0.147922 0.512840 0.150460
0.540912 0.715407 0.108745
0.356970 0.398250 0.795763
0.479491 0.102957 0.602441
0.492919 0.172111 0.644292
0.608132 0.549270 0.480973
0.386990 0.871570 0.643257
0.386269 0.156400 0.717129
0.544640 0.227391 0.575491
0.324877 0.832223 0.069301
0.552056 0.158585 0.424042
0.523670 0.416691 0.665789
0.206905 0.692822 0.703906
0.616190 0.722007 0.358793
0.117542 0.364986 0.244660
0.216059 0.863939 0.606616
0.476152 0.924970 0.501738
0.559317 0.387659 0.611752
0.147256 0.762767 0.599939
0.634224 0.411786 0.303388
0.519394 0.344422 0.665392
0.181735 0.292234 0.148868
0.120060 0.185683 0.452026
0.548476 0.161888 0.449559
0.466991 0.852608 0.119587
0.070285 0.410734 0.424090
0.109696 0.683390 0.161859
0.550710 0.387468 0.177085
0.420621 0.473452 0.601136
0.239221 0.482491 0.689057
0.347542 0.839325 0.671701
0.054099 0.531918 0.373360
0.517724 0.137820 0.496648
0.199467 0.851055 0.130644
0.550771 0.221067 0.548639
0.070440 0.533988 0.352114
0.310249 0.683342 0.026621
0.521464 0.887911 0.241248
0.082949 0.394233 0.509097
0.511622 0.890263 0.225991
0.612151 0.557787 0.462034
0.123158 0.748265 0.572127
0.088970 0.668336 0.516341
0.575068 0.534398 0.576632
0.362547 0.327791 0.759357
0.625139 0.590273 0.390865
0.441755 0.927197 0.523685
0.469062 0.899533 0.187684
0.120171 0.235603 0.551966
0.097030 0.299018 0.484353
0.442871 0.657319 0.044647
0.633568 0.471276 0.281805
0.499264 0.768811 0.653790
0.366094 0.945123 0.515269
0.106878 0.204662 0.402904
0.443739 0.627578 0.047317
0.584133 0.683875 0.166857
0.447646 0.085143 0.618478
0.230232 0.622492 0.740122
0.423167 0.953110 0.283601
0.473654 0.780755 0.080247
0.146201 0.418364 0.181719
0.557943 0.878001 0.465845
0.562211 0.207485 0.488554
0.401349 0.488911 0.679171
0.262036 0.117191 0.695578
0.122194 0.342499 0.238576
0.158272 0.282355 0.652077
0.575221 0.225556 0.269125
0.067392 0.702556 0.294695
0.113906 0.651559 0.161989
0.177297 0.737415 0.650586
0.281089 0.456286 0.068772
0.201715 0.867350 0.590415
0.185772 0.367422 0.137842
0.102221 0.373855 0.273417
0.299658 0.488211 0.059452
0.159578 0.798628 0.600810
0.160938 0.734249 0.631329
0.065584 0.717325 0.408395
0.135767 0.899518 0.453560
0.508408 0.643831 0.694999
0.085152 0.807702 0.288084
0.407911 0.089334 0.682219
0.127690 0.896213 0.433586
0.365911 0.919284 0.168607
0.579611 0.853156 0.317565
0.164609 0.918188 0.302764
0.570799 0.237316 0.231968
0.490796 0.284689 0.683642
0.604180 0.352519 0.376230
0.623251 0.569827 0.403858
0.462110 0.688891 0.054828
0.448681 0.434416 0.673159
0.483442 0.298113 0.131299
0.281461 0.721829 0.730546
0.236751 0.783771 0.069010
0.248578 0.771170 0.060436
0.621820 0.667393 0.361100
0.505110 0.629985 0.073560
0.608013 0.422405 0.297323
0.531920 0.455769 0.134333
0.184884 0.902495 0.227382
0.046449 0.406689 0.316325
0.095811 0.819658 0.236825
0.315464 0.052922 0.540619
0.500367 0.829614 0.124711
0.338994 0.811739 0.691122
0.519907 0.312638 0.652819
0.109933 0.307193 0.274883
0.278099 0.781075 0.054027
0.456172 0.512911 0.681203
0.458921 0.514651 0.066964
0.555996 0.228326 0.532867
0.208278 0.091191 0.603154
0.197660 0.512856 0.664912
0.161434 0.574093 0.696887
0.460750 0.621165 0.053685
0.593109 0.596872 0.198696
0.104432 0.306089 0.303380
0.390179 0.076274 0.678776
0.192694 0.623166 0.717218
0.175544 0.120080 0.604150
0.062033 0.628423 0.349250
0.605166 0.471007 0.494045
0.472037 0.548023 0.065944
0.530895 0.643150 0.656484
0.218184 0.471453 0.592266
0.333448 0.716742 0.029655
0.431310 0.179479 0.686652
0.137129 0.870411 0.234165
0.497656 0.155272 0.631966
0.171742 0.607813 0.087980
0.157791 0.888852 0.240890
0.329796 0.902048 0.612727
0.561957 0.554510 0.612869
0.115481 0.231714 0.525792
0.407252 0.423635 0.073579
0.093186 0.827743 0.278171
0.378455 0.852577 0.658291
0.483332 0.485008 0.619919
0.506718 0.455728 0.109527
0.562782 0.680482 0.127934
0.134506 0.165588 0.489318
0.593088 0.441671 0.234222
0.375509 0.912057 0.593044
0.125026 0.686956 0.129404
0.260574 0.328975 0.098401
0.268736 0.770076 0.705190
0.565103 0.718311 0.578493
0.313856 0.475372 0.759124
0.574002 0.705518 0.147717
0.451489 0.091360 0.539889
0.267857 0.838429 0.087214
0.568994 0.224294 0.483036
0.358193 0.499203 0.046336
0.267527 0.498424 0.662668
0.067949 0.652905 0.449326
0.153188 0.486979 0.151654
0.635690 0.450182 0.293235
0.099204 0.486326 0.259696
0.398040 0.956747 0.472798
0.380666 0.680728 0.027177
0.093230 0.805823 0.484442
0.090682 0.386982 0.526831
0.167413 0.666099 0.084613
0.265735 0.705304 0.040852
0.158364 0.136625 0.492040
0.602362 0.340786 0.395124
0.300572 0.889069 0.624768
0.526748 0.459093 0.652421
0.254964 0.356518 0.097687
0.233198 0.161622 0.687233
0.572252 0.295051 0.225733
0.224565 0.673275 0.726999
0.310982 0.647957 0.759403
0.296491 0.349536 0.082410
0.359754 0.669655 0.756323
0.328647 0.925080 0.179177
0.487779 0.646728 0.064143
0.444144 0.515248 0.731599
0.448682 0.203933 0.686334
0.533828 0.711594 0.639551
0.298742 0.972354 0.418636
0.433074 0.320512 0.104158
0.362902 0.279211 0.759280
0.140555 0.216860 0.605919
0.581780 0.217520 0.349299
0.363097 0.573231 0.776527
0.366526 0.973012 0.365727
0.385052 0.916138 0.164877
0.523598 0.152772 0.586454
0.142930 0.916425 0.391117
0.286122 0.931731 0.544084
0.072481 0.743970 0.273684
0.437525 0.962139 0.371323
0.586700 0.410473 0.547140
0.198085 0.509529 0.612642
0.259037 0.884470 0.133468
0.186161 0.251554 0.156201
0.144648 0.482883 0.167120
0.268641 0.889699 0.611221
0.547401 0.731964 0.117733
0.384102 0.357886 0.081201
0.121331 0.493176 0.617256
0.488654 0.695350 0.066922
0.148172 0.348816 0.651380
0.430705 0.755498 0.053150
0.275704 0.106970 0.702409
0.078517 0.789493 0.289773
0.328491 0.829654 0.679372
0.542596 0.748817 0.610360
0.490377 0.942173 0.408840
0.330965 0.300292 0.767953
0.418749 0.943353 0.497936
0.386190 0.060565 0.531062
0.355512 0.949156 0.237154
0.452938 0.772060 0.691506
0.198261 0.359387 0.126909
0.439357 0.956322 0.320039
0.257432 0.492094 0.604738
0.638331 0.503075 0.359999
0.589894 0.394692 0.527835
0.028038 0.475713 0.299949
0.063342 0.555212 0.353073
0.385523 0.318266 0.085799
0.513496 0.899140 0.517636
0.425648 0.958653 0.307169
0.407799 0.474344 0.061222
0.347583 0.317724 0.769308
0.235719 0.851407 0.108703
0.558086 0.214916 0.513688
0.206452 0.394961 0.116112
0.508607 0.909094 0.268729
0.265608 0.766972 0.052805
0.525764 0.871411 0.207989
0.174326 0.743442 0.090418
0.559299 0.812996 0.185775
0.570926 0.576074 0.151720
0.171917 0.317395 0.158092
0.575961 0.209981 0.306597
0.579815 0.226461 0.436741
0.532019 0.596213 0.096218
0.247374 0.867287 0.115625
0.249565 0.680575 0.737545
0.304782 0.777458 0.048290
0.567452 0.882904 0.382902
0.128685 0.360726 0.618605
0.613937 0.462970 0.435144
0.561410 0.826988 0.547481
0.340906 0.855803 0.658910
0.372087 0.840993 0.076128
0.458640 0.640126 0.050249
0.196303 0.379909 0.127628
0.170768 0.655641 0.677133
0.073548 0.556088 0.486459
0.182711 0.466508 0.678049
0.447258 0.295768 0.707163
0.488738 0.266436 0.681613
0.177244 0.442626 0.679320
0.148548 0.890120 0.504763
0.108042 0.331723 0.271496
0.383044 0.208325 0.726757
0.504080 0.407873 0.123937
0.613705 0.701468 0.316184
0.100443 0.226153 0.348998
0.439339 0.766189 0.701604
0.264476 0.944230 0.496903
0.186094 0.366814 0.688163
0.262177 0.669230 0.744067
0.596861 0.378095 0.489512
0.091422 0.554690 0.542533
0.581816 0.385335 0.548229
0.321727 0.918435 0.583125
0.223152 0.858101 0.121411
0.089882 0.819063 0.466018
0.202538 0.466809 0.100948
0.604662 0.330058 0.360711
0.110091 0.740104 0.548921
0.551232 0.256355 0.562252
0.576163 0.417891 0.208378
0.063063 0.674232 0.327862
0.266488 0.068059 0.566213
0.102729 0.307511 0.523121
0.207760 0.505242 0.718528
0.543169 0.404392 0.157788
0.394089 0.759580 0.043395
0.394660 0.692066 0.029812
0.326687 0.403308 0.067430
0.257661 0.860691 0.639221
0.463055 0.096520 0.521655
0.598700 0.810192 0.364160
0.598971 0.367883 0.459103
0.090809 0.602563 0.235370
0.170520 0.683585 0.080786
0.591388 0.835384 0.394524
0.222261 0.460504 0.688326
0.446297 0.385220 0.096760
0.598039 0.774803 0.251612
0.456624 0.173712 0.675624
0.064912 0.625579 0.324010
0.333141 0.948877 0.234822
0.339488 0.974535 0.391223
0.311956 0.037309 0.509081
0.294672 0.070698 0.680871
0.030406 0.570099 0.328834
0.564536 0.293898 0.544000
0.627198 0.589466 0.320866
0.131877 0.400998 0.631228
0.153815 0.249883 0.185444
0.481386 0.947264 0.375584
0.529086 0.593315 0.671753
0.150924 0.249647 0.633626
0.495299 0.651396 0.707806
0.166600 0.853271 0.577339
0.072953 0.648070 0.467620
0.620177 0.468304 0.407377
0.602165 0.597761 0.220257
0.145868 0.768964 0.120237
0.377019 0.934703 0.536328
0.080438 0.585827 0.278463
0.113872 0.607862 0.172232
0.062910 0.646486 0.336719
0.615027 0.595992 0.257293
0.519238 0.797758 0.120630
0.524180 0.782470 0.624570
0.286315 0.363673 0.766351
0.513025 0.929135 0.365531
0.180017 0.883712 0.555591
0.418189 0.867334 0.110153
0.390589 0.954054 0.263686
0.571924 0.749635 0.558260
0.414794 0.481159 0.691300
0.340165 0.937543 0.540780
0.139541 0.344310 0.204627
0.204806 0.633693 0.725456
0.673326 0.514424 0.278819
0.621752 0.448333 0.361197
0.436588 0.609256 0.047722
0.562472 0.357427 0.196229
0.119396 0.263521 0.561259
0.604525 0.783755 0.365724
0.396574 0.912009 0.584426
0.109313 0.216174 0.480979
0.270283 0.480554 0.615939
0.596110 0.413100 0.393439
0.061962 0.665009 0.343212
0.257544 0.072271 0.549347
0.412913 0.824025 0.075259
0.169521 0.377183 0.680055
0.143827 0.557634 0.138948
0.234388 0.398162 0.712649
0.523537 0.921587 0.432161
0.194020 0.555247 0.735603
0.525923 0.678008 0.088353
0.389565 0.488574 0.643728
0.374113 0.381421 0.076966
