0.103957 0.348659 0.239356
0.187502 0.059838 0.053194
0.442455 0.365178 0.835356
0.056525 0.734972 0.136751
0.925749 0.366551 0.910919
0.567692 0.095575 0.099390
0.340382 0.227830 0.866830
0.079968 0.228232 0.197239
0.247486 0.436740 0.865682
0.943528 0.429796 0.094972
0.796040 0.337053 0.182760
0.582406 0.089452 0.835396
0.912715 0.700322 0.169234
0.629063 0.028511 0.835409
0.871732 0.783947 0.061214
0.836164 0.295377 0.204742
0.947264 0.062573 0.123272
0.073195 0.256547 0.192318
0.154233 0.725566 0.788707
0.830042 0.047399 0.025000
0.647239 0.369076 0.835414
0.932205 0.334757 0.169616
0.697739 0.199671 0.866933
0.798518 0.025158 0.833169
0.666485 0.198206 0.866924
0.135482 0.149727 0.611933
0.455301 0.263360 0.099358
0.800816 0.681901 0.912311
0.887483 0.816319 0.818445
0.135504 0.236608 0.706784
0.138938 0.767534 0.792606
0.841304 0.238715 0.276742
0.889519 0.350897 0.201239
0.914926 0.636537 0.918782
0.135468 0.339053 0.308258
0.135426 0.052457 0.246645
0.026296 0.285576 0.118860
0.879833 0.201050 0.940744
0.147211 0.869592 0.127833
0.135517 0.364617 0.683232
0.104012 0.363046 0.678109
0.821173 0.043532 0.937021
0.944779 0.332380 0.834825
0.535567 0.414572 0.099381
0.149014 0.597063 0.940514
0.204291 0.393202 0.085016
0.046342 0.025158 0.908576
0.921824 0.569208 0.913770
0.246811 0.163881 0.835299
0.056948 0.290958 0.916516
0.579425 0.123899 0.835395
0.782029 0.354901 0.057162
0.948344 0.139573 0.109792
0.070621 0.773817 0.821899
0.673613 0.026477 0.130925
0.569575 0.027389 0.130895
0.624460 0.307722 0.866912
0.871498 0.101051 0.515115
0.861224 0.954383 0.854448
0.380119 0.260328 0.099336
0.471486 0.435469 0.864250
0.571461 0.362328 0.130895
0.152253 0.867674 0.851047
0.732599 0.440402 0.835439
0.103980 0.115984 0.663094
0.939370 0.635262 0.147566
0.135502 0.299025 0.632326
0.845377 0.025078 0.662518
0.055248 0.025158 0.876410
0.158354 0.090519 0.032017
0.923604 0.506526 0.912477
0.135465 0.080267 0.539998
0.920951 0.160561 0.178403
0.054173 0.027413 0.787246
0.841304 0.306705 0.376473
0.847042 0.419474 0.594120
0.547936 0.174551 0.130889
0.841304 0.054231 0.696951
0.631495 0.435476 0.099844
0.031766 0.617812 0.830051
0.141329 0.740021 0.916866
0.343486 0.438101 0.127446
0.374849 0.170166 0.130839
0.841304 0.128744 0.380829
0.294512 0.051167 0.866817
0.537260 0.224480 0.835383
0.054709 0.420500 0.786856
0.924738 0.701396 0.076849
0.087822 0.290697 0.762798
0.343493 0.439108 0.101560
0.912493 0.313057 0.045194
0.872793 0.075992 0.573960
0.030321 0.028908 0.131248
0.196746 0.188403 0.903951
0.714523 0.360056 0.130936
0.762951 0.608313 0.120873
0.141603 0.169909 0.204742
0.905616 0.074979 0.776199
0.897760 0.643671 0.770492
0.561406 0.235741 0.866894
0.770960 0.175702 0.145523
0.768716 0.678136 0.114617
0.135509 0.285839 0.696239
0.066780 0.263587 0.923659
0.196421 0.317307 0.060792
0.084961 0.027397 0.028876
0.682449 0.239727 0.866929
0.591675 0.299611 0.866903
0.901949 0.025158 0.157704
0.525790 0.278246 0.130882
0.890042 0.423810 0.764884
0.097542 0.709799 0.189352
0.085536 0.572310 0.028458
0.193651 0.182594 0.057661
0.793284 0.741286 0.096397
0.774319 0.148286 0.809883
0.822330 0.837602 0.830541
0.872793 0.214275 0.232768
0.841631 0.025078 0.370910
0.263327 0.344150 0.835304
0.079543 0.144884 0.032812
0.103953 0.293928 0.259128
0.839370 0.793276 0.165657
0.479583 0.108540 0.130869
0.135501 0.322187 0.603737
0.358059 0.341535 0.099330
0.904204 0.025158 0.812774
0.169473 0.486580 0.189648
0.867779 0.856486 0.818073
0.064406 0.543244 0.185933
0.936730 0.192280 0.891693
0.771211 0.480966 0.146296
0.450784 0.158673 0.099357
0.337614 0.132532 0.130828
0.770159 0.549120 0.879057
0.816250 0.655079 0.116512
0.934220 0.192801 0.802327
0.934043 0.227237 0.065781
0.864283 0.342059 0.025000
0.590747 0.151453 0.099397
0.925414 0.068153 0.911162
0.454062 0.099267 0.130862
0.090517 0.365619 0.204742
0.201546 0.308388 0.812566
0.108783 0.025064 0.341643
0.828224 0.543558 0.025000
0.554619 0.026018 0.099386
0.026894 0.144116 0.856701
0.159515 0.086283 0.196882
0.025075 0.073067 0.850643
0.103933 0.122067 0.268194
0.948466 0.408036 0.110167
0.243649 0.273980 0.835298
0.342958 0.270558 0.866831
0.830355 0.750600 0.909924
0.135456 0.112188 0.437858
0.135431 0.070728 0.268365
0.943109 0.240203 0.093681
0.778650 0.321028 0.060554
0.841304 0.221877 0.734770
0.838181 0.575189 0.025000
0.871498 0.152264 0.531945
0.048012 0.568535 0.055721
0.867252 0.830344 0.810246
0.933830 0.677665 0.146479
0.204307 0.187360 0.144680
0.116627 0.492552 0.025000
0.946018 0.297943 0.838638
0.781713 0.160676 0.057392
0.103982 0.244882 0.552812
0.470196 0.243293 0.835363
0.810086 0.265805 0.036778
0.037389 0.250846 0.812742
0.321632 0.158610 0.130824
0.208453 0.532517 0.867920
0.769466 0.287491 0.088818
0.847720 0.604767 0.025000
0.171343 0.490556 0.924290
0.866760 0.541366 0.940744
0.872793 0.372744 0.475642
0.135495 0.136701 0.730366
0.887107 0.835780 0.140816
0.770327 0.079652 0.086169
0.180483 0.646235 0.181648
0.583304 0.052222 0.835396
0.695338 0.053401 0.866932
0.285927 0.123112 0.099309
0.551822 0.282075 0.130890
0.847416 0.467013 0.761001
0.124742 0.957926 0.848054
0.770978 0.628216 0.084165
0.104014 0.393200 0.666522
0.179910 0.080517 0.182065
0.087783 0.107182 0.202917
0.265681 0.055072 0.866808
0.908624 0.759056 0.886087
0.734431 0.285851 0.099438
0.032502 0.264920 0.137961
0.815242 0.826609 0.859382
0.617914 0.412552 0.099405
0.872793 0.309656 0.320033
0.786708 0.702267 0.148568
0.204238 0.168958 0.880892
0.374553 0.366845 0.866840
0.316460 0.285747 0.130822
0.642992 0.181003 0.099412
0.375829 0.339616 0.866840
0.872793 0.356877 0.403040
0.146120 0.176434 0.025000
0.890071 0.751756 0.903832
0.215563 0.164168 0.130263
0.794272 0.197932 0.917477
0.841557 0.393079 0.458383
0.804371 0.131204 0.040930
0.103982 0.171337 0.627169
0.152207 0.736599 0.055296
0.204228 0.199081 0.880923
0.351784 0.109159 0.130832
0.403690 0.127165 0.835344
0.887772 0.691608 0.190381
0.581555 0.282727 0.130898
0.845881 0.659194 0.939566
0.833721 0.789383 0.898906
0.841304 0.262483 0.523758
0.407487 0.432108 0.866415
0.562752 0.206200 0.835390
0.741875 0.025152 0.130354
0.103927 0.051579 0.293178
0.914579 0.673490 0.177195
0.135454 0.048037 0.487438
0.204385 0.555222 0.880439
0.146724 0.387331 0.940744
0.769053 0.637880 0.826090
0.172560 0.212412 0.923407
0.772533 0.175614 0.886366
0.528557 0.301065 0.866884
0.099616 0.025158 0.936501
0.872793 0.239667 0.254273
0.706739 0.212328 0.099430
0.422822 0.358734 0.099349
0.203516 0.495286 0.818630
0.690814 0.433719 0.130930
0.941641 0.361099 0.825166
0.103999 0.282298 0.654020
0.934072 0.680702 0.878976
0.671764 0.098979 0.130925
0.712701 0.247903 0.866938
0.039451 0.432860 0.806399
0.856707 0.517305 0.940744
0.768635 0.026795 0.874367
0.103969 0.411125 0.277407
0.851893 0.908492 0.133549
0.135493 0.307299 0.543895
0.920670 0.217335 0.178608
0.128641 0.694426 0.772074
0.872793 0.343701 0.245279
0.311486 0.437465 0.864686
0.769966 0.384577 0.142463
0.556543 0.376526 0.866893
0.767735 0.314157 0.094145
0.135482 0.235988 0.524397
0.070082 0.025158 0.148885
0.872793 0.057662 0.338206
0.301327 0.211085 0.835315
0.834806 0.321197 0.204742
0.072043 0.809009 0.117222
0.060505 0.396610 0.183099
0.047401 0.104220 0.909579
0.103929 0.084340 0.275978
0.919158 0.679368 0.907828
0.786323 0.420917 0.911701
0.723372 0.192306 0.099435
0.632057 0.366682 0.099409
0.471495 0.431995 0.838042
0.055901 0.745443 0.104430
0.033951 0.414089 0.823324
0.184515 0.581893 0.787025
0.103969 0.359902 0.321793
0.652653 0.224232 0.835416
0.135274 0.422815 0.338868
0.857502 0.648124 0.761001
0.109620 0.025158 0.178984
0.090095 0.409009 0.761147
0.167488 0.397109 0.927091
0.104004 0.307350 0.670673
0.103959 0.299071 0.304203
0.872793 0.310379 0.362396
0.850375 0.632523 0.940744
0.103944 0.243018 0.238969
0.174899 0.025158 0.155414
0.872793 0.144582 0.625751
0.518768 0.361978 0.835377
0.287273 0.369159 0.866815
0.147178 0.830456 0.084224
0.539914 0.058718 0.130887
0.129619 0.025049 0.233444
0.206942 0.414401 0.829175
0.118896 0.478826 0.940744
0.944901 0.283062 0.866547
0.138371 0.900743 0.103011
0.920804 0.629296 0.178510
0.900403 0.654999 0.904405
0.135479 0.153285 0.585811
0.456323 0.072783 0.130862
0.104001 0.416561 0.531910
0.915904 0.486499 0.783674
0.211898 0.159456 0.857319
0.815257 0.329152 0.769022
0.103971 0.356758 0.349476
0.150196 0.654999 0.816561
0.086902 0.550923 0.202277
0.462976 0.062561 0.866865
0.269563 0.329002 0.130808
0.075474 0.171696 0.035768
0.606218 0.078481 0.866907
0.054216 0.230342 0.914531
0.774441 0.056546 0.073506
0.144575 0.730744 0.182024
0.841304 0.085399 0.422541
0.146199 0.654999 0.074769
0.872793 0.277766 0.728132
0.832556 0.137805 0.761001
0.829616 0.182094 0.025000
0.083829 0.727640 0.055496
0.198538 0.343652 0.067307
0.103978 0.225551 0.534620
0.841304 0.188534 0.663258
0.695501 0.413169 0.099742
0.798186 0.105680 0.184319
0.820798 0.027291 0.200747
0.867130 0.411529 0.690072
0.660624 0.125905 0.130921
0.945419 0.382334 0.128951
0.103959 0.166231 0.440382
0.883751 0.457022 0.761001
0.177968 0.684125 0.173946
0.890640 0.843028 0.836630
0.841304 0.126242 0.623596
0.832265 0.055930 0.761001
0.943004 0.082684 0.872384
0.867281 0.438150 0.242071
0.086694 0.337066 0.202126
0.471497 0.402489 0.860124
0.841304 0.153886 0.739016
0.124600 0.922874 0.100232
0.827971 0.862376 0.835694
0.090324 0.603342 0.940744
0.776728 0.677647 0.140230
0.888954 0.055366 0.028092
0.929579 0.025158 0.904037
0.103960 0.244943 0.366161
0.031822 0.641557 0.093874
0.319673 0.269318 0.099319
0.786603 0.296667 0.175904
0.377170 0.076249 0.099335
0.203421 0.220221 0.818339
0.892160 0.759138 0.163750
0.872793 0.299827 0.666375
0.925970 0.698574 0.814075
0.130719 0.726036 0.044950
0.207247 0.574311 0.830114
0.054352 0.158709 0.178628
0.112497 0.681771 0.933225
0.919446 0.288340 0.050246
0.086720 0.575774 0.938146
0.027492 0.116923 0.858543
0.426268 0.149304 0.099349
0.889444 0.197661 0.201294
0.115327 0.564828 0.025000
0.406639 0.256637 0.099344
0.089036 0.539910 0.025915
0.025051 0.453258 0.851029
0.792535 0.415626 0.785530
0.177068 0.709499 0.165792
0.872793 0.150439 0.239008
0.204883 0.056852 0.878906
0.522092 0.025983 0.099377
0.135475 0.128789 0.573647
0.762085 0.304863 0.118207
0.841304 0.233039 0.593080
0.178654 0.752015 0.874908
0.119669 0.819833 0.894451
0.864176 0.753606 0.913051
0.103996 0.337417 0.570510
0.093099 0.654999 0.128887
0.842250 0.333955 0.940744
0.110603 0.745337 0.786372
0.799238 0.684827 0.055595
0.780261 0.506634 0.907297
0.087001 0.604412 0.027393
0.135526 0.397609 0.727897
0.841304 0.196482 0.422662
0.103964 0.025842 0.618295
0.842750 0.441079 0.689026
0.633962 0.117380 0.130914
0.815510 0.643362 0.032837
0.939836 0.135335 0.083611
0.054117 0.485358 0.787286
0.353419 0.285005 0.835330
0.604507 0.441081 0.860930
0.181352 0.257435 0.048726
0.514218 0.049662 0.866880
0.771253 0.394125 0.819321
0.236554 0.385503 0.099295
0.135475 0.248339 0.455073
0.055861 0.686269 0.168288
0.143750 0.621265 0.761001
0.799842 0.537897 0.044220
0.631683 0.299646 0.835410
0.428306 0.328774 0.866856
0.722972 0.309393 0.099435
0.093867 0.059518 0.204742
0.031923 0.300495 0.093566
0.103964 0.251559 0.395321
0.536576 0.325548 0.835383
0.949736 0.483384 0.851667
0.103998 0.362977 0.563376
0.073029 0.381739 0.928200
0.135499 0.257326 0.644977
0.135474 0.329674 0.364976
0.134032 0.438940 0.370866
0.855497 0.082148 0.527334
0.811256 0.070560 0.771929
0.833988 0.089533 0.761001
0.672861 0.362778 0.835422
0.818913 0.812582 0.085650
0.611727 0.051378 0.835404
0.103982 0.107642 0.689084
0.103995 0.436124 0.466992
0.921329 0.266088 0.787615
0.364846 0.237920 0.130836
0.771573 0.451762 0.147408
0.135473 0.344964 0.342598
0.103943 0.169644 0.304135
0.771495 0.297586 0.818576
0.872793 0.116791 0.247534
0.841304 0.145436 0.232443
0.872793 0.052972 0.308069
0.856870 0.075710 0.761001
0.086507 0.858226 0.117007
0.841304 0.317001 0.569743
0.105760 0.393020 0.255837
0.314305 0.237891 0.099317
0.322320 0.351610 0.099320
0.872793 0.052265 0.258284
0.114409 0.851607 0.885527
0.847283 0.076232 0.940744
0.883964 0.293221 0.398833
0.841304 0.328987 0.482437
0.503492 0.417368 0.864083
0.907329 0.748630 0.809366
0.205915 0.683369 0.848351
0.422782 0.259653 0.130853
0.948514 0.353159 0.110316
0.372989 0.336765 0.130838
0.921123 0.027616 0.178278
0.103959 0.181761 0.419684
0.092516 0.287436 0.940744
0.664444 0.025315 0.835420
0.936550 0.477106 0.156247
0.128277 0.025158 0.787421
0.114312 0.730035 0.183669
0.054304 0.112081 0.787151
0.615544 0.286595 0.099404
0.042990 0.389822 0.795505
0.088930 0.109694 0.939752
0.888542 0.527375 0.937951
0.071632 0.063668 0.038560
0.145573 0.113308 0.025000
0.046165 0.718560 0.109962
0.170555 0.717709 0.062069
0.917583 0.204983 0.048893
0.432774 0.176319 0.866857
0.386240 0.393015 0.128925
0.887515 0.445460 0.938697
0.841304 0.067390 0.672928
0.771398 0.585387 0.818874
0.872793 0.231826 0.634974
0.025590 0.555449 0.113054
0.790246 0.025158 0.055830
0.205511 0.547581 0.088768
0.353188 0.090475 0.835330
0.695701 0.082527 0.130931
0.498740 0.414870 0.099370
0.830928 0.726753 0.182617
0.812808 0.771232 0.890013
0.949101 0.587008 0.112122
0.343604 0.431423 0.835327
0.204900 0.316124 0.878856
0.059559 0.751883 0.836009
0.794301 0.636556 0.917498
0.135453 0.266805 0.258287
0.773767 0.228021 0.154161
0.869940 0.923923 0.119303
0.872793 0.378863 0.537879
0.777887 0.655079 0.849486
0.832903 0.135036 0.204742
0.172676 0.691986 0.790449
0.948647 0.075946 0.846728
0.349182 0.128816 0.099327
0.872793 0.354646 0.523335
0.796789 0.543990 0.919305
0.112627 0.853445 0.816735
0.669557 0.066174 0.130924
0.784283 0.085929 0.174219
0.311486 0.391822 0.099317
0.103988 0.301339 0.540351
0.443927 0.200468 0.866860
0.075008 0.237207 0.929637
0.052742 0.025158 0.840130
0.790343 0.605014 0.787123
0.054726 0.208042 0.178900
0.086797 0.334322 0.763543
0.194242 0.052018 0.794092
0.872793 0.347249 0.378523
0.872519 0.025158 0.785617
0.842697 0.440888 0.370120
0.769830 0.175271 0.087699
0.025107 0.064616 0.114543
0.872793 0.289304 0.697707
0.203604 0.382930 0.818900
0.133323 0.025055 0.289157
0.669858 0.104684 0.835421
0.144218 0.225517 0.940744
0.103952 0.079659 0.467070
0.175267 0.191173 0.185438
0.107052 0.418906 0.370872
0.598347 0.189537 0.866905
0.798980 0.272300 0.184896
0.103984 0.300738 0.509520
0.115157 0.600076 0.204742
0.107574 0.439201 0.274870
0.206479 0.630695 0.091749
0.443130 0.393031 0.123842
0.103966 0.433028 0.235009
0.871498 0.053854 0.535844
0.093648 0.831298 0.820581
0.197213 0.542131 0.063231
0.280130 0.440987 0.105957
0.702712 0.264990 0.130933
0.628290 0.135667 0.835409
0.103995 0.170881 0.728987
0.695486 0.439262 0.862039
0.047770 0.726418 0.849151
0.203755 0.309895 0.146376
0.947023 0.557317 0.105727
0.084142 0.654999 0.164804
0.907909 0.692993 0.790473
0.033952 0.157023 0.878425
0.814679 0.826895 0.121386
0.841304 0.109601 0.411290
0.084761 0.025158 0.058857
0.841304 0.275261 0.552039
0.346357 0.136169 0.866832
0.103951 0.146793 0.390398
0.660270 0.223804 0.866922
0.871498 0.025740 0.462853
0.165055 0.064277 0.928859
0.841304 0.120083 0.665891
0.315056 0.025029 0.130785
0.087656 0.025158 0.090306
0.241501 0.078760 0.835297
0.775522 0.203984 0.895565
0.204099 0.600715 0.145320
0.211835 0.481841 0.844234
0.197169 0.369448 0.063094
0.841304 0.306125 0.593375
0.793878 0.233738 0.048553
0.554208 0.228815 0.099386
0.035054 0.454903 0.819931
0.819262 0.482373 0.030111
0.855497 0.173469 0.530347
0.135435 0.144285 0.229221
0.872793 0.353885 0.221455
0.103927 0.094570 0.251553
0.574855 0.330534 0.099392
0.771627 0.682250 0.856347
0.103959 0.049381 0.557788
0.843043 0.189270 0.561240
0.804035 0.348918 0.041174
0.106562 0.025089 0.541082
0.158401 0.578605 0.032050
0.837626 0.145597 0.025000
0.152815 0.025158 0.803061
0.888979 0.844992 0.868443
0.447333 0.035479 0.130860
0.779087 0.620013 0.059300
0.934346 0.677215 0.084443
0.919223 0.486044 0.179659
0.810833 0.549760 0.772236
0.343535 0.367277 0.835327
0.115871 0.536444 0.204742
0.195088 0.695111 0.090682
0.135443 0.160140 0.280244
0.872793 0.207895 0.658604
0.871498 0.126044 0.526318
0.940681 0.584296 0.086210
0.554199 0.135662 0.866892
0.134362 0.025102 0.678274
0.200874 0.117959 0.810499
0.771435 0.255568 0.146985
0.066086 0.693126 0.056406
0.169780 0.375750 0.040318
0.841304 0.258917 0.462237
0.135466 0.028100 0.603977
0.855497 0.088895 0.496250
0.408394 0.441024 0.130308
0.611702 0.279803 0.130907
0.920175 0.140896 0.050775
0.138516 0.654999 0.204009
0.873789 0.025158 0.154503
0.858176 0.442959 0.761001
0.628809 0.194844 0.130912
0.883975 0.259751 0.530107
0.871966 0.441079 0.370030
0.831134 0.822591 0.149497
0.778988 0.099667 0.906231
0.191382 0.512940 0.056013
0.890086 0.655079 0.871124
0.769970 0.339189 0.878477
0.356804 0.108792 0.866835
0.061865 0.074907 0.920088
0.563269 0.257465 0.130893
0.666142 0.156325 0.130923
0.841304 0.252807 0.614874
0.841492 0.559926 0.761001
0.036089 0.224660 0.080741
0.860986 0.050888 0.754072
0.269414 0.285176 0.866810
0.212790 0.618139 0.118571
0.296666 0.172577 0.835313
0.684025 0.074328 0.835425
0.250051 0.025010 0.127784
0.104015 0.337081 0.734840
0.058881 0.424380 0.181919
0.872793 0.232612 0.384080
0.368653 0.232836 0.866838
0.135455 0.025341 0.513984
0.247967 0.051575 0.835299
0.771048 0.143882 0.083950
0.247499 0.416608 0.840330
0.915456 0.234731 0.047347
0.194655 0.394069 0.794392
0.034053 0.176796 0.087008
0.841304 0.301060 0.622387
0.172606 0.025158 0.045526
0.909593 0.414371 0.779088
0.866651 0.617497 0.204742
0.135488 0.299811 0.509570
0.682034 0.025134 0.865650
0.271911 0.157790 0.835306
0.691742 0.025137 0.099604
0.842055 0.170219 0.761001
0.769174 0.132082 0.876027
0.103993 0.025056 0.268178
0.363187 0.078310 0.866837
0.778543 0.282881 0.796883
0.103941 0.206940 0.246470
0.135442 0.129811 0.305859
0.114975 0.654999 0.144593
0.087626 0.684996 0.037934
0.383007 0.147749 0.835338
0.135445 0.126521 0.334731
0.523139 0.028867 0.130882
0.819025 0.676093 0.038187
0.871498 0.092659 0.546738
0.295021 0.244551 0.835313
0.470249 0.025073 0.124122
0.908264 0.238414 0.778123
0.488155 0.051968 0.866873
0.103972 0.299458 0.411531
0.771784 0.025674 0.148057
0.883979 0.288216 0.530118
0.501121 0.200281 0.130875
0.264937 0.129956 0.835304
0.103965 0.102481 0.556888
0.930293 0.635895 0.794128
0.937481 0.428699 0.889383
0.372547 0.320140 0.099334
0.567497 0.400149 0.862215
0.866521 0.441079 0.469187
0.492878 0.056090 0.835370
0.049665 0.303157 0.054520
0.841304 0.364905 0.582874
0.820650 0.363481 0.936641
0.939837 0.052272 0.146131
0.103946 0.230112 0.268351
0.135482 0.025302 0.739846
0.135492 0.324703 0.523136
0.164237 0.359141 0.929453
0.920709 0.610063 0.787165
0.843508 0.025078 0.398143
0.538839 0.061408 0.866887
0.069398 0.555876 0.040183
0.785272 0.120474 0.054806
0.801670 0.765836 0.092900
0.196116 0.087282 0.059855
0.841304 0.369541 0.536724
0.862118 0.098697 0.940744
0.905515 0.450643 0.776126
0.173756 0.027725 0.779208
0.764256 0.179250 0.860891
0.534450 0.376016 0.099381
0.939462 0.169164 0.818460
0.050977 0.704802 0.147094
0.114015 0.119251 0.940744
0.090205 0.301990 0.204677
0.742334 0.072730 0.099441
0.097281 0.709799 0.040390
0.135478 0.334875 0.394619
0.141610 0.886055 0.866497
0.123195 0.242095 0.940744
0.941902 0.682078 0.112114
0.798815 0.179665 0.044966
0.841304 0.330969 0.671350
0.375492 0.440161 0.840933
0.872793 0.094491 0.643166
0.377964 0.102702 0.130840
0.115280 0.309007 0.761001
0.137557 0.766032 0.909561
0.865209 0.025158 0.077810
0.771091 0.417254 0.083817
0.135507 0.301495 0.670359
0.135508 0.330657 0.650346
0.523185 0.251700 0.130881
0.708597 0.088188 0.099431
0.745146 0.233516 0.130946
0.872793 0.096321 0.422510
0.871498 0.174092 0.559227
0.129881 0.025499 0.940744
0.941176 0.610790 0.823734
0.171837 0.527713 0.041813
0.921481 0.535389 0.914020
0.182450 0.762244 0.847819
0.040756 0.413946 0.163364
0.872793 0.170844 0.391607
0.666614 0.391451 0.835420
0.475591 0.288409 0.099364
0.904252 0.338943 0.039207
0.949627 0.327450 0.116000
0.038269 0.039727 0.155709
0.103985 0.134090 0.688227
0.841304 0.152153 0.392491
0.721865 0.157481 0.130939
0.863199 0.568845 0.025000
0.167286 0.096593 0.774507
0.191469 0.618254 0.056076
0.932301 0.025158 0.146369
0.135484 0.303161 0.475598
0.828209 0.115924 0.025000
0.066995 0.370180 0.187814
0.165845 0.754394 0.071382
0.428956 0.088286 0.130854
0.175445 0.760946 0.139681
0.395879 0.152666 0.130845
0.841304 0.366111 0.610078
0.031986 0.237748 0.136372
0.943399 0.213827 0.830577
0.558976 0.120967 0.099388
0.924572 0.177519 0.911774
0.451167 0.154956 0.866862
0.042286 0.672580 0.149632
0.288215 0.299469 0.130814
0.138993 0.025158 0.181677
0.174512 0.787372 0.855523
0.885902 0.165282 0.939869
0.771386 0.352115 0.146834
0.166584 0.803999 0.836935
0.557968 0.409445 0.835389
0.103918 0.029857 0.235108
0.842757 0.849304 0.081074
0.879019 0.025158 0.880975
0.846034 0.441079 0.431800
0.170219 0.266353 0.189105
0.100208 0.025158 0.781345
0.702803 0.240760 0.099429
0.590265 0.296453 0.099397
0.135498 0.364665 0.529862
0.841304 0.242016 0.708483
0.821724 0.812550 0.882148
0.103993 0.341316 0.542338
0.141098 0.200167 0.761001
0.937978 0.140769 0.813894
0.164906 0.606902 0.036777
0.436038 0.419354 0.866858
0.417154 0.441027 0.100203
0.026744 0.648443 0.856239
0.893233 0.582219 0.031201
0.789869 0.236244 0.178277
0.872793 0.202442 0.627879
0.474528 0.186616 0.099363
0.135471 0.392832 0.276699
0.881037 0.424468 0.025000
0.614336 0.049482 0.866909
0.931800 0.157657 0.795223
0.828718 0.505125 0.940744
0.231838 0.380972 0.835295
0.168013 0.388877 0.775035
0.866811 0.025078 0.608517
0.049788 0.638193 0.911313
0.157642 0.288085 0.198243
0.771330 0.213863 0.083082
0.866042 0.564429 0.204742
0.715800 0.358192 0.835435
0.103960 0.075609 0.542404
0.135465 0.061117 0.559837
0.205199 0.656266 0.086499
0.140285 0.450606 0.025000
0.247494 0.405662 0.864541
0.772727 0.433475 0.886962
0.467332 0.033235 0.835363
0.872793 0.246176 0.728922
0.079245 0.788901 0.149649
0.218310 0.415336 0.099290
0.859184 0.779496 0.905779
0.921585 0.175786 0.051800
0.890669 0.420668 0.200404
0.141203 0.682386 0.933053
0.944125 0.210951 0.868933
0.889830 0.499051 0.937015
0.067011 0.603571 0.923827
0.856532 0.167683 0.025000
0.054757 0.240404 0.178922
0.907344 0.655079 0.074684
0.136369 0.759763 0.054423
0.191380 0.394635 0.056011
0.204538 0.433444 0.085775
0.937940 0.278438 0.813777
0.040946 0.607497 0.899950
0.712104 0.290084 0.130936
0.103974 0.353721 0.375796
0.103999 0.207475 0.728210
0.673730 0.379894 0.866926
0.101794 0.574953 0.204742
0.320351 0.150356 0.099319
0.769066 0.056181 0.875694
0.785371 0.132052 0.790735
0.346441 0.441007 0.862197
0.025094 0.317820 0.851162
0.164903 0.275403 0.036775
0.185248 0.143111 0.051556
0.800327 0.134626 0.185874
0.344354 0.052912 0.099326
0.204457 0.257123 0.144217
0.320921 0.025030 0.100811
0.890182 0.265279 0.764986
0.841647 0.441079 0.621439
0.172707 0.171239 0.042444
0.135460 0.176981 0.402996
0.035599 0.164285 0.147492
0.103994 0.188568 0.707959
0.872793 0.419942 0.728947
0.464676 0.234722 0.099361
0.844996 0.929576 0.108367
0.940094 0.308478 0.881341
0.448709 0.361801 0.099356
0.204217 0.592991 0.880958
0.388993 0.344621 0.099339
0.035947 0.542305 0.884565
0.940967 0.563979 0.878654
0.103954 0.146715 0.419415
0.778901 0.253416 0.795782
0.134253 0.913064 0.126232
0.043820 0.538545 0.058766
0.050303 0.567744 0.911688
0.061320 0.655079 0.857697
0.834711 0.025158 0.923097
0.841304 0.332620 0.233540
0.543117 0.199630 0.099383
0.203270 0.025158 0.147428
0.841304 0.025081 0.694462
0.204374 0.370124 0.880475
0.599729 0.410089 0.835401
0.715239 0.265314 0.099433
0.071444 0.273187 0.774698
0.135117 0.755172 0.176609
0.306997 0.050405 0.835316
0.533365 0.025092 0.865310
0.949206 0.178146 0.117297
0.841304 0.208953 0.385927
0.063578 0.167128 0.921333
0.922207 0.509581 0.052252
0.872793 0.102267 0.279416
0.933944 0.501796 0.164266
0.886566 0.624993 0.939387
0.690354 0.275720 0.866931
0.104010 0.429979 0.596144
0.446985 0.161356 0.835357
0.933777 0.355113 0.800966
0.875284 0.654999 0.778781
0.871757 0.025078 0.254817
0.252014 0.081097 0.099299
0.135510 0.360882 0.631739
0.832047 0.245592 0.025000
0.890580 0.295343 0.765274
0.924987 0.036464 0.054272
0.826230 0.209261 0.940695
0.770473 0.232216 0.880023
0.627264 0.097671 0.866913
0.771127 0.106295 0.146036
0.799768 0.340200 0.921470
0.944998 0.188100 0.835498
0.033179 0.371645 0.876045
0.869106 0.559238 0.761001
0.925080 0.334873 0.054339
0.201007 0.104446 0.890837
0.104002 0.384686 0.578980
0.553049 0.352530 0.099386
0.135516 0.303267 0.737428
0.860539 0.025082 0.546366
0.773000 0.258289 0.887802
0.435848 0.087932 0.866858
0.772955 0.081192 0.887664
0.792434 0.431108 0.180140
0.841304 0.432487 0.472524
0.085837 0.684588 0.190650
0.197406 0.239410 0.799825
0.103983 0.077681 0.729264
0.093347 0.154348 0.940744
0.841304 0.062995 0.294022
0.198290 0.300042 0.899199
0.403867 0.327538 0.130847
0.915805 0.389950 0.918143
0.872793 0.041330 0.282449
0.771613 0.541619 0.818212
0.841304 0.048858 0.358254
0.839965 0.025158 0.069070
0.841304 0.107628 0.642267
0.812889 0.038355 0.770743
0.135469 0.317246 0.332893
0.883204 0.229262 0.761001
0.103968 0.378518 0.303561
0.605970 0.440817 0.099401
0.859949 0.058273 0.025000
0.148881 0.514789 0.940611
0.496372 0.258804 0.866875
0.159696 0.425215 0.932753
0.103958 0.145066 0.455188
0.119216 0.596926 0.940744
0.377623 0.260938 0.835337
0.081785 0.489166 0.934561
0.054121 0.501518 0.914462
0.849043 0.418846 0.761001
0.920827 0.096395 0.787251
0.786660 0.127541 0.911946
0.920588 0.606828 0.051076
0.103957 0.316083 0.275159
0.864372 0.441079 0.494957
0.871498 0.111244 0.487781
0.471876 0.268689 0.866868
0.110250 0.503605 0.940744
0.104503 0.025095 0.590441
0.442851 0.277995 0.866859
0.135504 0.350005 0.600688
0.841304 0.162818 0.670085
0.775047 0.616665 0.158102
0.939558 0.257845 0.882989
0.761320 0.487834 0.113891
0.135497 0.378985 0.506514
0.086246 0.480029 0.027942
0.687027 0.272663 0.835426
0.103946 0.146336 0.351740
0.103982 0.343522 0.453257
0.151051 0.315241 0.762712
0.771531 0.417794 0.147279
0.841304 0.274376 0.696607
0.924210 0.361574 0.053707
0.881844 0.320258 0.025000
0.048095 0.692749 0.817548
0.870157 0.854440 0.083089
0.203440 0.412589 0.147348
0.825093 0.619309 0.025874
0.426340 0.368461 0.866855
0.041974 0.051443 0.903114
0.915856 0.740174 0.144989
0.921602 0.599882 0.913931
0.134134 0.393016 0.250269
0.103992 0.311329 0.565153
0.135462 0.092272 0.509522
0.889345 0.418745 0.937368
0.232412 0.344154 0.835295
0.926495 0.518334 0.791369
0.031857 0.140251 0.135974
0.196603 0.422848 0.061351
0.859772 0.220865 0.204742
0.807704 0.132191 0.927236
0.204271 0.624758 0.880792
0.104016 0.382054 0.696561
0.723764 0.082630 0.130940
0.273899 0.097738 0.099306
0.841304 0.135531 0.415301
0.173230 0.121853 0.778825
0.841304 0.296613 0.234139
0.799874 0.317808 0.044197
0.148243 0.655079 0.858638
0.173981 0.397911 0.186372
0.888087 0.718793 0.785028
0.664749 0.441098 0.127154
0.744793 0.356346 0.130945
0.126589 0.549376 0.761001
0.779212 0.233279 0.906535
0.149498 0.141817 0.025582
0.841304 0.069025 0.722144
0.841304 0.350409 0.342565
0.033863 0.081147 0.878149
0.843155 0.167478 0.434904
0.152990 0.470203 0.937625
0.318684 0.025030 0.837643
0.501628 0.077032 0.866877
0.202299 0.608210 0.078883
0.842983 0.220386 0.025000
0.924248 0.578531 0.053735
0.868526 0.124309 0.940744
0.646494 0.025124 0.128704
0.135523 0.368256 0.733233
0.909271 0.719866 0.800792
0.841304 0.367580 0.222794
0.856620 0.449319 0.940744
0.060949 0.773477 0.114371
0.638042 0.270819 0.130914
0.204128 0.485751 0.145229
0.105857 0.441067 0.623052
0.855497 0.070739 0.554506
0.187109 0.050340 0.912836
0.841304 0.339460 0.543810
0.443846 0.025066 0.843549
0.073989 0.629972 0.928897
0.103948 0.115906 0.396073
0.938870 0.128967 0.885107
0.937253 0.053889 0.890083
0.771439 0.523193 0.146998
0.145794 0.344268 0.940744
0.855497 0.060613 0.509571
0.205277 0.285144 0.877697
0.113502 0.478109 0.204742
0.863082 0.092664 0.025000
0.104018 0.363703 0.730194
0.831786 0.863695 0.871704
0.094913 0.639647 0.940744
0.049504 0.270450 0.175106
0.103994 0.302074 0.589259
0.053428 0.025158 0.117229
0.431846 0.111012 0.835353
0.712435 0.061664 0.099432
0.532117 0.196849 0.835382
0.786651 0.579662 0.789805
0.103984 0.403658 0.408136
0.031554 0.139344 0.830702
0.132602 0.025106 0.706066
0.168632 0.240829 0.926260
0.213433 0.604889 0.852592
0.872793 0.228581 0.601536
0.104003 0.236606 0.734935
0.103995 0.392527 0.510557
0.487329 0.234664 0.866872
0.104007 0.262790 0.734979
0.385615 0.290017 0.099338
0.812090 0.566172 0.930422
0.861262 0.245067 0.025000
0.838457 0.519596 0.025000
0.135476 0.370949 0.346115
0.935031 0.655165 0.066512
0.380041 0.147892 0.099336
0.883970 0.286499 0.458561
0.087021 0.052212 0.938365
0.065109 0.654999 0.080464
0.560574 0.153014 0.099388
0.204630 0.450330 0.879688
0.373807 0.300890 0.835336
0.872793 0.431112 0.304901
0.072391 0.025158 0.904945
0.104984 0.025115 0.754428
0.872793 0.146466 0.595880
0.182316 0.720787 0.892018
0.566391 0.154623 0.130894
0.135477 0.119145 0.605284
0.841304 0.152980 0.321049
0.872793 0.287014 0.236992
0.062203 0.476397 0.920334
0.858834 0.751442 0.788087
0.036185 0.571317 0.885298
0.897581 0.311443 0.931384
0.948227 0.050285 0.856311
0.197588 0.214715 0.901361
0.167028 0.654999 0.837183
0.135455 0.209433 0.333235
0.377011 0.125734 0.866841
0.872793 0.032577 0.361943
0.090304 0.855044 0.835141
0.103996 0.025073 0.410055
0.120132 0.328111 0.940744
0.025316 0.179742 0.849900
0.785513 0.452504 0.911113
0.135464 0.177235 0.433828
0.872793 0.426630 0.218362
0.117394 0.358863 0.940744
0.135457 0.270067 0.286375
0.771185 0.514845 0.083528
0.431650 0.058991 0.130855
0.259791 0.364872 0.130805
0.103954 0.176676 0.387184
0.803384 0.160533 0.188095
0.873182 0.590680 0.204742
0.103959 0.220031 0.385053
0.945445 0.380904 0.100870
0.080122 0.835246 0.848487
0.164460 0.813423 0.862782
0.780326 0.561514 0.907344
0.249427 0.265323 0.130803
0.054343 0.593998 0.178622
0.222833 0.032716 0.099291
0.288505 0.348521 0.099310
0.279502 0.408593 0.101963
0.933425 0.219209 0.799882
0.201984 0.357328 0.813915
0.860210 0.725720 0.780863
0.921076 0.531343 0.178312
0.841304 0.305685 0.260547
0.084625 0.665018 0.932333
0.103979 0.292509 0.478517
0.374070 0.048540 0.099334
0.481526 0.212962 0.099365
0.296674 0.311896 0.866818
0.841304 0.433815 0.560516
0.597894 0.266681 0.099399
0.095750 0.263727 0.204742
0.872793 0.386389 0.687063
0.135487 0.185103 0.619177
0.841304 0.213423 0.231732
0.658875 0.304988 0.835418
0.872793 0.440025 0.430774
0.135488 0.239100 0.575869
0.837598 0.887116 0.833950
0.404342 0.100499 0.130847
0.375328 0.425043 0.866840
0.277816 0.055221 0.835308
0.103995 0.284107 0.620628
0.104247 0.025079 0.453538
0.788107 0.697728 0.808744
0.151963 0.563376 0.763374
0.534155 0.155668 0.866886
0.912639 0.683260 0.054530
0.738460 0.176721 0.866945
0.155386 0.654999 0.180945
0.926132 0.208617 0.910640
0.890528 0.723288 0.913383
0.288069 0.206937 0.130814
0.936702 0.686302 0.835953
0.205336 0.044997 0.824233
0.942109 0.536941 0.090604
0.135471 0.298891 0.372453
0.931848 0.060020 0.170486
0.121469 0.654999 0.856699
0.182885 0.107657 0.179904
0.771031 0.112916 0.084002
0.094756 0.025158 0.123682
0.105214 0.025111 0.726132
0.103925 0.059220 0.265171
0.135449 0.125669 0.361671
0.392783 0.319303 0.866845
0.182219 0.422353 0.785357
0.486036 0.354426 0.130871
0.712230 0.028051 0.130936
0.761324 0.342420 0.115865
0.103965 0.167329 0.483571
0.842297 0.847998 0.816957
0.822504 0.243170 0.937989
0.448264 0.288207 0.099356
0.476795 0.136066 0.130868
0.044274 0.112817 0.171306
0.033755 0.064168 0.141817
0.872793 0.136896 0.570190
0.912783 0.650077 0.045405
0.841304 0.338771 0.392846
0.316015 0.110863 0.130822
0.565068 0.206576 0.866895
0.872793 0.390191 0.712723
0.490264 0.382132 0.866873
0.881248 0.155355 0.025000
0.841304 0.099100 0.387277
0.649579 0.303116 0.130918
0.947402 0.251729 0.122850
0.934193 0.397513 0.899502
0.115231 0.049969 0.940744
0.872793 0.364538 0.317587
0.103956 0.104229 0.479208
0.135468 0.357453 0.284395
0.927244 0.279132 0.909832
0.883366 0.611514 0.025000
0.823923 0.654999 0.056346
0.943950 0.562927 0.133472
0.103978 0.205164 0.559884
0.552788 0.340088 0.130890
0.101239 0.754571 0.176778
0.781886 0.722165 0.114098
0.209645 0.431746 0.128250
0.915383 0.421651 0.182448
0.313880 0.321529 0.099317
0.846777 0.484585 0.025000
0.135449 0.030191 0.464072
0.313735 0.124790 0.099317
0.086857 0.440109 0.763499
0.133938 0.277001 0.025000
0.296127 0.440992 0.129962
0.247806 0.108278 0.835299
0.204443 0.483195 0.880262
0.856571 0.849262 0.150184
0.841304 0.298885 0.687086
0.152185 0.039953 0.938210
0.490005 0.081503 0.130872
0.909358 0.060903 0.042917
0.385029 0.055354 0.866843
0.316136 0.053908 0.099318
0.865003 0.323976 0.204742
0.298223 0.366608 0.130817
0.841304 0.090740 0.587252
0.032149 0.332229 0.828871
0.872793 0.133634 0.730343
0.807027 0.654999 0.150582
0.035143 0.125344 0.882089
0.103979 0.316490 0.458821
0.066146 0.759570 0.144005
0.359450 0.099256 0.099330
0.495950 0.056540 0.099370
0.568419 0.330754 0.835392
0.196205 0.480048 0.169616
0.196584 0.441919 0.904450
0.103975 0.265869 0.477850
0.841304 0.317768 0.408069
0.839320 0.383446 0.761001
0.814036 0.655079 0.903648
0.174909 0.609776 0.780045
0.932848 0.621211 0.903640
0.841304 0.182280 0.399578
0.841304 0.396472 0.615721
0.184179 0.117513 0.914965
0.872793 0.356107 0.288512
0.512804 0.393051 0.104914
0.048716 0.394870 0.910534
0.638642 0.238538 0.866916
0.872793 0.069547 0.636160
0.872793 0.177220 0.277756
0.873327 0.828476 0.076379
0.581655 0.367970 0.866900
0.887216 0.062197 0.202913
0.103927 0.110161 0.229018
0.116519 0.254012 0.025000
0.156609 0.131255 0.198994
0.764653 0.588772 0.103630
0.526354 0.115134 0.099378
0.947282 0.278593 0.123218
0.174792 0.635615 0.779961
0.133932 0.025052 0.260228
0.135460 0.098614 0.482409
0.343191 0.183078 0.099326
0.796963 0.247669 0.919432
0.128980 0.025158 0.815177
0.326156 0.068240 0.835322
0.872793 0.357758 0.683886
0.841304 0.369558 0.637287
0.357239 0.413496 0.130834
0.149454 0.818655 0.147961
0.678306 0.302009 0.130926
0.135457 0.318807 0.233127
0.071403 0.355088 0.927017
0.103993 0.410612 0.476720
0.103974 0.094232 0.633367
0.135469 0.148240 0.509870
0.885102 0.744752 0.791871
0.934892 0.153728 0.897350
0.872793 0.166240 0.360240
0.939203 0.608135 0.148080
0.931742 0.254295 0.059180
0.853733 0.906376 0.095598
0.625186 0.279539 0.866912
0.084249 0.032184 0.200350
0.837785 0.655079 0.081156
0.205832 0.681813 0.111663
0.938108 0.167956 0.151452
0.103974 0.334303 0.395756
0.920914 0.031257 0.787314
0.656276 0.025127 0.861948
0.135440 0.133454 0.280006
0.103962 0.325783 0.301846
0.558199 0.169502 0.835389
0.673308 0.275486 0.130925
0.872793 0.346286 0.479150
0.190005 0.694940 0.891845
0.949285 0.037459 0.117052
0.529253 0.169977 0.835381
0.865589 0.654999 0.803430
0.841304 0.144453 0.348667
0.897578 0.672577 0.775880
0.886833 0.638263 0.203191
0.169598 0.056121 0.189557
0.903199 0.034100 0.038442
0.836121 0.315153 0.761001
0.884090 0.288895 0.940744
0.872793 0.036234 0.639429
0.351500 0.326163 0.835329
0.027502 0.468040 0.107172
0.688757 0.361651 0.130929
0.771030 0.352350 0.084004
0.950547 0.655096 0.114201
0.098955 0.622827 0.204742
0.872793 0.207344 0.571802
0.073500 0.740389 0.162316
0.103964 0.067806 0.577837
0.779763 0.529230 0.170935
0.062607 0.087645 0.781118
0.910455 0.423523 0.922030
0.841304 0.182870 0.372005
0.872793 0.029375 0.675413
0.779417 0.690905 0.093286
0.178095 0.025158 0.916509
0.135476 0.271805 0.441337
0.409621 0.025435 0.866850
0.769598 0.266353 0.824414
0.872793 0.214292 0.273423
0.260347 0.248823 0.835303
0.874329 0.267051 0.397549
0.405633 0.118094 0.866849
0.135476 0.436653 0.275873
0.247485 0.438711 0.129467
0.735568 0.165063 0.835440
0.771610 0.026968 0.818223
0.129398 0.025090 0.575861
0.135502 0.202933 0.726142
0.822616 0.457543 0.763676
0.213836 0.490849 0.114392
0.889138 0.354177 0.937518
0.791825 0.640538 0.786046
0.825831 0.329967 0.025339
0.103981 0.354391 0.429719
0.568001 0.174398 0.866896
0.190129 0.084046 0.910641
0.092540 0.206898 0.204742
0.047620 0.331686 0.056005
0.577889 0.180042 0.130897
0.802149 0.746957 0.890696
0.885052 0.243922 0.204484
0.085249 0.045131 0.764667
0.863946 0.330511 0.761001
0.694121 0.158624 0.130931
0.629342 0.414833 0.130912
0.872793 0.327104 0.663499
0.872793 0.198159 0.382988
0.895612 0.556638 0.768930
0.860223 0.727030 0.920514
0.546583 0.090351 0.866890
0.383150 0.257340 0.130841
0.143327 0.121130 0.761001
0.889756 0.515706 0.028675
0.872793 0.193834 0.256788
0.786817 0.682412 0.165962
0.872793 0.146193 0.406773
0.038688 0.486913 0.808744
0.661231 0.054225 0.866923
0.841304 0.277946 0.605652
0.150542 0.474846 0.026341
0.872430 0.025078 0.334947
0.920611 0.268937 0.178650
0.889201 0.082868 0.028271
0.947226 0.299460 0.106352
0.883044 0.867889 0.835845
0.179450 0.655079 0.084201
0.503185 0.418445 0.835373
0.908485 0.482578 0.923462
0.493611 0.025080 0.835831
0.043228 0.094918 0.059196
0.156444 0.654999 0.889322
0.841304 0.065267 0.265103
0.803836 0.655079 0.878485
0.798858 0.682268 0.790984
0.344392 0.035461 0.130830
0.306163 0.180593 0.130819
0.103987 0.199872 0.632597
0.146473 0.271043 0.940744
0.580960 0.237061 0.099394
0.075671 0.132346 0.930119
0.279489 0.425141 0.865952
0.872793 0.382013 0.600734
0.869590 0.637489 0.025000
0.796783 0.441938 0.782444
0.852346 0.526448 0.204742
0.759610 0.025321 0.844110
0.871498 0.134708 0.468822
0.841304 0.166659 0.583683
0.135488 0.331380 0.476774
0.597058 0.258478 0.130903
0.103933 0.087589 0.307069
0.920954 0.375422 0.787343
0.251380 0.025010 0.837678
0.841304 0.266314 0.638974
0.052836 0.362679 0.052216
0.461175 0.296954 0.866865
0.135428 0.082188 0.235479
0.768749 0.306921 0.874719
0.681859 0.044402 0.835425
0.103967 0.128592 0.542435
0.135238 0.393022 0.307105
0.698718 0.184326 0.835430
0.171069 0.295294 0.777255
0.886416 0.718939 0.181879
0.841304 0.028518 0.426467
0.809944 0.294890 0.772882
0.195415 0.655079 0.121131
0.904568 0.707590 0.057112
0.841769 0.819724 0.807525
0.747647 0.117764 0.099442
0.349810 0.345888 0.866833
0.564645 0.110505 0.866895
0.378176 0.117580 0.835337
0.776123 0.282120 0.897413
0.135467 0.116551 0.519862
0.929967 0.451692 0.171853
0.528212 0.392177 0.130883
0.469320 0.327905 0.130866
0.100917 0.684508 0.769289
0.197202 0.518525 0.799197
0.181283 0.734141 0.146073
0.556893 0.350023 0.866893
0.346407 0.371589 0.866832
0.117102 0.331886 0.210881
0.393355 0.223972 0.866845
0.727492 0.417666 0.128040
0.148321 0.714981 0.921009
0.942026 0.502772 0.090349
0.829299 0.474911 0.940744
0.104008 0.364343 0.649063
0.032294 0.193690 0.828426
0.841304 0.106482 0.731893
0.783879 0.025850 0.791819
0.177190 0.107032 0.045702
0.496590 0.298200 0.130874
0.511364 0.215472 0.835376
0.117673 0.655079 0.115333
0.135499 0.513130 0.025000
0.891932 0.025158 0.183397
0.937382 0.102382 0.889688
0.113761 0.450503 0.025000
0.936237 0.380716 0.808534
0.060600 0.025158 0.090729
0.103975 0.236185 0.505679
0.087095 0.314049 0.938419
0.841304 0.284238 0.662187
0.265923 0.315630 0.835305
0.135483 0.408956 0.366471
0.135469 0.238823 0.415620
0.307020 0.440995 0.100042
0.872793 0.179256 0.230724
0.069062 0.112137 0.040427
0.103962 0.139625 0.492383
0.841304 0.062984 0.399870
0.850865 0.025158 0.801938
0.936338 0.275478 0.156899
0.117508 0.655079 0.084440
0.841304 0.338764 0.585075
0.688562 0.132804 0.130929
0.054760 0.663126 0.054220
0.759498 0.401587 0.123597
0.035128 0.380703 0.819701
0.841304 0.263361 0.582152
0.841304 0.260190 0.737320
0.300069 0.085340 0.099313
0.183834 0.337853 0.915215
0.344082 0.025037 0.861070
0.871750 0.879360 0.872847
0.910018 0.587337 0.779397
0.803698 0.375019 0.041419
0.131888 0.585538 0.025000
0.841304 0.260875 0.674583
0.919426 0.738040 0.871942
0.948305 0.554130 0.845675
0.268683 0.217087 0.866809
0.103997 0.309440 0.614227
0.921076 0.025158 0.117055
0.837923 0.889971 0.867041
0.497133 0.441050 0.851478
0.775160 0.664866 0.818725
0.103972 0.263976 0.450096
0.103977 0.383392 0.375465
0.808295 0.581166 0.774080
0.841304 0.237004 0.531787
0.638224 0.052803 0.130915
0.135488 0.276663 0.531831
0.871498 0.052275 0.486100
0.925661 0.424540 0.054761
0.107291 0.920722 0.124176
0.937310 0.026794 0.075834
0.769314 0.426212 0.825286
0.103938 0.151648 0.278190
0.104027 0.438440 0.724090
0.903507 0.025158 0.910229
0.340555 0.318756 0.099325
0.026926 0.236305 0.108944
0.810432 0.784871 0.146509
0.210630 0.572518 0.861221
0.054223 0.719291 0.822811
0.112907 0.750892 0.913813
0.947148 0.169985 0.859631
0.085650 0.163383 0.201367
0.699557 0.287388 0.099428
0.813066 0.025158 0.797575
0.259442 0.123191 0.099301
0.794020 0.401300 0.181292
0.094490 0.365585 0.025000
0.135492 0.148451 0.694846
0.103969 0.192607 0.494813
0.293542 0.149872 0.130815
0.366939 0.347487 0.835334
0.479427 0.343398 0.099365
0.542095 0.440510 0.866888
0.361223 0.082287 0.130835
0.597689 0.183382 0.835400
0.508096 0.160486 0.866878
0.471586 0.435710 0.099363
0.605356 0.178796 0.130905
0.861619 0.808093 0.897748
0.436818 0.385661 0.099353
0.766025 0.455619 0.835412
0.054857 0.277502 0.050747
0.841304 0.348889 0.652664
0.872793 0.274295 0.670054
0.047926 0.368472 0.909961
0.857499 0.694650 0.193606
0.673082 0.091966 0.099421
0.655507 0.259969 0.866921
0.104016 0.418441 0.660284
0.091391 0.812604 0.079497
0.904468 0.190440 0.926380
0.135496 0.231426 0.646995
0.067447 0.749332 0.811162
0.818907 0.300791 0.030369
0.714889 0.075622 0.835434
0.142113 0.025158 0.068765
0.145757 0.824656 0.884798
0.897241 0.688711 0.920509
0.103977 0.050555 0.708313
0.945338 0.535580 0.865203
0.135431 0.108841 0.233513
0.871381 0.271199 0.549714
0.172469 0.200096 0.042271
0.133464 0.451626 0.940744
0.139016 0.866255 0.826491
0.411431 0.025056 0.126915
0.602456 0.025518 0.835402
0.785906 0.536797 0.790347
0.905834 0.051049 0.925387
0.711587 0.260398 0.835433
0.188709 0.722953 0.096355
0.182146 0.352738 0.049302
0.094222 0.338575 0.025000
0.091355 0.756216 0.059948
0.115420 0.775549 0.170886
0.025104 0.508313 0.851194
0.103963 0.406297 0.230351
0.204183 0.253429 0.820684
0.135453 0.245735 0.275814
0.135438 0.172513 0.230033
0.320435 0.118000 0.866824
0.878532 0.258414 0.426388
0.297440 0.327396 0.130817
0.500970 0.237724 0.130875
0.508317 0.057133 0.130877
0.782734 0.357091 0.173093
0.343501 0.410079 0.104113
0.140381 0.291347 0.761001
0.872409 0.233079 0.552786
0.592381 0.338925 0.866903
0.173431 0.460907 0.778971
0.088396 0.394033 0.026380
0.932714 0.406051 0.797693
0.774799 0.556411 0.157337
0.786149 0.655079 0.116541
0.386669 0.122505 0.099338
0.074254 0.655331 0.037351
0.738640 0.383189 0.130943
0.199702 0.247372 0.070892
0.036232 0.325177 0.080303
0.041089 0.614792 0.801355
0.203921 0.659443 0.820469
0.034633 0.389110 0.144519
0.243766 0.238437 0.130801
0.773334 0.025158 0.081168
0.591193 0.313245 0.835398
0.939247 0.273220 0.081798
0.851374 0.025158 0.100955
0.870126 0.393079 0.627182
0.038199 0.457725 0.155492
0.083407 0.796449 0.815923
0.103979 0.079342 0.695801
0.872793 0.370156 0.242108
0.761089 0.632385 0.850603
0.079890 0.269288 0.032560
0.700756 0.173379 0.866934
0.882372 0.258417 0.453889
0.028492 0.098884 0.840125
0.633222 0.338282 0.099409
0.183895 0.077742 0.786574
0.539177 0.406436 0.866887
0.032087 0.483788 0.136684
0.879377 0.293949 0.025000
0.872793 0.111951 0.708950
0.103998 0.436553 0.496882
0.149539 0.645096 0.940132
0.135504 0.270933 0.675135
0.245116 0.146117 0.866803
0.135465 0.158874 0.458972
0.926815 0.454151 0.791601
0.238784 0.142882 0.130800
0.854512 0.915685 0.867531
0.047986 0.541910 0.910005
0.174946 0.236351 0.780072
0.740131 0.337614 0.099440
0.439489 0.440881 0.849291
0.153748 0.192556 0.201072
0.103950 0.259944 0.270783
0.787409 0.073194 0.912491
0.105917 0.924949 0.850624
0.636259 0.269389 0.099410
0.116862 0.799970 0.801716
0.146729 0.191660 0.940744
0.663044 0.288280 0.866923
0.809764 0.151048 0.773013
0.150630 0.536518 0.762405
0.841304 0.149002 0.294154
0.820812 0.484401 0.764986
0.836334 0.353909 0.025000
0.423623 0.277297 0.099349
0.739729 0.026289 0.866945
0.872793 0.083765 0.711340
0.841304 0.136850 0.719543
0.472333 0.214878 0.835364
0.931598 0.192413 0.170668
0.112419 0.720691 0.922295
0.930797 0.653490 0.907251
0.492721 0.025080 0.107135
0.103943 0.097995 0.374894
0.135468 0.412367 0.230037
0.361071 0.310075 0.130835
0.175792 0.680004 0.913191
0.233158 0.181231 0.866799
0.841304 0.240227 0.406801
0.883983 0.330184 0.520713
0.036336 0.396238 0.885761
0.724062 0.249033 0.130939
0.103967 0.148862 0.520105
0.493240 0.284476 0.866874
0.233856 0.412479 0.130798
0.849238 0.360684 0.940744
0.841304 0.305758 0.733870
0.796851 0.271261 0.782395
0.203411 0.545463 0.818308
0.923159 0.305250 0.912800
0.780490 0.387414 0.794282
0.129055 0.025677 0.025000
0.920970 0.562485 0.787354
0.156519 0.705113 0.182244
0.535497 0.422749 0.839749
0.934458 0.489539 0.067060
0.121742 0.439935 0.658869
0.824931 0.428779 0.761993
0.835882 0.048322 0.204742
0.030924 0.201441 0.096640
0.885845 0.230103 0.939911
0.032441 0.417344 0.137771
0.926255 0.248032 0.910551
0.135460 0.137811 0.442894
0.413867 0.116010 0.099346
0.070149 0.694052 0.790009
0.812796 0.526141 0.930935
0.427642 0.233396 0.099350
0.527148 0.331180 0.866884
0.167351 0.812722 0.112207
0.441941 0.235132 0.835355
0.026343 0.425595 0.855005
0.872793 0.088449 0.684635
0.127900 0.087711 0.025000
0.342961 0.059438 0.866831
0.735410 0.277893 0.835440
0.053945 0.202061 0.787411
0.135329 0.212466 0.204742
0.872793 0.129738 0.430331
0.798286 0.242438 0.781352
0.872793 0.322772 0.497602
0.043588 0.461290 0.794936
0.682094 0.049930 0.099423
0.035230 0.641302 0.146356
0.846431 0.671489 0.029631
0.695494 0.407583 0.866475
0.864248 0.825218 0.156937
0.815140 0.565074 0.033106
0.889989 0.598833 0.936900
0.135496 0.255652 0.618621
0.941147 0.620431 0.878100
0.891649 0.848861 0.109031
0.105669 0.409434 0.722874
0.841304 0.193154 0.634619
0.872793 0.371615 0.733531
0.188774 0.025158 0.820175
0.935223 0.586758 0.896332
0.032178 0.575374 0.136964
0.528246 0.268659 0.866884
0.213687 0.399478 0.851813
0.087580 0.294279 0.026973
0.254176 0.031138 0.866805
0.841304 0.290833 0.472805
0.354285 0.186284 0.130833
0.041682 0.273694 0.799531
0.135492 0.198193 0.643779
0.431429 0.139227 0.835352
0.799741 0.624249 0.044294
0.365926 0.154643 0.866837
0.090902 0.508699 0.025000
0.882518 0.707907 0.041201
0.025053 0.178241 0.115034
0.895424 0.025228 0.768794
0.135445 0.079398 0.379841
0.419239 0.404447 0.130851
0.827506 0.849468 0.137532
0.872793 0.121774 0.305555
0.772724 0.595956 0.078792
0.841304 0.340528 0.700294
0.135433 0.025686 0.337911
0.803560 0.222937 0.924224
0.866980 0.654999 0.117259
0.872793 0.158859 0.715500
0.204287 0.129339 0.880742
0.103953 0.124202 0.433840
0.855497 0.117573 0.454944
0.103993 0.202826 0.685423
0.841304 0.367769 0.319301
0.617778 0.025116 0.123802
0.147436 0.087582 0.940744
0.829917 0.449351 0.025000
0.185839 0.503853 0.177757
0.526046 0.143181 0.835380
0.806625 0.803916 0.112258
0.040378 0.195998 0.067543
0.932208 0.532018 0.060135
0.847217 0.416129 0.722072
0.666988 0.119709 0.099419
0.103979 0.270588 0.503486
0.857782 0.484438 0.940744
0.713772 0.112267 0.130937
0.841304 0.361666 0.378655
0.801898 0.214815 0.187016
0.139329 0.065350 0.204742
0.062685 0.776818 0.849051
0.886603 0.355383 0.026384
0.778009 0.495127 0.167218
0.842568 0.025078 0.323654
0.880717 0.070316 0.940744
0.125203 0.635237 0.940744
0.054709 0.309817 0.786856
0.146487 0.025158 0.915367
0.075633 0.789193 0.881298
0.666241 0.427797 0.835420
0.841763 0.441079 0.238276
0.403389 0.149260 0.866848
0.041133 0.212568 0.900523
0.890567 0.385152 0.029264
0.860498 0.356093 0.761001
0.614808 0.186159 0.099404
0.103983 0.226266 0.578207
0.103956 0.084510 0.498650
0.135516 0.378568 0.661223
0.841304 0.366998 0.292956
0.741016 0.315256 0.130944
0.913685 0.208007 0.782061
0.135490 0.104701 0.724061
0.477369 0.140591 0.866870
0.148565 0.704618 0.041548
0.128389 0.393071 0.698458
0.201152 0.055802 0.075353
0.147246 0.545922 0.940744
