0.884382 0.824046 0.319931
0.233411 0.049424 0.268822
0.171981 0.031831 0.377188
0.372651 0.067363 0.034440
0.197038 0.571933 0.259820
0.716662 0.029775 0.350415
0.230212 0.068950 0.079215
0.596177 0.040589 0.243097
0.936520 0.389044 0.238772
0.789903 0.030963 0.412277
0.693772 0.031800 0.396427
0.705184 0.029891 0.331206
0.746056 0.046005 0.231719
0.283144 0.031519 0.254172
0.814058 0.049188 0.347118
0.279054 0.030791 0.315455
0.128135 0.045449 0.382871
0.195523 0.052669 0.225225
0.476073 0.074822 0.107867
0.885492 0.043863 0.377550
0.909049 0.067602 0.126439
0.461796 0.052283 0.256893
0.690621 0.050556 0.268433
0.249348 0.049461 0.227013
0.337035 0.071229 0.065222
0.140080 0.401832 0.253998
0.542713 0.071596 0.159127
0.540901 0.040639 0.204099
0.080601 0.051021 0.333238
0.464877 0.052854 0.244976
0.628027 0.037306 0.251090
0.873790 0.832020 0.409542
0.496835 0.076804 0.075625
0.695614 0.030692 0.347528
0.834342 0.036998 0.170818
0.192975 0.050734 0.370436
0.348325 0.039683 0.166675
0.114150 0.053842 0.350529
0.711985 0.048856 0.322634
0.463904 0.042676 0.250525
0.551701 0.046418 0.241496
0.077215 0.059037 0.262917
0.558509 0.050539 0.090321
0.420186 0.064878 0.149887
0.822271 0.036636 0.166448
0.137549 0.053031 0.067915
0.498571 0.063479 0.041171
0.789729 0.050616 0.419001
0.150705 0.032554 0.369707
0.177430 0.051156 0.371570
0.887041 0.033651 0.331463
0.246488 0.029977 0.283265
0.120665 0.337846 0.230211
0.752850 0.049343 0.383516
0.921085 0.055531 0.104781
0.769762 0.054828 0.036669
0.884006 0.057685 0.204023
0.909821 0.040723 0.202263
0.526880 0.051879 0.175131
0.701003 0.055090 0.036916
0.772911 0.060899 0.123513
0.174913 0.065763 0.112221
0.114512 0.058421 0.226869
0.298977 0.045662 0.107743
0.025049 0.050135 0.208119
0.457319 0.074400 0.041858
0.590723 0.062602 0.177872
0.632548 0.064053 0.113619
0.541521 0.069554 0.112785
0.216778 0.627428 0.257546
0.411975 0.065054 0.135450
0.266850 0.030405 0.317470
0.238900 0.030695 0.382565
0.811188 0.063154 0.114883
0.911574 0.035467 0.333929
0.672895 0.032186 0.319214
0.293751 0.050790 0.338908
0.614669 0.041134 0.168109
0.956099 0.219647 0.213525
0.070911 0.042574 0.218219
0.705858 0.049032 0.075442
0.576654 0.069547 0.086520
0.277140 0.072292 0.054393
0.818734 0.064934 0.104891
0.721212 0.028339 0.260022
0.045067 0.092722 0.216186
0.713133 0.029525 0.236275
0.255793 0.030374 0.327431
0.137030 0.056380 0.233760
0.223847 0.036930 0.173049
0.822315 0.050941 0.408010
0.853309 0.051502 0.261418
0.612486 0.051661 0.067026
0.955203 0.156039 0.238699
0.674675 0.037528 0.154019
0.176249 0.037765 0.184588
0.931937 0.362322 0.232514
0.205451 0.055118 0.190455
0.951594 0.050993 0.241508
0.123513 0.054207 0.305818
0.885203 0.756469 0.281562
0.050412 0.131108 0.246614
0.293636 0.031337 0.414775
0.960475 0.112573 0.203900
0.914249 0.493883 0.257404
0.081876 0.198092 0.241063
0.878481 0.809529 0.343234
0.805092 0.028191 0.293562
0.359444 0.037810 0.228801
0.296877 0.047090 0.096864
0.407800 0.043173 0.180397
0.974980 0.066128 0.229212
0.397002 0.042611 0.175445
0.894277 0.665558 0.267824
0.665381 0.032890 0.344378
0.798809 0.028838 0.332796
0.809820 0.070308 0.038744
0.754467 0.026291 0.218443
0.943115 0.272050 0.252948
0.110522 0.034293 0.367503
0.708982 0.048909 0.301021
0.262603 0.735225 0.284221
0.698886 0.073148 0.047463
0.217490 0.062076 0.131646
0.910500 0.050066 0.109920
0.189057 0.034151 0.216328
0.905459 0.034871 0.359085
0.363374 0.036417 0.279317
0.700177 0.050360 0.233871
0.298085 0.050946 0.360626
0.919636 0.065067 0.116017
0.358007 0.074172 0.033890
0.062201 0.168348 0.226937
0.271521 0.791953 0.332144
0.164047 0.051574 0.396428
0.087363 0.056370 0.308510
0.685909 0.031599 0.261603
0.581770 0.043005 0.249031
0.529911 0.057579 0.071440
0.280591 0.790788 0.320374
0.355431 0.059208 0.174951
0.398137 0.039916 0.247720
0.160661 0.060074 0.044952
0.461105 0.030047 0.233022
0.271518 0.050080 0.339149
0.069040 0.057612 0.308332
0.804285 0.067991 0.081123
0.227369 0.049924 0.232878
0.264504 0.068546 0.082016
0.159634 0.045675 0.121546
0.331923 0.052650 0.339428
0.135148 0.052328 0.388697
0.280710 0.050347 0.348514
0.654234 0.035554 0.223082
0.581854 0.042869 0.210255
0.900406 0.057508 0.230718
0.779411 0.046510 0.090353
0.633297 0.054839 0.332146
0.622295 0.043937 0.337478
0.048701 0.070268 0.177846
0.280717 0.067734 0.088660
0.424354 0.070724 0.078950
0.342653 0.052920 0.368331
0.731396 0.048920 0.360847
0.181221 0.041211 0.151137
0.866550 0.049239 0.093775
0.684595 0.051038 0.357000
0.318220 0.032170 0.359586
0.588931 0.052773 0.062908
0.242857 0.030245 0.323778
0.190070 0.047530 0.097801
0.319392 0.063012 0.126548
0.062897 0.062112 0.227531
0.739176 0.052159 0.054053
0.047594 0.067880 0.218212
0.358448 0.062671 0.134258
0.220667 0.050298 0.376223
0.113990 0.037315 0.254300
0.683663 0.051365 0.258647
0.106449 0.060680 0.201286
0.378425 0.056792 0.286398
0.665924 0.067114 0.088196
0.459890 0.077466 0.065829
0.527598 0.078822 0.035287
0.401650 0.040658 0.234243
0.225369 0.031057 0.416311
0.910897 0.608433 0.254755
0.522650 0.059848 0.154266
0.549255 0.075014 0.214871
0.047886 0.068609 0.206618
0.775560 0.027536 0.304763
0.706515 0.033263 0.178218
0.786844 0.079720 0.029984
0.745272 0.049898 0.398803
0.333100 0.052467 0.361706
0.689554 0.050335 0.301193
0.214396 0.050430 0.386880
0.283387 0.812759 0.368831
0.605154 0.070340 0.074744
0.788438 0.045240 0.099146
0.634802 0.066021 0.099728
0.163244 0.442313 0.263661
0.841936 0.053851 0.202277
0.190350 0.052310 0.237624
0.885824 0.827174 0.330499
0.198378 0.540532 0.259240
0.887035 0.053320 0.300241
0.322034 0.032848 0.317471
0.711906 0.049301 0.231349
0.474336 0.042160 0.179608
0.958149 0.208191 0.219280
0.425746 0.067885 0.041448
0.190407 0.059068 0.162705
0.796191 0.069192 0.072580
0.939894 0.061255 0.130099
0.580113 0.048011 0.103034
0.110246 0.034837 0.335981
0.177826 0.062574 0.137887
0.827413 0.079116 0.036492
0.790724 0.036393 0.156982
0.183648 0.496959 0.256333
0.149219 0.395608 0.248807
0.635431 0.056291 0.244730
0.096726 0.056611 0.286463
0.320971 0.041998 0.137485
0.724229 0.076899 0.035964
0.191978 0.051347 0.257223
0.280999 0.031028 0.387410
0.875277 0.033465 0.276646
0.946429 0.051398 0.284220
0.329443 0.034246 0.272237
0.661456 0.053906 0.240398
0.781201 0.045767 0.239442
0.178680 0.051088 0.356327
0.787069 0.028330 0.326355
0.461790 0.051037 0.175510
0.279060 0.777507 0.345437
0.130100 0.366998 0.258923
0.819773 0.051487 0.206547
0.271461 0.050445 0.070629
0.273020 0.799750 0.384714
0.949507 0.237268 0.214672
0.470490 0.077103 0.070530
0.845015 0.031777 0.386235
0.747548 0.045803 0.255499
0.260733 0.061008 0.138362
0.552285 0.076111 0.225680
0.912663 0.508668 0.259032
0.950177 0.052758 0.259009
0.123137 0.053317 0.357577
0.177816 0.053161 0.238572
0.056221 0.126235 0.211364
0.082811 0.036508 0.329153
0.788816 0.034037 0.172153
0.450785 0.046800 0.167019
0.353911 0.038752 0.194187
0.797204 0.044139 0.107141
0.590314 0.059631 0.053939
0.281790 0.796225 0.330905
0.241783 0.030357 0.338246
0.236521 0.030925 0.412113
0.872159 0.062500 0.145759
0.730934 0.048489 0.345816
0.604130 0.044589 0.123372
0.037597 0.069636 0.229597
0.395643 0.041128 0.209357
0.961962 0.121633 0.197118
0.061840 0.168234 0.201423
0.323545 0.036271 0.201723
0.604048 0.060197 0.212488
0.954131 0.167144 0.202423
0.088030 0.055862 0.322448
0.730573 0.047211 0.245758
0.756722 0.058519 0.138131
0.299791 0.041584 0.412956
0.551904 0.056995 0.235846
0.831707 0.029816 0.279332
0.271793 0.030577 0.272909
0.899123 0.051895 0.088156
0.756397 0.045125 0.227547
0.900379 0.056420 0.250448
0.091333 0.048866 0.125033
0.108943 0.036779 0.273124
0.441936 0.045544 0.181910
0.420294 0.051257 0.076961
0.733124 0.027503 0.275569
0.270759 0.059325 0.151367
0.116667 0.056027 0.267262
0.148528 0.033620 0.289413
0.452109 0.049519 0.206264
0.225247 0.050107 0.355136
0.668786 0.055005 0.182869
0.411110 0.061875 0.206746
0.227471 0.631592 0.274689
0.371502 0.050207 0.355708
0.254359 0.062439 0.127418
0.321549 0.060017 0.032194
0.952732 0.173940 0.224819
0.828569 0.064055 0.113096
0.653281 0.055392 0.214954
0.061139 0.059990 0.266555
0.071080 0.041758 0.230690
0.894121 0.035999 0.255211
0.343852 0.033431 0.373116
0.316199 0.049727 0.078031
0.688966 0.075613 0.038928
0.379699 0.058307 0.242517
0.510023 0.076195 0.075479
0.340806 0.053627 0.305509
0.743241 0.063971 0.026492
0.545733 0.077045 0.072513
0.821656 0.058521 0.150081
0.145811 0.032841 0.358439
0.183893 0.042379 0.140381
0.369737 0.038240 0.237416
0.800423 0.073344 0.046496
0.432438 0.045220 0.173492
0.900150 0.713664 0.271458
0.089275 0.059881 0.232826
0.551246 0.069688 0.102005
0.126430 0.040045 0.195511
0.861643 0.039854 0.164138
0.160779 0.032973 0.287468
0.715808 0.073606 0.043737
0.224286 0.058256 0.034924
0.898515 0.726564 0.269369
0.186284 0.050850 0.342274
0.926382 0.065277 0.161492
0.436050 0.066170 0.245379
0.800868 0.047543 0.298166
0.265822 0.773858 0.318955
0.806129 0.047963 0.239406
0.326080 0.053230 0.283043
0.822616 0.051238 0.066167
0.272600 0.030891 0.378898
0.681192 0.031700 0.339346
0.401572 0.070192 0.079956
0.920205 0.517587 0.247788
0.537902 0.063395 0.139482
0.735564 0.047103 0.290796
0.256709 0.049574 0.286567
0.187220 0.508156 0.256114
0.191699 0.031363 0.405125
0.072024 0.173871 0.202149
0.240396 0.053102 0.197229
0.628357 0.035837 0.329332
0.610604 0.068802 0.084460
0.764876 0.030950 0.188209
0.234104 0.031530 0.213101
0.670642 0.036269 0.167876
0.667341 0.052256 0.349217
0.468166 0.070205 0.229252
0.193887 0.561635 0.263692
0.853868 0.034841 0.209544
0.119124 0.330389 0.256620
0.191851 0.051078 0.270829
0.138809 0.033369 0.390318
0.279609 0.047403 0.093693
0.895706 0.064433 0.144400
0.904915 0.044410 0.155131
0.386180 0.052441 0.063092
0.170974 0.476844 0.245225
0.243782 0.066046 0.100034
0.819969 0.031245 0.214449
0.191948 0.037536 0.178435
0.436166 0.066278 0.143662
0.919184 0.039697 0.341730
0.474082 0.063996 0.176676
0.277099 0.069452 0.075667
0.830628 0.032608 0.209417
0.551261 0.066502 0.258603
0.377383 0.072447 0.059227
0.605469 0.059221 0.243018
0.405012 0.058494 0.291949
0.041422 0.082078 0.212854
0.548522 0.079000 0.041475
0.225663 0.049624 0.254748
0.119684 0.037462 0.244501
0.547393 0.032257 0.236955
0.331228 0.053153 0.298557
0.765406 0.046960 0.307972
0.095512 0.039277 0.243281
0.919762 0.040227 0.224183
0.768459 0.026704 0.280125
0.289376 0.802378 0.411969
0.928210 0.469639 0.257271
0.942357 0.072832 0.139503
0.897859 0.049770 0.104516
0.158870 0.055730 0.218964
0.653595 0.053205 0.339366
0.212873 0.037492 0.171001
0.818256 0.039827 0.141692
0.536850 0.037539 0.191195
0.137797 0.033269 0.346240
0.364546 0.034714 0.360116
0.251485 0.049934 0.344496
0.400308 0.059010 0.264109
0.705729 0.042648 0.116362
0.621480 0.057581 0.246630
0.782063 0.050239 0.409643
0.621046 0.056381 0.307837
0.915610 0.549759 0.249812
0.478032 0.066549 0.100242
0.707702 0.049331 0.335729
0.594202 0.060510 0.235570
0.872009 0.841285 0.401960
0.741572 0.050324 0.411383
0.800619 0.032319 0.417101
0.559950 0.047514 0.134442
0.411057 0.051890 0.070530
0.136967 0.054116 0.280958
0.143205 0.054167 0.269041
0.546588 0.068500 0.129159
0.583657 0.065019 0.263650
0.132453 0.034169 0.307075
0.168495 0.459674 0.264753
0.805168 0.031999 0.194093
0.778432 0.040715 0.127147
0.749193 0.054159 0.166167
0.367164 0.051071 0.071632
0.164187 0.439391 0.252488
0.143144 0.053415 0.290389
0.770037 0.052010 0.179842
0.080915 0.061384 0.218738
0.668304 0.051045 0.064857
0.874630 0.842782 0.422587
0.277091 0.031275 0.417577
0.102057 0.258354 0.246089
0.101188 0.059352 0.227379
0.759717 0.046352 0.287396
0.755636 0.026608 0.276058
0.260155 0.030818 0.384769
0.337438 0.038874 0.169580
0.160550 0.051637 0.382805
0.278937 0.055008 0.184678
0.767440 0.050053 0.409429
0.056304 0.141379 0.249878
0.112202 0.048205 0.120215
0.691679 0.030876 0.272819
0.603029 0.040280 0.230357
0.222890 0.030627 0.352001
0.600965 0.042410 0.168877
0.079065 0.039505 0.260103
0.889103 0.724098 0.280330
0.371084 0.055373 0.318669
0.585326 0.045886 0.124224
0.810205 0.047898 0.288526
0.532483 0.057024 0.162263
0.971327 0.085479 0.216423
0.306178 0.031738 0.368908
0.320293 0.054971 0.216315
0.822252 0.049314 0.078847
0.599005 0.039715 0.265030
0.354185 0.040106 0.373555
0.089090 0.074228 0.100122
0.741952 0.042458 0.115669
0.320071 0.033280 0.283295
0.844308 0.034797 0.198756
0.646731 0.056344 0.204566
0.657148 0.054721 0.225846
0.879220 0.781344 0.289985
0.914885 0.060682 0.203750
0.036992 0.058199 0.230301
0.085159 0.043934 0.181983
0.763996 0.062622 0.111848
0.467657 0.068926 0.041514
0.372674 0.059660 0.193513
0.679043 0.051519 0.061158
0.150121 0.051945 0.388661
0.440382 0.067058 0.132240
0.873829 0.823702 0.383408
0.076350 0.056503 0.323909
0.586721 0.079348 0.035953
0.303873 0.051154 0.390193
0.194562 0.530271 0.256983
0.235775 0.661622 0.277458
0.589888 0.063124 0.165210
0.219779 0.053187 0.201341
0.134062 0.044775 0.140927
0.856391 0.034256 0.222027
0.921308 0.036711 0.304621
0.251564 0.030250 0.315308
0.225529 0.039962 0.149481
0.763731 0.025463 0.240978
0.196081 0.070636 0.031606
0.205022 0.050473 0.380627
0.675630 0.051884 0.386894
0.420242 0.067289 0.111568
0.920598 0.046587 0.147001
0.425379 0.059000 0.048325
0.909834 0.052510 0.354746
0.301743 0.052423 0.056918
0.879947 0.033143 0.350923
0.432917 0.049783 0.228041
0.856066 0.051455 0.368338
0.888523 0.033896 0.373382
0.333887 0.052373 0.059047
0.928192 0.379660 0.243508
0.048247 0.100974 0.235500
0.838489 0.044584 0.115731
0.870150 0.052066 0.299267
0.752826 0.051930 0.054981
0.286146 0.045899 0.105257
0.172112 0.032219 0.293532
0.859687 0.068674 0.092525
0.118315 0.074639 0.072393
0.953286 0.055876 0.185784
0.362014 0.043997 0.126991
0.378125 0.057397 0.264451
0.848379 0.071090 0.045118
0.268836 0.783367 0.310966
0.590828 0.070749 0.074274
0.747334 0.046565 0.289424
0.764533 0.069460 0.025651
0.882316 0.035969 0.235105
0.889645 0.824424 0.353188
0.754452 0.038353 0.141301
0.243004 0.049733 0.325188
0.125286 0.060370 0.187843
0.708591 0.029532 0.258915
0.057896 0.054943 0.172767
0.880960 0.070162 0.090637
0.866177 0.060924 0.155091
0.892442 0.036606 0.241248
0.642523 0.040393 0.142748
0.775136 0.028213 0.327297
0.251130 0.728350 0.262088
0.123123 0.033775 0.364269
0.378681 0.070962 0.071052
0.894687 0.747909 0.263303
0.710361 0.053618 0.045880
0.091265 0.229907 0.215590
0.161075 0.032717 0.299516
0.284424 0.057749 0.163982
0.833785 0.030221 0.326767
0.664753 0.045137 0.103849
0.340480 0.072867 0.053060
0.202554 0.071624 0.061104
0.317422 0.053281 0.259698
0.112420 0.040068 0.210629
0.810629 0.028331 0.278508
0.656425 0.033704 0.370204
0.183230 0.051041 0.313520
0.348585 0.071220 0.065914
0.086824 0.037313 0.340501
0.472125 0.055831 0.134133
0.905907 0.064513 0.151028
0.174951 0.049190 0.088098
0.337164 0.056622 0.205553
0.253698 0.073500 0.044532
0.781954 0.047097 0.217438
0.049309 0.128945 0.228786
0.948400 0.297547 0.241471
0.765891 0.047904 0.338979
0.725835 0.050399 0.192500
0.720909 0.047947 0.286666
0.924723 0.498541 0.253784
0.615127 0.039823 0.322788
0.874264 0.046442 0.117414
0.940287 0.044673 0.187034
0.768837 0.067101 0.083731
0.123931 0.354941 0.244139
0.386421 0.036759 0.324439
0.678763 0.051648 0.269166
0.832543 0.047804 0.091351
0.279422 0.810612 0.393342
0.752972 0.046146 0.277849
0.879036 0.061389 0.159243
0.144694 0.068999 0.096048
0.373379 0.035616 0.332679
0.288202 0.052306 0.225901
0.777766 0.030084 0.388101
0.924025 0.489236 0.266613
0.460096 0.050092 0.189944
0.385066 0.061342 0.174474
0.867150 0.052024 0.362768
0.096054 0.042444 0.192423
0.175688 0.054162 0.049295
0.047401 0.069282 0.188952
0.271785 0.791891 0.376258
0.398092 0.071478 0.069281
0.814281 0.048124 0.416120
0.932402 0.042685 0.205519
0.786133 0.043260 0.111561
0.789535 0.047785 0.325317
0.153635 0.069907 0.085202
0.088365 0.214735 0.229835
0.229078 0.050423 0.404940
0.651170 0.033997 0.355012
0.304881 0.051172 0.344188
0.681194 0.051198 0.282667
0.750246 0.049486 0.195922
0.894283 0.778884 0.285628
0.630010 0.036192 0.298543
0.757692 0.073874 0.040400
0.640373 0.056466 0.221060
0.718613 0.043642 0.109201
0.451193 0.063862 0.034345
0.930450 0.057516 0.290298
0.102322 0.055131 0.318976
0.570755 0.049152 0.097084
0.610261 0.057696 0.289044
0.460925 0.059825 0.142184
0.404913 0.063247 0.041156
0.425694 0.042404 0.233969
0.769155 0.046358 0.216200
0.082296 0.046671 0.153535
0.283935 0.053286 0.200092
0.240462 0.049871 0.341525
0.541030 0.073439 0.184673
0.805947 0.049458 0.370603
0.047754 0.054737 0.230083
0.461945 0.059659 0.037883
0.670011 0.073098 0.049549
0.182347 0.052123 0.063738
0.100158 0.035308 0.340725
0.923554 0.416786 0.249147
0.203991 0.050328 0.322998
0.889873 0.792762 0.284664
0.372502 0.073867 0.047500
0.408748 0.057445 0.051986
0.921296 0.448231 0.264033
0.946408 0.231312 0.252210
0.258025 0.718643 0.273419
0.173335 0.033320 0.250826
0.314794 0.053544 0.244654
0.615736 0.063068 0.127724
0.832558 0.030532 0.352911
0.918424 0.548169 0.265664
0.715409 0.030549 0.383997
0.262105 0.063541 0.119431
0.778309 0.045756 0.257350
0.218188 0.060545 0.143399
0.140704 0.035177 0.259497
0.753153 0.030183 0.393256
0.357179 0.057181 0.228778
0.617214 0.047929 0.091689
0.644687 0.053902 0.346531
0.875601 0.817827 0.358223
0.776925 0.048988 0.370366
0.212457 0.063535 0.121371
0.642218 0.034559 0.328598
0.829630 0.062556 0.124229
0.859999 0.052561 0.249933
0.912032 0.562507 0.250615
0.393700 0.051369 0.072397
0.286098 0.050539 0.370876
0.809694 0.028893 0.318717
0.628937 0.061503 0.135684
0.530883 0.068570 0.180164
0.280430 0.781795 0.313823
0.106055 0.070820 0.095259
0.094725 0.237902 0.249856
0.852709 0.051400 0.379993
0.878249 0.039955 0.176617
0.768004 0.045667 0.264156
0.121171 0.044346 0.151794
0.603453 0.053375 0.056727
0.628721 0.042744 0.127597
0.396000 0.062408 0.048228
0.766059 0.025854 0.252987
0.229858 0.030382 0.326300
0.730521 0.047064 0.257486
0.371893 0.036724 0.289592
0.259034 0.030086 0.259346
0.146051 0.059845 0.178480
0.692343 0.053503 0.047620
0.817706 0.049859 0.369704
0.959222 0.181515 0.202988
0.437598 0.064019 0.200371
0.477819 0.055972 0.096457
0.662394 0.033191 0.357777
0.910651 0.056042 0.280695
0.154089 0.409536 0.250469
0.231441 0.054151 0.042777
0.793045 0.056705 0.153302
0.920993 0.461185 0.264848
0.742109 0.049297 0.377646
0.175693 0.047224 0.103229
0.697221 0.031308 0.380747
0.460260 0.060216 0.182259
0.577242 0.078202 0.054138
0.315378 0.052586 0.279352
0.929840 0.443267 0.242008
0.381550 0.063090 0.045512
0.925638 0.406167 0.242689
0.817344 0.043912 0.113507
0.082726 0.039846 0.249496
0.760018 0.029822 0.384102
0.113129 0.293002 0.228894
0.880683 0.802765 0.291400
0.318578 0.051911 0.339842
0.478032 0.063850 0.086358
0.922505 0.476737 0.265828
0.684376 0.042488 0.119010
0.225917 0.045147 0.110608
0.479776 0.076194 0.041971
0.166006 0.038942 0.178930
0.953252 0.069496 0.186157
0.246349 0.030452 0.350890
0.454008 0.042265 0.257561
0.671559 0.053076 0.235245
0.723481 0.028434 0.241474
0.293139 0.050795 0.410756
0.873448 0.058722 0.180895
0.093286 0.231678 0.240248
0.041000 0.083177 0.194699
0.946958 0.220416 0.242515
0.310781 0.069819 0.074431
0.601853 0.064871 0.117854
0.322320 0.052078 0.060638
0.078756 0.042601 0.209132
0.301217 0.038106 0.165745
0.628655 0.039189 0.185726
0.160268 0.053364 0.260280
0.627827 0.036582 0.287215
0.063796 0.045587 0.180074
0.439250 0.047583 0.128758
0.219366 0.058302 0.160580
0.797172 0.029056 0.344350
0.577838 0.043309 0.238326
0.310695 0.051374 0.354044
0.274325 0.051305 0.225881
0.946855 0.224979 0.217893
0.313841 0.037590 0.171802
0.257229 0.030898 0.399996
0.740113 0.028341 0.327088
0.081865 0.073747 0.110074
0.278718 0.040724 0.143872
0.649250 0.038944 0.153574
0.896696 0.655513 0.274056
0.832998 0.050612 0.072823
0.896004 0.043852 0.369467
0.272383 0.050052 0.320024
0.557065 0.077473 0.242954
0.272079 0.755894 0.298784
0.296734 0.033133 0.232945
0.227731 0.035443 0.183785
0.542085 0.051685 0.090332
0.188825 0.519771 0.247926
0.958851 0.190708 0.251700
0.766433 0.046037 0.277018
0.834371 0.030751 0.246390
0.799920 0.048879 0.076895
0.200726 0.062998 0.128024
0.081820 0.059308 0.252315
0.934860 0.318979 0.239140
0.335823 0.034402 0.282556
0.619044 0.054102 0.049754
0.466862 0.043675 0.239003
0.618482 0.057143 0.276173
0.949166 0.285558 0.244977
0.799690 0.028392 0.312805
0.318568 0.052456 0.291902
0.886020 0.830550 0.343247
0.201691 0.064677 0.114765
0.508059 0.069231 0.034683
0.957358 0.067968 0.216815
0.952540 0.054863 0.229975
0.265618 0.040310 0.146351
0.267419 0.064928 0.109225
0.285159 0.789844 0.341697
0.171558 0.051553 0.311988
0.288996 0.795495 0.374096
0.729692 0.061093 0.027065
0.138343 0.052755 0.344431
0.715125 0.051095 0.189457
0.483883 0.043294 0.173778
0.590048 0.078451 0.050190
0.223132 0.051365 0.216565
0.094331 0.035964 0.350218
0.163374 0.047349 0.106174
0.428930 0.043882 0.199693
0.782570 0.026756 0.270136
0.657728 0.050174 0.071091
0.688642 0.032251 0.222817
0.310831 0.043012 0.128368
0.449050 0.069182 0.107160
0.242789 0.064395 0.112465
0.032168 0.077481 0.235621
0.619967 0.071867 0.062441
0.341493 0.062814 0.130701
0.149949 0.055503 0.232778
0.268356 0.050257 0.368409
0.364044 0.058015 0.219467
0.635232 0.058601 0.171263
0.610172 0.038593 0.266748
0.057909 0.052103 0.274331
0.073604 0.174253 0.244775
0.880027 0.854480 0.411548
0.714946 0.078919 0.029009
0.229835 0.669675 0.268295
0.939925 0.277076 0.243019
0.134242 0.033310 0.362444
0.721908 0.053155 0.048380
0.363807 0.053334 0.053460
0.679606 0.051933 0.397662
0.273407 0.796852 0.344549
0.802486 0.047252 0.257878
0.328535 0.071406 0.031748
0.948416 0.042421 0.233506
0.641886 0.060675 0.136729
0.917186 0.075185 0.101057
0.119039 0.308066 0.250621
0.409625 0.065793 0.123838
0.266970 0.052072 0.058288
0.165829 0.053412 0.249583
0.153209 0.041266 0.163828
0.556426 0.052178 0.075758
0.699396 0.063117 0.111700
0.930777 0.365575 0.258379
0.420399 0.049519 0.092163
0.253339 0.741838 0.278747
0.284201 0.818331 0.404348
0.180843 0.051139 0.404498
0.934652 0.395722 0.260730
0.205767 0.046342 0.103713
0.267286 0.778318 0.300830
0.039257 0.076230 0.203367
0.243549 0.049572 0.303113
0.783537 0.050524 0.192021
0.645131 0.054446 0.289270
0.392593 0.037706 0.306094
0.282353 0.050387 0.303067
0.888681 0.809398 0.331736
0.670460 0.053525 0.222767
0.843633 0.039437 0.156393
0.955376 0.222903 0.250161
0.160091 0.431359 0.261315
0.231926 0.641680 0.269405
0.026494 0.065993 0.230791
0.910675 0.523579 0.258555
0.695318 0.053832 0.173826
0.648206 0.035726 0.237915
0.885371 0.068923 0.101440
0.242893 0.062518 0.126516
0.214218 0.049951 0.278890
0.938736 0.048199 0.146781
0.812993 0.049949 0.380549
0.088479 0.067862 0.132442
0.177523 0.064767 0.037444
0.769022 0.068836 0.072707
0.281480 0.783156 0.374962
0.123393 0.058461 0.216451
0.300416 0.065204 0.108655
0.190185 0.073146 0.051371
0.343676 0.051328 0.067457
0.581631 0.063210 0.185204
0.898403 0.068203 0.114830
0.224315 0.030707 0.365201
0.702869 0.049799 0.245248
0.112185 0.063536 0.084962
0.818704 0.049108 0.336815
0.318929 0.036446 0.189694
0.069170 0.189452 0.242697
0.362124 0.063497 0.033493
0.649667 0.065360 0.102172
0.107863 0.034684 0.350422
0.082004 0.063312 0.120837
0.808092 0.048099 0.310557
0.423264 0.045670 0.147194
0.629604 0.058097 0.201009
0.946236 0.061937 0.161741
0.781157 0.031358 0.419609
0.322261 0.032289 0.374313
0.682242 0.052361 0.223853
0.201223 0.030870 0.302249
0.738010 0.047210 0.217605
0.546723 0.070682 0.146463
0.880010 0.787864 0.300874
0.635519 0.038866 0.176298
0.897628 0.652185 0.257045
0.554784 0.062091 0.174918
0.223954 0.646688 0.275336
0.471272 0.067306 0.138294
0.334660 0.032720 0.392974
0.302878 0.052643 0.246261
0.324255 0.032362 0.385659
0.835623 0.055776 0.178734
0.460857 0.058294 0.202459
0.230283 0.048548 0.421299
0.684511 0.051492 0.247521
0.079059 0.221718 0.225641
0.380419 0.039408 0.226472
0.290116 0.799459 0.387075
0.385066 0.037735 0.286347
0.606950 0.058181 0.278307
0.887430 0.051072 0.089231
0.639586 0.046516 0.360015
0.940845 0.279445 0.224489
0.529254 0.066166 0.080618
0.811525 0.048578 0.325453
0.726187 0.068817 0.073802
0.465107 0.071590 0.127670
0.185332 0.536161 0.262251
0.572338 0.044043 0.200828
0.042187 0.106709 0.245195
0.598671 0.059576 0.253863
0.664911 0.032745 0.310506
0.468386 0.061085 0.192693
0.893286 0.676563 0.266258
0.855818 0.063396 0.129083
0.452721 0.077377 0.056840
0.895439 0.047729 0.119916
0.352525 0.040887 0.153869
0.932776 0.338916 0.239912
0.710948 0.036802 0.153645
0.306382 0.052191 0.271030
0.183554 0.054982 0.205229
0.763108 0.039996 0.130519
0.960023 0.064108 0.196595
0.646562 0.054119 0.300989
0.970930 0.087189 0.243881
0.788461 0.063494 0.108228
0.541447 0.068726 0.220082
0.080028 0.057984 0.280241
0.826569 0.049010 0.303588
0.306856 0.072018 0.057640
0.536926 0.073213 0.133440
0.269516 0.031052 0.405731
0.892016 0.041161 0.176622
0.950945 0.059628 0.250016
0.292781 0.051655 0.256327
0.099832 0.045438 0.154429
0.058911 0.158178 0.218586
0.641006 0.070362 0.069729
0.148850 0.429120 0.253760
0.185774 0.046139 0.109528
0.392893 0.040308 0.226470
0.107030 0.057712 0.248397
0.862043 0.032096 0.348965
0.811023 0.069695 0.071439
0.868797 0.034330 0.241250
0.887987 0.808672 0.297781
0.098343 0.277537 0.244457
0.650772 0.047493 0.089896
0.918038 0.045267 0.158116
0.262553 0.744644 0.290977
0.058120 0.045283 0.190982
0.764934 0.049013 0.376038
0.684268 0.051833 0.235972
0.949105 0.041607 0.249495
0.689377 0.060634 0.128585
0.408699 0.078498 0.049460
0.286912 0.789003 0.354103
0.139299 0.071823 0.074338
0.264165 0.030433 0.248118
0.911561 0.057345 0.253201
0.253425 0.050224 0.383144
0.801878 0.030908 0.405608
0.271314 0.030786 0.365699
0.948794 0.204098 0.241596
0.694003 0.049969 0.284897
0.614151 0.037773 0.292204
0.307935 0.057980 0.164744
0.931051 0.043345 0.193612
0.896868 0.054795 0.280965
0.628905 0.062681 0.124435
0.536718 0.059922 0.040947
0.772675 0.028515 0.338298
0.190760 0.039822 0.159322
0.205809 0.033880 0.205692
0.790335 0.027182 0.234201
0.048243 0.112787 0.196562
0.966150 0.129347 0.231657
0.450938 0.065509 0.178966
0.042764 0.110606 0.210567
0.918824 0.055453 0.342877
0.698454 0.049831 0.325566
0.567931 0.044360 0.211369
0.060204 0.137169 0.226085
0.295376 0.054061 0.197793
0.083792 0.205099 0.218384
0.095596 0.271582 0.234755
0.958102 0.199387 0.206700
0.353611 0.063923 0.123499
0.101867 0.056691 0.275700
0.679863 0.051129 0.294329
0.283300 0.784512 0.329742
0.667115 0.071246 0.061596
0.612948 0.038078 0.280536
0.426577 0.045175 0.268085
0.889724 0.042194 0.164105
0.742829 0.027144 0.283038
0.875403 0.820810 0.396917
0.814143 0.041857 0.126370
0.260205 0.753909 0.297031
0.177322 0.051553 0.287844
0.716485 0.029256 0.325771
0.559988 0.072867 0.064733
0.163398 0.469176 0.261001
0.583783 0.065233 0.128666
0.236138 0.051250 0.064178
0.930811 0.444597 0.257226
0.671165 0.035309 0.181135
0.659269 0.052941 0.364423
0.585543 0.063960 0.153113
0.753001 0.029046 0.355620
0.576871 0.065273 0.252961
0.466930 0.075795 0.201993
0.858507 0.051230 0.293490
0.759375 0.060209 0.127277
0.754371 0.036149 0.155328
0.849272 0.052457 0.233039
0.162954 0.049513 0.088189
0.054176 0.068527 0.163156
0.918565 0.049688 0.118075
0.475819 0.063527 0.201090
0.351562 0.069665 0.078055
0.200993 0.051157 0.246667
0.885643 0.062965 0.150295
0.715633 0.050376 0.401547
0.095968 0.063078 0.102588
0.348826 0.037458 0.217368
0.647312 0.034188 0.339920
0.915546 0.522892 0.268731
0.823554 0.048982 0.315874
0.283445 0.079596 0.029109
0.097276 0.246718 0.221619
0.799779 0.046018 0.095293
0.923720 0.510453 0.256600
0.181381 0.051852 0.262507
0.834968 0.066050 0.101405
0.277266 0.781430 0.385939
0.624569 0.059930 0.162244
0.751850 0.034242 0.167563
0.862180 0.032248 0.361248
0.302521 0.068086 0.087045
0.383939 0.042620 0.153271
0.917905 0.043980 0.171056
0.315377 0.067951 0.088756
0.170509 0.045509 0.119000
0.464349 0.058627 0.165667
0.914886 0.573211 0.252022
0.252363 0.050321 0.398298
0.214871 0.597556 0.252819
0.705451 0.030707 0.370162
0.215616 0.050282 0.243948
0.654678 0.034294 0.274417
0.659789 0.035896 0.380910
0.953831 0.166072 0.247412
0.658789 0.041660 0.128111
0.907210 0.035067 0.347217
0.313255 0.051473 0.383882
0.286192 0.059926 0.147667
0.821627 0.033369 0.412143
0.290123 0.039914 0.150598
0.384191 0.038499 0.259003
0.381719 0.039978 0.213361
0.334444 0.046537 0.103412
0.312071 0.032534 0.296352
0.366129 0.057271 0.244084
0.911737 0.579343 0.272283
0.184852 0.071710 0.063660
0.030429 0.047655 0.228644
0.563347 0.056051 0.220762
0.056054 0.064692 0.195689
0.254170 0.030187 0.302992
0.253413 0.035630 0.180996
0.066472 0.039578 0.274785
0.180416 0.041200 0.410647
0.824309 0.071140 0.065053
0.227968 0.030780 0.380286
0.820946 0.049687 0.357658
0.908060 0.038343 0.237005
0.926477 0.037519 0.293827
0.254096 0.076712 0.033655
0.073922 0.037224 0.321517
0.421740 0.046887 0.123643
0.096729 0.062700 0.182788
0.621848 0.057183 0.259829
0.898633 0.037897 0.228630
0.743418 0.046040 0.244548
0.302209 0.055352 0.186218
0.272398 0.783476 0.397670
0.058697 0.156312 0.238102
0.279132 0.780076 0.359980
0.788258 0.046749 0.230030
0.891463 0.705009 0.260576
0.692573 0.050811 0.372761
0.756342 0.049630 0.394436
0.244797 0.681432 0.274902
0.054230 0.144575 0.213277
0.455877 0.059237 0.158400
0.266208 0.053982 0.191392
0.364273 0.056635 0.257892
0.832466 0.050162 0.360191
0.175293 0.051297 0.325849
0.319943 0.060937 0.142917
0.333559 0.044693 0.117791
0.075972 0.038051 0.297153
0.921966 0.038731 0.254295
0.571458 0.072471 0.065579
0.573476 0.065118 0.152800
0.393444 0.065198 0.121946
0.214137 0.050066 0.328043
0.304802 0.052430 0.258600
0.306708 0.031752 0.357800
0.085555 0.042746 0.199417
0.131147 0.037956 0.222197
0.633250 0.056022 0.262128
0.808890 0.030585 0.390687
0.272368 0.050091 0.274651
0.259482 0.041392 0.420538
0.119986 0.034670 0.316976
0.276857 0.070588 0.034986
0.472523 0.042842 0.217433
0.242860 0.067774 0.087144
0.905715 0.645091 0.276419
0.757792 0.029293 0.365724
0.416784 0.043488 0.188164
0.915074 0.036566 0.291592
0.292233 0.031969 0.260761
0.250514 0.054048 0.190146
0.415467 0.048076 0.105316
0.237061 0.045430 0.107712
0.621424 0.069711 0.047300
0.240544 0.029980 0.223844
0.736261 0.049456 0.197385
0.361706 0.039693 0.185023
0.297103 0.031412 0.327248
0.207050 0.057194 0.172378
0.637589 0.039820 0.153183
0.465969 0.067996 0.159726
0.256916 0.039264 0.153890
0.857554 0.059415 0.162228
0.649763 0.071262 0.062557
0.056250 0.054076 0.254085
0.551497 0.070937 0.086571
0.411652 0.059232 0.282176
0.727232 0.028675 0.321474
0.201840 0.062573 0.037421
0.277551 0.764877 0.305357
0.154258 0.032882 0.310411
0.307924 0.033786 0.237209
0.810816 0.036865 0.160010
0.172550 0.465089 0.252734
0.885636 0.062787 0.068653
0.154564 0.062564 0.147303
0.752347 0.040528 0.127547
0.553354 0.069517 0.192167
0.436961 0.048413 0.114280
0.190963 0.066018 0.040431
0.804935 0.050105 0.207368
0.970525 0.092991 0.207485
0.672987 0.032554 0.380877
0.911220 0.617629 0.262931
0.122532 0.068886 0.105021
0.531974 0.065480 0.101580
0.815359 0.028726 0.289067
0.770191 0.050969 0.061254
0.479160 0.063807 0.188227
0.478224 0.057347 0.074628
0.196532 0.070517 0.070462
0.678456 0.053628 0.195985
0.855685 0.033252 0.237895
0.669504 0.062309 0.120003
0.661629 0.052480 0.315290
0.745885 0.065220 0.095920
0.874433 0.048609 0.101619
0.617695 0.063917 0.034349
0.434615 0.071599 0.073379
0.283357 0.030946 0.338524
0.459342 0.067856 0.059360
0.564237 0.068785 0.101501
0.897572 0.677271 0.278444
0.411071 0.048277 0.284337
0.231445 0.030087 0.286442
0.283511 0.049165 0.080624
0.245562 0.716243 0.271336
0.774984 0.050494 0.420950
0.847085 0.059853 0.152080
0.793285 0.049700 0.202738
0.664485 0.047543 0.087724
0.546103 0.070665 0.173919
0.794952 0.046863 0.242385
0.760921 0.026192 0.264455
0.945893 0.064008 0.198707
0.721335 0.048192 0.238686
0.714959 0.047756 0.083061
0.404908 0.043514 0.167370
0.909103 0.632936 0.268439
0.775423 0.030491 0.192456
0.186008 0.035425 0.202975
0.788717 0.049051 0.074919
0.559178 0.066843 0.142344
0.902229 0.055951 0.262198
0.568247 0.048449 0.231740
0.387345 0.046908 0.332017
0.666033 0.060721 0.131136
0.848159 0.056885 0.177348
0.845412 0.032614 0.402224
0.682943 0.039756 0.137551
0.236750 0.685713 0.259420
0.895167 0.057185 0.077178
0.331283 0.052921 0.311871
0.741218 0.056485 0.151680
0.760045 0.053679 0.168796
0.402265 0.060285 0.232931
0.647818 0.037048 0.194845
0.817559 0.061903 0.124725
0.077832 0.187541 0.214747
0.201770 0.050638 0.265023
0.607909 0.061789 0.154369
0.889780 0.055773 0.243662
0.730441 0.031548 0.186324
0.464735 0.049530 0.125661
0.848248 0.030878 0.309996
0.091997 0.037173 0.292038
0.854088 0.061657 0.047011
0.909939 0.055535 0.294602
0.364860 0.036862 0.267206
0.591029 0.046236 0.114500
0.607910 0.042120 0.158295
0.878516 0.045443 0.128332
0.953216 0.246277 0.244424
0.107643 0.280624 0.223515
0.297395 0.059710 0.149901
0.206596 0.050375 0.368848
0.138738 0.033021 0.376469
0.742261 0.028759 0.341769
0.691114 0.055693 0.161675
0.749965 0.072478 0.049583
0.284279 0.031207 0.408546
0.324313 0.035787 0.214670
0.868205 0.051602 0.077372
0.316420 0.034123 0.244808
0.712474 0.038671 0.141437
0.358860 0.053973 0.353827
0.180127 0.067807 0.095000
0.085853 0.241077 0.238866
0.519817 0.061613 0.075277
0.327917 0.056224 0.199326
0.237568 0.039832 0.421712
0.790816 0.074166 0.040509
0.357581 0.050189 0.077432
0.195829 0.563802 0.250705
0.242460 0.039408 0.152450
0.789006 0.067188 0.028003
0.733528 0.061352 0.121012
0.639783 0.054122 0.046893
0.206313 0.036507 0.181463
0.474746 0.063087 0.124019
0.966009 0.063422 0.223187
0.439623 0.046276 0.160541
0.382218 0.061707 0.160925
0.885764 0.053072 0.361434
0.949829 0.272233 0.222857
0.128817 0.343172 0.257424
0.086419 0.037151 0.302078
0.118801 0.038585 0.375263
0.807185 0.060598 0.130877
0.903361 0.061701 0.095661
0.468960 0.062508 0.113900
0.310860 0.031917 0.345852
0.908473 0.605236 0.273912
0.377911 0.068863 0.087459
0.184607 0.055812 0.042427
0.146036 0.063928 0.138981
0.920388 0.042026 0.197990
0.395832 0.057218 0.314510
0.131382 0.033964 0.320413
0.309703 0.061659 0.136037
0.590833 0.070311 0.041601
0.308596 0.054350 0.211134
0.446607 0.068314 0.211322
0.267963 0.030408 0.306218
0.322773 0.065925 0.104429
0.936430 0.040107 0.254585
0.770452 0.050242 0.191123
0.264787 0.069561 0.027113
0.362287 0.037397 0.245825
0.089938 0.061605 0.205402
0.917001 0.471594 0.253604
0.913253 0.064321 0.105782
0.876406 0.831558 0.336782
0.376734 0.045422 0.117641
0.105862 0.267844 0.241579
0.069697 0.194404 0.220584
0.206073 0.069102 0.079755
0.553605 0.047538 0.150978
0.232172 0.050171 0.373251
0.800530 0.027780 0.244186
0.248322 0.055729 0.177476
0.944658 0.061577 0.234195
0.129132 0.035255 0.277232
0.678312 0.056858 0.155745
0.897195 0.738019 0.273657
0.627908 0.038107 0.222341
0.847966 0.067418 0.096718
0.815802 0.033895 0.184999
0.468938 0.053083 0.146813
0.275360 0.056610 0.172081
0.541861 0.064897 0.193008
0.766613 0.027101 0.293986
0.378507 0.037763 0.269055
0.306049 0.033090 0.255206
0.156959 0.052596 0.292699
0.164646 0.463868 0.244409
0.688519 0.052235 0.208458
0.720739 0.048674 0.332781
0.439858 0.046786 0.148787
0.412688 0.045096 0.142904
0.800581 0.048133 0.323266
0.219364 0.064583 0.112678
0.827906 0.029472 0.290161
0.358321 0.065364 0.112645
0.376900 0.050389 0.078125
0.075516 0.067281 0.129558
0.851983 0.042256 0.400104
0.819571 0.050408 0.389873
0.287287 0.050559 0.313033
0.209864 0.030656 0.310740
0.923668 0.055912 0.325311
0.438291 0.076318 0.050975
0.847349 0.050799 0.075044
0.936276 0.038709 0.284125
0.091734 0.064522 0.166126
0.103776 0.286120 0.253835
0.914990 0.585602 0.263431
0.566011 0.065196 0.170869
0.133933 0.064680 0.138310
0.703577 0.070476 0.064296
0.240755 0.030169 0.310210
0.834851 0.049590 0.271310
0.376299 0.056317 0.298034
0.382821 0.037248 0.298111
0.098482 0.273212 0.222524
0.801666 0.050420 0.418102
0.062967 0.058556 0.292109
0.300505 0.051264 0.308497
0.938507 0.383607 0.250218
0.359647 0.066902 0.100714
0.809220 0.029386 0.226865
0.881641 0.035256 0.246889
0.156298 0.420530 0.261427
0.160071 0.052104 0.308660
0.763697 0.037128 0.148810
0.368965 0.055541 0.307396
0.267791 0.030923 0.237219
0.082097 0.060272 0.108905
0.480075 0.058178 0.154725
0.376334 0.055450 0.328949
0.972896 0.072092 0.213363
0.188109 0.044548 0.121403
0.333199 0.041271 0.144781
0.362090 0.072577 0.056413
0.623450 0.059574 0.175487
0.482008 0.055179 0.178845
0.792626 0.047257 0.086640
0.381896 0.036761 0.313119
0.743386 0.029336 0.361300
0.139323 0.053002 0.321927
0.046933 0.050460 0.192506
0.871813 0.057111 0.066999
0.333079 0.048344 0.089379
0.394792 0.062779 0.156731
0.365674 0.038665 0.217624
0.909151 0.542734 0.256061
0.148073 0.052924 0.301211
0.779950 0.072961 0.047322
0.477715 0.073561 0.162644
0.350409 0.044153 0.124061
0.128108 0.332751 0.243357
0.526325 0.040605 0.179228
0.938553 0.285995 0.236131
0.078697 0.038801 0.273567
0.261346 0.765744 0.291811
0.948338 0.199877 0.228842
0.402303 0.060760 0.219933
0.331806 0.046627 0.395920
0.276658 0.803980 0.358989
0.207949 0.032672 0.218043
0.248506 0.051485 0.062055
0.897468 0.639520 0.267129
0.642500 0.034785 0.313330
0.623954 0.065681 0.103799
0.573874 0.047550 0.113611
0.633438 0.078774 0.045041
0.798571 0.029450 0.358728
0.197392 0.031091 0.353507
0.175512 0.502069 0.246813
0.704973 0.050998 0.412426
0.640845 0.068161 0.043282
0.907490 0.054747 0.317886
0.648459 0.052431 0.057196
0.396121 0.044336 0.139151
0.237299 0.049995 0.354899
0.565658 0.067117 0.210274
0.882367 0.044241 0.140687
0.331627 0.052202 0.378312
0.531290 0.074644 0.110697
0.779867 0.026282 0.253679
0.664778 0.054342 0.212945
0.780680 0.048782 0.203426
0.926990 0.063284 0.182235
0.474131 0.038579 0.192216
0.627105 0.057369 0.234672
0.284636 0.052118 0.058541
0.417843 0.054868 0.269476
0.354818 0.068177 0.090127
0.821468 0.031065 0.391860
0.368003 0.079200 0.034874
0.250844 0.042413 0.130095
0.901170 0.046534 0.133381
0.248820 0.030749 0.389741
0.836541 0.068169 0.087720
0.130335 0.074887 0.063353
0.949012 0.054080 0.171357
0.179949 0.490711 0.265920
0.833583 0.072452 0.058585
0.277528 0.050218 0.292049
0.261704 0.044893 0.111888
0.424180 0.066532 0.124542
0.462505 0.044082 0.224645
0.348459 0.038964 0.179874
0.178409 0.054348 0.218482
0.142135 0.065355 0.127607
0.620574 0.059365 0.189282
0.960105 0.113097 0.246415
0.959071 0.197092 0.241799
0.886303 0.812111 0.352162
0.750074 0.047810 0.331715
0.470192 0.034464 0.227873
0.631396 0.058546 0.183268
0.093393 0.037789 0.274090
0.828696 0.049444 0.330254
0.404848 0.063289 0.161686
0.812934 0.050046 0.215812
0.710024 0.029180 0.272154
0.540360 0.041364 0.232580
0.682285 0.066990 0.030644
0.832503 0.053061 0.056452
0.599597 0.043415 0.143870
0.608154 0.072329 0.060924
0.776792 0.046292 0.281272
0.398858 0.068537 0.092879
0.205641 0.038855 0.162038
0.823719 0.029722 0.332320
0.227328 0.030057 0.254578
0.206047 0.035198 0.192980
0.791265 0.041470 0.123421
0.951889 0.263582 0.230076
0.888376 0.033826 0.317905
0.102012 0.040199 0.220128
0.655403 0.033734 0.304244
0.229677 0.033938 0.195073
0.736980 0.054338 0.165649
0.622075 0.038152 0.241128
0.790129 0.049214 0.372502
0.725989 0.028094 0.286794
0.413896 0.061304 0.227993
0.809532 0.047717 0.276314
0.769462 0.026440 0.218152
0.959471 0.202603 0.230236
0.084173 0.065805 0.157356
0.121206 0.034026 0.345925
0.227429 0.657789 0.257133
0.901141 0.054187 0.333333
0.275264 0.774081 0.335427
0.967311 0.120754 0.208567
0.382711 0.056245 0.316538
0.682298 0.049671 0.072798
0.760864 0.045357 0.254969
0.882764 0.033492 0.302812
0.686276 0.067426 0.084898
0.291541 0.050718 0.351258
0.405956 0.039074 0.290639
0.136953 0.388243 0.259746
0.620970 0.039613 0.194466
0.193474 0.031236 0.370798
0.541382 0.051543 0.195549
0.326834 0.054982 0.229001
0.611709 0.057373 0.300416
0.844048 0.050407 0.337463
0.894277 0.709173 0.280451
0.206385 0.599916 0.262081
0.073206 0.199335 0.249497
0.891951 0.693317 0.274453
0.768333 0.048385 0.202772
0.797593 0.061259 0.124177
0.911244 0.037027 0.266493
0.652174 0.043997 0.113190
0.944068 0.328349 0.235736
0.873234 0.052254 0.352751
0.838898 0.049947 0.323380
0.059446 0.136355 0.203125
0.153537 0.034092 0.265036
0.959125 0.051001 0.175499
0.153319 0.071267 0.073924
0.919895 0.059648 0.226619
0.072379 0.044081 0.193587
0.398446 0.072933 0.057892
0.226142 0.048384 0.086345
0.128409 0.055369 0.263882
0.344171 0.077019 0.041575
0.240243 0.070077 0.070073
0.393325 0.044574 0.319831
0.386015 0.041519 0.182802
0.142893 0.043156 0.394074
0.845203 0.053348 0.212963
0.777348 0.048003 0.337612
0.644556 0.057429 0.179426
0.667058 0.042704 0.119883
0.959391 0.120228 0.231313
0.661026 0.065530 0.099501
0.243114 0.050032 0.367866
0.865857 0.052607 0.262150
0.705657 0.040168 0.132265
0.583110 0.054232 0.266852
0.346200 0.045733 0.111103
0.376103 0.059084 0.214001
0.448177 0.056333 0.216459
0.226592 0.052307 0.056927
0.931616 0.041712 0.219040
0.433926 0.063351 0.211457
0.874253 0.068041 0.103178
0.383920 0.040628 0.200478
0.306520 0.064010 0.117987
0.466933 0.050564 0.107293
0.119844 0.034440 0.328928
0.914351 0.066413 0.139598
0.119994 0.049015 0.108465
0.609083 0.045432 0.112320
0.851866 0.051662 0.393777
0.882455 0.052649 0.075748
0.781928 0.064940 0.098511
0.885814 0.816112 0.306063
0.301126 0.079263 0.037273
0.579919 0.043648 0.190664
0.468809 0.056746 0.084173
0.876288 0.032878 0.326348
0.964109 0.148839 0.202792
0.092116 0.068843 0.121270
0.785066 0.027392 0.221773
0.390737 0.059968 0.218763
0.311705 0.035444 0.201305
0.565827 0.046416 0.149848
0.741108 0.047059 0.300565
0.449048 0.072564 0.068264
0.823272 0.029342 0.303067
0.297605 0.034179 0.207491
0.159993 0.032249 0.356007
0.132218 0.043094 0.157733
0.397603 0.063495 0.145864
0.751509 0.047110 0.309130
0.452100 0.047531 0.151836
0.862873 0.032577 0.269508
0.146302 0.033524 0.300533
0.192716 0.042903 0.133213
0.076558 0.057775 0.291411
0.272896 0.061938 0.027226
0.604586 0.067550 0.094087
0.146416 0.052499 0.331265
0.592070 0.042286 0.196574
0.416035 0.062752 0.193529
0.225271 0.049650 0.277331
0.889873 0.818218 0.342661
0.719532 0.040602 0.128624
0.942401 0.051707 0.295935
0.063209 0.072083 0.139328
0.609161 0.040814 0.192215
0.642316 0.043276 0.119675
0.655588 0.061577 0.126915
0.258504 0.059198 0.151841
0.960674 0.110092 0.215855
0.727192 0.048647 0.207390
0.906548 0.036144 0.280749
0.249063 0.048138 0.087151
0.265330 0.736649 0.273302
0.177649 0.059347 0.165364
0.872778 0.040563 0.165573
0.839936 0.050691 0.371116
0.786418 0.046329 0.269145
0.955459 0.230803 0.223497
0.406385 0.044237 0.152641
0.372808 0.058375 0.226960
0.595446 0.059504 0.267781
0.279660 0.050305 0.331312
0.938666 0.322823 0.256143
0.393758 0.047011 0.107311
0.289211 0.041438 0.139063
0.595971 0.043377 0.154801
0.330404 0.060354 0.148870
0.333312 0.033442 0.319908
0.223532 0.054354 0.190394
0.058325 0.157631 0.199574
0.755917 0.026943 0.287270
0.617798 0.038849 0.230742
0.908191 0.617227 0.274666
0.141459 0.067330 0.111200
0.834794 0.060746 0.038550
0.757916 0.064096 0.102601
0.070347 0.165710 0.236332
0.150903 0.052208 0.345580
0.474470 0.059875 0.034416
0.277220 0.770809 0.319458
0.336617 0.043105 0.130628
0.906788 0.582192 0.251854
0.842484 0.033698 0.210223
0.252751 0.057643 0.163291
0.348780 0.054722 0.042147
0.111067 0.283370 0.244017
0.213948 0.030933 0.383814
0.743306 0.046336 0.090943
0.660354 0.052783 0.304176
0.436561 0.067543 0.120019
0.668696 0.032797 0.369020
0.631494 0.050140 0.074695
0.793413 0.027666 0.291896
0.086019 0.050773 0.114805
0.853158 0.052797 0.063189
0.443949 0.052064 0.075537
0.673777 0.059802 0.035604
0.314022 0.039072 0.159715
0.109130 0.277474 0.234773
0.118653 0.305202 0.239097
0.547913 0.057728 0.068563
0.105739 0.061471 0.189992
0.277805 0.807871 0.405429
0.099653 0.067559 0.129366
0.957355 0.137177 0.242226
0.942627 0.042618 0.221390
0.263323 0.057230 0.166753
0.708140 0.057201 0.149131
0.105301 0.043562 0.171363
0.641232 0.035400 0.283226
0.813239 0.029440 0.336279
0.770432 0.054377 0.164811
0.294065 0.051301 0.273255
0.531058 0.046753 0.194070
0.145928 0.046338 0.120958
0.578701 0.071036 0.074288
0.680970 0.033960 0.193039
0.278437 0.799745 0.414067
0.259963 0.049647 0.253141
0.912902 0.055079 0.330759
0.714271 0.055390 0.160471
0.224616 0.050388 0.394201
0.871876 0.033625 0.262018
0.461606 0.049219 0.138192
0.267281 0.070494 0.067521
0.207526 0.050578 0.398866
0.536070 0.069119 0.168505
0.798343 0.028666 0.221876
0.208819 0.042156 0.135605
0.854639 0.053569 0.223346
0.936918 0.395363 0.248568
0.691291 0.069298 0.072596
0.896079 0.734860 0.261823
0.203200 0.050403 0.346359
0.338409 0.035454 0.251873
0.848574 0.030986 0.295111
0.891582 0.811320 0.319600
0.862376 0.058330 0.059820
0.405171 0.047214 0.109917
0.705472 0.062755 0.028519
0.815179 0.028692 0.259788
0.341612 0.061203 0.143653
0.901722 0.665076 0.257068
0.158657 0.423636 0.250511
0.283098 0.031233 0.269898
0.263187 0.049794 0.309314
0.254090 0.049763 0.316838
0.953953 0.180123 0.251509
0.304472 0.039766 0.153088
0.751159 0.029648 0.374779
0.720871 0.047881 0.275353
0.291418 0.031392 0.296829
0.695673 0.043534 0.111306
0.859856 0.051737 0.272528
0.283650 0.789512 0.407848
0.040019 0.101398 0.227029
0.764466 0.044850 0.099736
0.677522 0.032234 0.270410
0.932114 0.057301 0.301754
0.844330 0.032062 0.239661
0.812762 0.035183 0.172987
0.132823 0.379454 0.253900
0.416928 0.043016 0.199673
0.110664 0.064774 0.149759
0.159478 0.035449 0.229419
0.547067 0.074378 0.237937
0.714174 0.029198 0.247689
0.341607 0.055801 0.235824
0.577116 0.066407 0.241603
0.546485 0.059601 0.213739
0.961588 0.171818 0.235711
0.121426 0.059679 0.200038
0.711582 0.032534 0.414847
0.682849 0.031419 0.313184
0.777173 0.048924 0.074819
0.620800 0.046072 0.103921
0.091620 0.044583 0.170005
0.770330 0.028846 0.350196
0.132993 0.033608 0.333760
0.779751 0.029349 0.363000
0.552028 0.051451 0.161565
0.643197 0.034972 0.298065
0.742649 0.047582 0.321151
0.700685 0.066664 0.088893
0.154062 0.444124 0.255393
0.179890 0.051632 0.276611
0.335579 0.033337 0.340599
0.696055 0.051302 0.403200
0.615743 0.039402 0.217801
0.103805 0.268932 0.252753
0.939381 0.064064 0.188396
0.425739 0.061725 0.239934
0.214108 0.030538 0.267192
0.614172 0.051734 0.321613
0.374069 0.043926 0.131110
0.932633 0.350180 0.232623
0.703657 0.049376 0.313533
0.205057 0.031317 0.247393
0.203786 0.030870 0.332304
0.146301 0.036328 0.230683
0.093401 0.047355 0.349721
0.954735 0.235307 0.241445
0.727305 0.051077 0.061396
0.567971 0.060607 0.231858
0.772020 0.047369 0.318803
0.142519 0.061458 0.164108
0.867303 0.032366 0.298072
0.609841 0.057359 0.311780
0.735725 0.072357 0.050905
0.339368 0.059656 0.156924
0.946316 0.316571 0.241242
0.952171 0.050902 0.219386
0.890093 0.793796 0.307566
0.390277 0.069971 0.080204
0.067352 0.060103 0.256698
0.317497 0.033752 0.260119
0.068239 0.061130 0.237561
0.190725 0.031358 0.293920
0.281717 0.803811 0.347724
0.329220 0.034562 0.260427
0.260560 0.050309 0.225940
0.356195 0.038316 0.208455
0.211282 0.579476 0.263628
0.647936 0.054904 0.251427
0.350580 0.053074 0.054672
0.574427 0.051040 0.246352
0.628740 0.047397 0.093495
0.667939 0.040812 0.389919
0.297937 0.049335 0.079997
0.061181 0.041908 0.240614
0.867457 0.063363 0.135673
0.164806 0.032120 0.344757
0.916368 0.483621 0.250497
0.757357 0.030455 0.403980
0.165476 0.051633 0.338254
0.611904 0.063981 0.049165
0.756721 0.048615 0.361016
0.837114 0.075310 0.040477
0.970855 0.048343 0.217752
0.247055 0.059304 0.150656
0.103502 0.063149 0.172815
0.731188 0.028093 0.302638
0.281056 0.045658 0.417959
0.758303 0.042409 0.115347
0.706055 0.076202 0.037290
0.475028 0.074031 0.120454
0.243540 0.676791 0.264251
0.730853 0.048951 0.418836
0.833586 0.030376 0.340997
0.157048 0.051768 0.371120
0.836233 0.030050 0.297819
0.604393 0.078000 0.051804
0.827255 0.053870 0.189320
0.616166 0.059081 0.210677
0.931266 0.347278 0.247247
0.606244 0.039280 0.255514
0.222360 0.031752 0.217299
0.275070 0.050601 0.408404
0.647067 0.054691 0.263535
0.778631 0.027865 0.211834
