0.373128 0.025000 0.498403
0.212863 0.092616 0.368052
0.332821 0.680519 0.390000
0.061218 0.061439 0.410949
0.443674 0.088101 0.509749
0.253940 0.715250 0.437467
0.140943 0.780138 0.408541
0.330746 0.907384 0.150600
0.446878 0.713710 0.389496
0.252401 0.133470 0.164448
0.044919 0.092356 0.360789
0.498261 0.975000 0.170933
0.087405 0.825613 0.383990
0.428295 0.907384 0.199433
0.289871 0.400689 0.206973
0.455341 0.168542 0.450293
0.075679 0.907384 0.446168
0.379424 0.907384 0.148851
0.527686 0.975000 0.315965
0.380153 0.025000 0.135328
0.436272 0.907384 0.318686
0.447314 0.025000 0.153765
0.253224 0.025000 0.293538
0.066533 0.092616 0.237781
0.442022 0.154945 0.441286
0.423776 0.331113 0.369815
0.458489 0.922142 0.445705
0.515060 0.025000 0.448719
0.268734 0.702839 0.155975
0.246051 0.356091 0.107789
0.268674 0.369602 0.097224
0.073234 0.209225 0.339210
0.515476 0.975000 0.142545
0.073759 0.025323 0.149418
0.281532 0.710170 0.052598
0.467561 0.183373 0.271517
0.160031 0.135674 0.295488
0.433166 0.226858 0.475788
0.488662 0.609760 0.429246
0.280174 0.560581 0.107805
0.494802 0.262451 0.435300
0.308446 0.585225 0.100316
0.322708 0.185447 0.046939
0.218956 0.150214 0.309784
0.233983 0.975000 0.052930
0.471304 0.186382 0.377208
0.507621 0.089356 0.135678
0.305452 0.269873 0.462329
0.260616 0.452230 0.318791
0.451590 0.310116 0.267440
0.434151 0.715543 0.368255
0.308209 0.411095 0.219937
0.097366 0.907384 0.246162
0.321461 0.202218 0.279237
0.174247 0.092616 0.216517
0.075932 0.595268 0.406865
0.237892 0.843792 0.170045
0.199785 0.082805 0.051049
0.385512 0.092616 0.221729
0.401655 0.975000 0.504592
0.338624 0.092616 0.198727
0.295417 0.975000 0.072071
0.270448 0.440693 0.340350
0.292616 0.270236 0.106473
0.361940 0.092616 0.471974
0.391504 0.120948 0.212939
0.106617 0.025000 0.311493
0.389865 0.907384 0.246552
0.308434 0.975000 0.091880
0.480266 0.025000 0.192417
0.432627 0.736750 0.379684
0.261770 0.975000 0.362426
0.345165 0.356845 0.065367
0.214550 0.688746 0.268703
0.411118 0.707777 0.394034
0.269449 0.120500 0.179841
0.081771 0.315675 0.387965
0.136729 0.067912 0.096862
0.245696 0.975000 0.391268
0.146645 0.907384 0.451280
0.405584 0.092616 0.105207
0.269826 0.613114 0.245887
0.322336 0.311951 0.036215
0.124840 0.209061 0.329761
0.456211 0.896698 0.444965
0.258257 0.440198 0.104309
0.210989 0.092616 0.434390
0.446642 0.975000 0.354793
0.344506 0.907384 0.107520
0.482541 0.333889 0.430073
0.083853 0.068646 0.135279
0.138894 0.312052 0.362646
0.364651 0.643278 0.214897
0.389814 0.833091 0.412905
0.283566 0.195408 0.270156
0.273516 0.025000 0.175593
0.275587 0.975000 0.520893
0.148295 0.293663 0.252293
0.198386 0.975000 0.266058
0.071112 0.715697 0.413764
0.063205 0.229550 0.422310
0.313133 0.649419 0.211875
0.371602 0.048816 0.042258
0.345010 0.975000 0.322979
0.170286 0.770731 0.388019
0.144673 0.092616 0.417235
0.525919 0.955451 0.174484
0.206027 0.975000 0.050267
0.254450 0.108296 0.385664
0.167464 0.907384 0.114569
0.474441 0.252604 0.306056
0.380110 0.407784 0.277535
0.201502 0.975000 0.339082
0.389954 0.645630 0.240865
0.403903 0.651573 0.339280
0.363744 0.070869 0.042258
0.217698 0.152593 0.424664
0.216137 0.907384 0.075023
0.461362 0.975000 0.339592
0.367905 0.731312 0.156955
0.459520 0.951425 0.446040
0.312328 0.092616 0.231051
0.329453 0.429325 0.110075
0.073586 0.641645 0.397573
0.322719 0.170694 0.075314
0.137404 0.193121 0.342622
0.368674 0.896388 0.376587
0.188060 0.025000 0.180381
0.472020 0.229234 0.271980
0.162672 0.222222 0.407486
0.086393 0.332512 0.403134
0.142665 0.224898 0.341746
0.165970 0.092616 0.372631
0.194101 0.171519 0.418365
0.132060 0.134880 0.398977
0.507024 0.727730 0.410204
0.027867 0.058918 0.308308
0.483741 0.847683 0.421475
0.295771 0.327060 0.442461
0.444556 0.975000 0.380215
0.265001 0.432726 0.057506
0.404521 0.907384 0.408932
0.477048 0.113004 0.403139
0.376167 0.376803 0.214080
0.361044 0.095872 0.316083
0.339151 0.576214 0.339722
0.102325 0.510599 0.364266
0.314705 0.843722 0.095002
0.401818 0.025000 0.096526
0.483685 0.025000 0.378341
0.406181 0.947428 0.538546
0.286703 0.975000 0.092272
0.299432 0.025000 0.158816
0.477023 0.261615 0.456703
0.257473 0.975000 0.153448
0.461750 0.175869 0.252085
0.467892 0.828019 0.445647
0.563282 0.955608 0.311296
0.201332 0.975000 0.517074
0.472135 0.878077 0.444295
0.149394 0.975000 0.219815
0.334609 0.758617 0.453125
0.462577 0.897215 0.404251
0.302855 0.318178 0.122603
0.357364 0.681970 0.419026
0.441471 0.152477 0.410132
0.188700 0.671005 0.243389
0.166270 0.699933 0.341392
0.240966 0.313194 0.072561
0.063963 0.737987 0.365441
0.475540 0.528250 0.419047
0.250717 0.400424 0.222697
0.366948 0.025000 0.539263
0.082083 0.025000 0.311690
0.413045 0.210397 0.396086
0.147711 0.214600 0.371217
0.441978 0.708969 0.251045
0.306781 0.685829 0.266182
0.232653 0.683690 0.176873
0.417878 0.025000 0.152250
0.317395 0.333828 0.157204
0.460035 0.302711 0.294499
0.142888 0.291325 0.302174
0.283935 0.239488 0.121960
0.101118 0.797599 0.415435
0.424241 0.092616 0.169374
0.319638 0.066573 0.042258
0.156501 0.828176 0.260417
0.450732 0.025000 0.255760
0.162427 0.907384 0.222994
0.339534 0.146914 0.227353
0.235399 0.068819 0.556709
0.235500 0.092616 0.554213
0.304726 0.160290 0.374650
0.331192 0.907384 0.298333
0.146325 0.783712 0.272745
0.175323 0.975000 0.211973
0.444900 0.216459 0.201365
0.321955 0.160402 0.232537
0.442162 0.092616 0.274522
0.037442 0.956586 0.264867
0.263561 0.285957 0.452749
0.374408 0.271736 0.147486
0.218257 0.907384 0.044327
0.214606 0.025000 0.098163
0.269293 0.648565 0.109921
0.429208 0.365571 0.438217
0.298669 0.511910 0.062353
0.419089 0.704608 0.211755
0.277196 0.209869 0.301654
0.100511 0.734660 0.436164
0.286503 0.320903 0.145232
0.489914 0.973087 0.123060
0.409119 0.208591 0.444140
0.277237 0.366247 0.117013
0.152505 0.148499 0.277005
0.042059 0.072889 0.351985
0.343475 0.359613 0.180541
0.172471 0.331992 0.352563
0.250093 0.171315 0.266411
0.416862 0.907384 0.471343
0.338400 0.657089 0.405977
0.240633 0.092616 0.132489
0.467485 0.717981 0.382809
0.243716 0.355077 0.070866
0.138651 0.647162 0.379968
0.327676 0.974208 0.043160
0.347121 0.388037 0.385676
0.065382 0.921112 0.421894
0.401502 0.954149 0.058824
0.370976 0.918077 0.287083
0.119122 0.059258 0.489312
0.039162 0.025000 0.336058
0.210965 0.092616 0.391136
0.203342 0.313366 0.181504
0.070398 0.092616 0.332180
0.325347 0.468732 0.262137
0.451486 0.761346 0.472267
0.073103 0.092616 0.216981
0.094616 0.975000 0.176522
0.122454 0.907384 0.128978
0.471694 0.198541 0.315667
0.226562 0.025000 0.045733
0.501880 0.958163 0.131753
0.472755 0.907384 0.253597
0.497818 0.248944 0.393826
0.352158 0.644847 0.237333
0.197205 0.132675 0.389855
0.206932 0.134027 0.284486
0.290905 0.092616 0.321516
0.167881 0.817161 0.365001
0.190694 0.907384 0.209380
0.323308 0.367239 0.066974
0.151087 0.907384 0.248651
0.413141 0.975000 0.246538
0.087256 0.890998 0.390581
0.398551 0.389410 0.274213
0.270686 0.143945 0.219015
0.193262 0.950246 0.543425
0.286126 0.170508 0.461104
0.230848 0.685368 0.347748
0.126197 0.368733 0.377296
0.298363 0.540030 0.059958
0.414455 0.126586 0.362819
0.446055 0.319440 0.335045
0.518670 0.355855 0.424672
0.298731 0.857177 0.065264
0.205443 0.975000 0.288687
0.441789 0.610544 0.437689
0.229012 0.802535 0.433070
0.452941 0.907384 0.348147
0.329323 0.648365 0.098614
0.298093 0.907384 0.389012
0.474441 0.925258 0.488953
0.285743 0.092616 0.533132
0.186541 0.342996 0.364319
0.418935 0.925202 0.071490
0.417320 0.029907 0.528897
0.503468 0.907384 0.229724
0.335283 0.768206 0.061565
0.082890 0.025000 0.335248
0.349193 0.025000 0.343637
0.263522 0.318463 0.440802
0.422740 0.361520 0.302793
0.418858 0.025000 0.075634
0.076809 0.461015 0.405650
0.524370 0.975000 0.365040
0.383690 0.299436 0.163080
0.350285 0.784399 0.144921
0.069855 0.411323 0.377444
0.212352 0.975000 0.459084
0.333079 0.145111 0.441182
0.338848 0.523693 0.305119
0.444311 0.796133 0.398146
0.373010 0.685692 0.210002
0.309631 0.823046 0.070149
0.502629 0.306497 0.396558
0.276309 0.828075 0.149474
0.317623 0.733354 0.127623
0.306215 0.880655 0.067951
0.293425 0.092616 0.411956
0.213311 0.025000 0.409978
0.104120 0.591207 0.351911
0.451724 0.321215 0.287064
0.446034 0.265652 0.403557
0.309945 0.118324 0.413315
0.449982 0.274492 0.424300
0.085611 0.931039 0.135558
0.331160 0.025000 0.411645
0.541308 0.975000 0.293070
0.286201 0.572532 0.348062
0.352398 0.122367 0.223758
0.313868 0.635259 0.084336
0.217920 0.646763 0.264331
0.417296 0.975000 0.198536
0.109915 0.092616 0.320802
0.253985 0.248434 0.108262
0.428241 0.317750 0.409924
0.111420 0.975000 0.410634
0.333554 0.414409 0.091835
0.195810 0.321885 0.400037
0.149148 0.975000 0.437128
0.258542 0.414010 0.096720
0.238676 0.615800 0.314010
0.445676 0.365723 0.457538
0.126746 0.025000 0.246192
0.500542 0.744574 0.392492
0.462276 0.221483 0.226137
0.297026 0.344115 0.049902
0.373463 0.318690 0.165083
0.412286 0.841517 0.384002
0.303958 0.781567 0.452787
0.419862 0.092616 0.458666
0.085050 0.307525 0.336190
0.089524 0.975000 0.365970
0.374241 0.641271 0.312921
0.240061 0.862671 0.179057
0.372169 0.122367 0.275025
0.276855 0.585321 0.267965
0.345754 0.091924 0.042258
0.155364 0.150915 0.337872
0.375297 0.975000 0.284522
0.159540 0.092616 0.324746
0.258828 0.547613 0.290619
0.276301 0.333790 0.434948
0.460882 0.267794 0.244544
0.195617 0.975000 0.229403
0.231650 0.923716 0.043160
0.068736 0.092616 0.289721
0.107216 0.975000 0.283915
0.292615 0.595205 0.119408
0.545922 0.975000 0.341995
0.439935 0.196407 0.197464
0.198668 0.360858 0.359341
0.257623 0.962005 0.043160
0.186206 0.703399 0.385596
0.402730 0.907384 0.086513
0.268013 0.197105 0.316449
0.382840 0.092616 0.148801
0.413826 0.655656 0.283404
0.343989 0.834277 0.155395
0.026670 0.031530 0.294343
0.084269 0.781597 0.417289
0.272856 0.341241 0.064180
0.322951 0.702059 0.073986
0.542524 0.907681 0.375180
0.127858 0.350274 0.439225
0.238912 0.122367 0.256295
0.430532 0.907384 0.101820
0.299775 0.884219 0.415214
0.086342 0.313051 0.358855
0.075135 0.173034 0.408353
0.136500 0.968229 0.098585
0.315681 0.122367 0.260548
0.459843 0.368560 0.393993
0.274039 0.130462 0.162025
0.235238 0.784054 0.154308
0.081982 0.975000 0.291873
0.247476 0.025000 0.209279
0.130623 0.204782 0.301329
0.396050 0.975000 0.153367
0.382275 0.677759 0.400583
0.418567 0.732264 0.410352
0.305579 0.366790 0.052397
0.417384 0.800519 0.194771
0.089799 0.940042 0.468255
0.310012 0.092616 0.330507
0.052332 0.053236 0.383602
0.051731 0.955927 0.220890
0.378613 0.907384 0.045875
0.388207 0.133337 0.350596
0.071653 0.907796 0.159576
0.152314 0.751395 0.243533
0.465458 0.025000 0.121516
0.289541 0.549740 0.043216
0.268658 0.092616 0.165134
0.429128 0.128980 0.341923
0.311862 0.387604 0.196291
0.388068 0.092616 0.455755
0.084234 0.555812 0.396579
0.458652 0.080776 0.451242
0.268880 0.180214 0.262964
0.291192 0.907384 0.340849
0.119451 0.975000 0.202046
0.322606 0.396104 0.071138
0.138974 0.644543 0.402902
0.043927 0.928273 0.244910
0.319261 0.367321 0.410294
0.295057 0.907384 0.261446
0.453593 0.092616 0.163380
0.443724 0.092616 0.343859
0.451261 0.320291 0.309095
0.267617 0.317594 0.113697
0.450380 0.975000 0.149687
0.050169 0.070736 0.222023
0.325710 0.665933 0.177345
0.342512 0.630934 0.378378
0.187517 0.368494 0.303876
0.269901 0.254383 0.127597
0.195916 0.779375 0.411035
0.362327 0.144863 0.365578
0.117813 0.655496 0.408815
0.336862 0.901588 0.387479
0.465630 0.311225 0.369672
0.171448 0.678250 0.267261
0.402851 0.025000 0.127739
0.355842 0.092616 0.120992
0.461634 0.161488 0.292135
0.301829 0.293754 0.115529
0.119568 0.975000 0.263831
0.338764 0.092616 0.451728
0.300955 0.948021 0.065498
0.213184 0.899850 0.339465
0.230875 0.025000 0.295686
0.255605 0.283994 0.141614
0.180371 0.907384 0.178876
0.319720 0.353265 0.130441
0.152847 0.715036 0.290356
0.339906 0.193311 0.059053
0.082373 0.179635 0.427482
0.316866 0.679972 0.427775
0.477710 0.091598 0.447102
0.408205 0.372674 0.260583
0.238097 0.122367 0.229721
0.094756 0.090412 0.471609
0.248647 0.570957 0.284383
0.445653 0.634714 0.422548
0.222796 0.408082 0.315142
0.246481 0.376078 0.392639
0.390230 0.382869 0.351393
0.235705 0.216716 0.078888
0.291178 0.615917 0.354770
0.325939 0.600010 0.326212
0.346685 0.323428 0.439788
0.147474 0.975000 0.323776
0.359454 0.173831 0.314457
0.443108 0.708517 0.335059
0.438330 0.692844 0.268657
0.272410 0.168495 0.360458
0.262093 0.593589 0.241484
0.298360 0.699356 0.060114
0.440433 0.646514 0.451756
0.073391 0.291463 0.387332
0.348156 0.428689 0.255856
0.236201 0.907384 0.547530
0.380809 0.907384 0.413522
0.352097 0.642520 0.357696
0.400997 0.309273 0.177111
0.229755 0.664958 0.224468
0.334739 0.784711 0.080507
0.284543 0.671955 0.422737
0.427129 0.954013 0.077443
0.277012 0.861190 0.095497
0.251493 0.907384 0.184009
0.274051 0.907384 0.119500
0.178577 0.315036 0.387799
0.453412 0.025000 0.428474
0.186245 0.172769 0.180122
0.344380 0.975000 0.348100
0.123761 0.092616 0.254784
0.222447 0.092616 0.273389
0.306420 0.092616 0.542561
0.207967 0.025000 0.167173
0.309310 0.574062 0.350661
0.135129 0.766147 0.424437
0.269409 0.415456 0.114375
0.540525 0.931316 0.381333
0.201515 0.665378 0.226161
0.079651 0.642858 0.365217
0.188947 0.975000 0.398101
0.338264 0.735044 0.107999
0.295422 0.947329 0.043160
0.271224 0.395310 0.103736
0.256161 0.025000 0.365947
0.171764 0.975000 0.409951
0.453303 0.092616 0.293660
0.420127 0.255506 0.169807
0.220842 0.092616 0.121792
0.272800 0.922485 0.557610
0.200199 0.783512 0.178368
0.299906 0.514865 0.110559
0.090151 0.334740 0.363660
0.403206 0.872966 0.222088
0.469020 0.561403 0.450006
0.414272 0.092616 0.313386
0.201474 0.129702 0.204935
0.338913 0.623625 0.250255
0.222278 0.975000 0.241003
0.366410 0.146137 0.162477
0.383555 0.907384 0.195663
0.390295 0.938776 0.550088
0.117930 0.527772 0.380969
0.074567 0.025000 0.423970
0.551199 0.025000 0.340675
0.461364 0.074342 0.102071
0.459376 0.288950 0.268081
0.180451 0.092616 0.389484
0.216261 0.186875 0.147579
0.271754 0.776000 0.141138
0.114905 0.092616 0.459009
0.453930 0.734234 0.269449
0.495814 0.050791 0.127100
0.468174 0.092616 0.211150
0.236046 0.025000 0.410537
0.452016 0.731925 0.329452
0.245092 0.203595 0.134784
0.291491 0.834681 0.065443
0.326017 0.744062 0.046393
0.190688 0.846078 0.209793
0.296038 0.577406 0.318841
0.169799 0.975000 0.380204
0.521579 0.053102 0.435966
0.517573 0.907384 0.383509
0.227767 0.975000 0.541489
0.528189 0.092616 0.185849
0.408287 0.239150 0.414608
0.395104 0.907384 0.270421
0.193942 0.907384 0.513983
0.052296 0.215198 0.407247
0.361536 0.114940 0.391158
0.108608 0.420540 0.429297
0.134154 0.186680 0.283509
0.247867 0.312594 0.052127
0.513150 0.196407 0.406047
0.254991 0.548521 0.103164
0.468781 0.167275 0.399658
0.443574 0.975000 0.448102
0.245149 0.823385 0.157468
0.465522 0.025000 0.367154
0.099779 0.242068 0.435230
0.298506 0.025000 0.308583
0.420399 0.873542 0.251305
0.270070 0.975000 0.458698
0.197042 0.840849 0.391771
0.293801 0.877699 0.107098
0.291180 0.975000 0.315074
0.452629 0.025000 0.449559
0.439320 0.758878 0.378365
0.149381 0.802622 0.263432
0.371867 0.417716 0.294233
0.223065 0.689152 0.249740
0.289670 0.690868 0.155895
0.388046 0.092616 0.196452
0.087934 0.557477 0.376178
0.133369 0.025000 0.341201
0.290698 0.411560 0.372418
0.472418 0.757695 0.473941
0.495116 0.907384 0.210678
0.137920 0.915569 0.097554
0.115791 0.751599 0.436442
0.273430 0.681466 0.164920
0.493662 0.092616 0.175916
0.361404 0.597982 0.258773
0.254537 0.187159 0.115290
0.437433 0.788465 0.219202
0.473823 0.835027 0.407447
0.342218 0.090047 0.289479
0.299578 0.898874 0.195508
0.340031 0.252310 0.128389
0.350290 0.719776 0.149792
0.182695 0.975000 0.249778
0.272454 0.784009 0.053193
0.442150 0.318716 0.237745
0.163907 0.025000 0.259680
0.454959 0.907384 0.471780
0.038558 0.926960 0.339339
0.083403 0.699864 0.408338
0.285819 0.122367 0.289650
0.206443 0.975000 0.310648
0.319997 0.092616 0.441734
0.319157 0.088448 0.097878
0.285072 0.132220 0.436841
0.167100 0.684758 0.326529
0.273900 0.125527 0.070507
0.303856 0.092616 0.520727
0.502694 0.092616 0.372662
0.391120 0.149068 0.174757
0.458460 0.907384 0.154816
0.159615 0.092616 0.181052
0.368430 0.415770 0.325199
0.516491 0.048049 0.147342
0.075220 0.345100 0.420269
0.316226 0.907384 0.554138
0.442431 0.850958 0.423328
0.147078 0.907384 0.179502
0.107964 0.786865 0.352182
0.486430 0.025000 0.303430
0.253952 0.905628 0.376099
0.078979 0.092616 0.196443
0.122303 0.260734 0.364546
0.276988 0.903225 0.387431
0.339202 0.860935 0.424387
0.328542 0.515455 0.322509
0.445404 0.487115 0.414622
0.245051 0.244911 0.084012
0.311286 0.813172 0.102686
0.495842 0.025000 0.214630
0.298050 0.918582 0.557610
0.102614 0.666238 0.399164
0.077201 0.594911 0.364606
0.390130 0.092616 0.252103
0.492756 0.975000 0.197301
0.329491 0.122367 0.241513
0.455673 0.495098 0.432776
0.157607 0.771873 0.359104
0.195754 0.092616 0.490107
0.469789 0.116307 0.450860
0.098870 0.126191 0.363107
0.534008 0.975000 0.271977
0.423007 0.845105 0.366258
0.066122 0.191752 0.421084
0.196024 0.025000 0.301728
0.189438 0.975000 0.496252
0.134285 0.315738 0.390155
0.274236 0.099930 0.070047
0.357958 0.282741 0.450586
0.247588 0.132777 0.384414
0.066500 0.926189 0.175435
0.325418 0.260937 0.462935
0.074232 0.025000 0.379004
0.259046 0.092616 0.370305
0.383279 0.251687 0.145640
0.441352 0.338224 0.294973
0.301748 0.172405 0.243952
0.060604 0.907384 0.405080
0.344978 0.244176 0.100157
0.233636 0.380640 0.215720
0.183670 0.092616 0.289419
0.418662 0.307199 0.195877
0.124180 0.557389 0.404901
0.386523 0.618862 0.299172
0.319242 0.232210 0.466728
0.424266 0.975000 0.456273
0.206402 0.233762 0.440827
0.279999 0.122367 0.342257
0.292061 0.444234 0.347403
0.450763 0.438586 0.385647
0.447136 0.092616 0.139742
0.220439 0.248635 0.449944
0.354662 0.581737 0.325373
0.308543 0.414421 0.122744
0.386869 0.327762 0.178613
0.488461 0.456591 0.393889
0.128903 0.025000 0.391377
0.329947 0.092616 0.155581
0.254975 0.092616 0.185527
0.157991 0.025000 0.182029
0.429614 0.209647 0.180327
0.438425 0.233320 0.399946
0.236150 0.678611 0.206404
0.289430 0.662355 0.176537
0.213600 0.975000 0.427976
0.475827 0.231724 0.480901
0.320742 0.438085 0.349370
0.214378 0.643233 0.242748
0.474380 0.975000 0.265305
0.446588 0.926638 0.509189
0.167187 0.075435 0.524234
0.075994 0.975000 0.268036
0.281827 0.449982 0.046667
0.444547 0.723897 0.236525
0.213956 0.812015 0.420501
0.470300 0.025000 0.396453
0.408060 0.340041 0.380304
0.273050 0.469966 0.112222
0.150262 0.092616 0.437227
0.394964 0.134161 0.279816
0.114790 0.534474 0.412965
0.105191 0.570148 0.382961
0.274697 0.387400 0.199326
0.474778 0.907384 0.358196
0.294115 0.975000 0.259163
0.158302 0.025000 0.414113
0.451140 0.025000 0.097640
0.328106 0.316865 0.059200
0.493392 0.475760 0.438819
0.278910 0.629619 0.367238
0.259003 0.597753 0.079892
0.050085 0.074111 0.376686
0.491888 0.714230 0.397386
0.090907 0.158199 0.407131
0.505368 0.428277 0.427290
0.481390 0.210854 0.481659
0.556905 0.960839 0.330922
0.147771 0.778317 0.382058
0.383017 0.656726 0.215551
0.285524 0.632802 0.388671
0.401086 0.025000 0.256947
0.236641 0.025000 0.098079
0.348740 0.247057 0.463628
0.404180 0.682770 0.262890
0.270269 0.227266 0.138256
0.292184 0.646034 0.190533
0.482430 0.069423 0.117376
0.117079 0.715523 0.343778
0.261948 0.795013 0.079885
0.367582 0.907384 0.528948
0.269609 0.088835 0.306135
0.261579 0.924805 0.271969
0.449609 0.146415 0.278110
0.352101 0.907384 0.305396
0.216787 0.025000 0.343486
0.382290 0.025000 0.211229
0.511214 0.750856 0.413050
0.253043 0.211583 0.046000
0.327955 0.537438 0.326880
0.398546 0.916036 0.544093
0.431509 0.173237 0.195614
0.486487 0.588061 0.427220
0.445298 0.139752 0.315767
0.329256 0.975000 0.176133
0.130533 0.207835 0.274733
0.438170 0.195724 0.397139
0.528653 0.907384 0.310996
0.242735 0.098247 0.333309
0.324790 0.370674 0.185161
0.158378 0.796111 0.240754
0.301396 0.941174 0.557610
0.208927 0.138265 0.186948
0.469886 0.071418 0.490705
0.117765 0.151483 0.412093
0.469839 0.043983 0.490739
0.172929 0.807002 0.212205
0.169436 0.087286 0.073099
0.334367 0.550161 0.103790
0.092368 0.092616 0.288425
0.494996 0.645747 0.438658
0.304746 0.135534 0.110765
0.094264 0.907384 0.168326
0.332989 0.645963 0.194882
0.228491 0.975000 0.507761
0.461133 0.975000 0.205305
0.493438 0.975000 0.394127
0.106231 0.274679 0.397912
0.252818 0.122367 0.361928
0.316080 0.931744 0.285603
0.430109 0.348593 0.278670
0.451508 0.975000 0.468150
0.436732 0.466723 0.400976
0.280356 0.816346 0.071870
0.183459 0.086265 0.536056
0.442740 0.828276 0.342555
0.540940 0.071690 0.222587
0.509931 0.208948 0.458498
0.322436 0.687353 0.209689
0.566345 0.931743 0.298902
0.169376 0.782533 0.210901
0.563046 0.952776 0.288748
0.444296 0.085038 0.089670
0.294439 0.092616 0.261884
0.316329 0.092616 0.265896
0.251727 0.880036 0.184202
0.468619 0.356354 0.478442
0.146106 0.270373 0.352943
0.444710 0.092616 0.244529
0.143513 0.171063 0.340324
0.159888 0.699328 0.275754
0.309101 0.690454 0.087401
0.295022 0.207706 0.469274
0.162997 0.907384 0.437579
0.321179 0.929755 0.316329
0.326543 0.185077 0.344302
0.271112 0.975000 0.274305
0.301787 0.092616 0.358561
0.248102 0.975000 0.530310
0.307905 0.975000 0.118651
0.130950 0.533687 0.397146
0.175471 0.975000 0.138007
0.148465 0.047491 0.088336
0.112169 0.907384 0.195642
0.488904 0.320411 0.411941
0.122468 0.975000 0.114170
0.565722 0.091040 0.298861
0.421683 0.446301 0.419971
0.470831 0.975000 0.457530
0.428991 0.863969 0.269189
0.470743 0.975000 0.392294
0.059450 0.907384 0.382753
0.358741 0.122367 0.314492
0.195788 0.907384 0.095843
0.309579 0.172911 0.057589
0.348000 0.975000 0.457942
0.315752 0.859187 0.080363
0.318055 0.354978 0.172874
0.244809 0.258407 0.137024
0.261030 0.844225 0.429650
0.358264 0.025000 0.316722
0.377373 0.672490 0.194069
0.306365 0.975000 0.046657
0.060485 0.975000 0.289517
0.274028 0.540845 0.267371
0.427203 0.676855 0.261181
0.116592 0.350211 0.333589
0.270577 0.698684 0.091227
0.505861 0.907384 0.403166
0.416440 0.740610 0.439954
0.174614 0.092616 0.109908
0.301845 0.426437 0.233384
0.363727 0.115699 0.201140
0.488303 0.803594 0.439026
0.222684 0.975000 0.209467
0.142013 0.025000 0.225264
0.516947 0.947571 0.453900
0.100384 0.064585 0.123269
0.202412 0.975000 0.155941
0.130533 0.245097 0.304090
0.291505 0.764691 0.456713
0.229686 0.025000 0.220839
0.058386 0.200570 0.361132
0.403520 0.366043 0.238300
0.300190 0.975000 0.519909
0.326091 0.454597 0.058745
0.335955 0.501219 0.307364
0.181289 0.907384 0.284204
0.193719 0.211449 0.162993
0.127939 0.040608 0.495718
0.248768 0.092616 0.467526
0.109824 0.025000 0.157696
0.126144 0.700140 0.360703
0.312508 0.025000 0.225578
0.220707 0.025000 0.191356
0.393454 0.025000 0.403530
0.099260 0.910590 0.125642
0.504946 0.092616 0.322499
0.143645 0.594409 0.371138
0.501329 0.975000 0.416822
0.216022 0.907384 0.552843
0.346716 0.092616 0.486861
0.488872 0.118487 0.420271
0.515410 0.312645 0.450186
0.442398 0.897586 0.428417
0.433518 0.443967 0.396138
0.528468 0.047022 0.414763
0.503579 0.051261 0.466225
0.316440 0.957966 0.557610
0.309285 0.292331 0.061449
0.293511 0.780181 0.043526
0.391397 0.025000 0.154570
0.145584 0.975000 0.267126
0.270145 0.145896 0.441385
0.183984 0.308973 0.196831
0.464230 0.172473 0.319060
0.403623 0.130137 0.387142
0.464289 0.908099 0.496328
0.301997 0.393081 0.059707
0.403099 0.243031 0.156687
0.393372 0.092616 0.373133
0.540052 0.961774 0.382789
0.174606 0.720769 0.381939
0.338140 0.684107 0.285577
0.247423 0.636022 0.375900
0.303076 0.484588 0.334761
0.435197 0.853501 0.318663
0.142012 0.288690 0.281574
0.286785 0.130253 0.403218
0.408935 0.111069 0.289743
0.253183 0.128931 0.214082
0.315242 0.458082 0.119937
0.427347 0.365518 0.416347
0.333640 0.094639 0.247306
0.450702 0.907384 0.186130
0.493397 0.766098 0.462157
0.318571 0.398512 0.111413
0.459746 0.633625 0.441011
0.166930 0.221659 0.387022
0.170028 0.138916 0.238905
0.344059 0.092616 0.177472
0.127175 0.265359 0.391486
0.161297 0.329389 0.260239
0.288651 0.176253 0.050602
0.336801 0.675977 0.422326
0.158986 0.229968 0.362570
0.375089 0.092616 0.361862
0.106338 0.975000 0.305541
0.463729 0.548112 0.381570
0.298980 0.827473 0.147317
0.430010 0.092616 0.125379
0.370483 0.310962 0.432211
0.256482 0.299987 0.078133
0.479049 0.547585 0.465201
0.116420 0.113093 0.362191
0.113743 0.907384 0.226947
0.313608 0.536744 0.078577
0.266305 0.463320 0.272623
0.300895 0.099259 0.111598
0.391412 0.907384 0.461846
0.537254 0.046042 0.211245
0.353700 0.565302 0.297831
0.424979 0.680236 0.239904
0.247965 0.122367 0.279281
0.324255 0.304175 0.121533
0.244015 0.193141 0.093306
0.468113 0.277941 0.299152
0.379463 0.025000 0.266912
0.458668 0.967631 0.500412
0.349979 0.344043 0.421293
0.154719 0.025000 0.334910
0.247157 0.025000 0.345490
0.272101 0.380281 0.397721
0.386982 0.975000 0.220948
0.104782 0.101149 0.413875
0.427325 0.907384 0.079334
0.247667 0.092616 0.044792
0.311175 0.907384 0.477891
0.533344 0.928148 0.403434
0.142573 0.255331 0.236262
0.430612 0.312697 0.378538
0.342142 0.413523 0.234333
0.503282 0.025000 0.429312
0.369862 0.330935 0.420918
0.432497 0.311783 0.217694
0.268263 0.916691 0.363174
0.288728 0.589806 0.360171
0.306170 0.730925 0.450087
0.488622 0.266195 0.415608
0.270676 0.122367 0.263365
0.248520 0.092616 0.208368
0.324779 0.599673 0.060303
0.475134 0.092616 0.161194
0.290638 0.656010 0.410407
0.453114 0.821536 0.406880
0.367417 0.907384 0.103098
0.093173 0.735036 0.341195
0.279090 0.513599 0.105626
0.453393 0.461661 0.388751
0.210881 0.092616 0.505651
0.467356 0.478357 0.394278
0.433856 0.975000 0.082704
0.280207 0.947794 0.071692
0.321317 0.581336 0.238629
0.363477 0.831795 0.163556
0.266082 0.092616 0.556213
0.352836 0.441890 0.312417
0.484362 0.869755 0.424153
0.049567 0.092616 0.337379
0.425306 0.879359 0.304325
0.097444 0.092616 0.434518
0.290247 0.812420 0.108375
0.082893 0.289578 0.407883
0.480867 0.907384 0.231749
0.097976 0.092616 0.170743
0.351394 0.025000 0.124392
0.520417 0.025000 0.381589
0.279590 0.525536 0.088033
0.125807 0.698465 0.412930
0.274185 0.929561 0.288824
0.130507 0.025000 0.445043
0.299989 0.907384 0.282039
0.369411 0.165073 0.296313
0.103419 0.694839 0.414734
0.149740 0.025000 0.303800
0.295651 0.863180 0.427859
0.125107 0.246873 0.427664
0.509252 0.025000 0.402792
0.425713 0.545734 0.435637
0.565772 0.037704 0.299013
0.189995 0.092616 0.370660
0.459027 0.746559 0.312355
0.066208 0.175662 0.389583
0.078343 0.292223 0.366323
0.183594 0.092616 0.088784
0.257961 0.025000 0.404059
0.103159 0.542110 0.344802
0.240911 0.423315 0.275074
0.263154 0.482776 0.295899
0.154490 0.092616 0.116347
0.069914 0.092616 0.354367
0.324419 0.907384 0.248473
0.197490 0.025000 0.478399
0.172935 0.924900 0.072114
0.146225 0.719284 0.412107
0.053503 0.051522 0.211761
0.317638 0.286579 0.455992
0.292001 0.560972 0.247856
0.439446 0.907384 0.493279
0.320852 0.025000 0.179857
0.433929 0.731179 0.216647
0.483225 0.816191 0.419923
0.409939 0.025000 0.389261
0.364583 0.400463 0.361134
0.182573 0.907384 0.494864
0.489532 0.206774 0.375254
0.147146 0.736697 0.285949
0.129483 0.048951 0.102127
0.107077 0.855132 0.408629
0.215709 0.681621 0.193803
0.320479 0.092616 0.368988
0.356008 0.103340 0.362755
0.319352 0.483435 0.075264
0.505255 0.228455 0.465024
0.179644 0.092616 0.312186
0.274499 0.661811 0.093802
0.485923 0.368558 0.404006
0.364421 0.886920 0.199747
0.303878 0.371078 0.183260
0.202582 0.092616 0.347431
0.090672 0.868965 0.399637
0.201274 0.641955 0.281990
0.086829 0.509066 0.401659
0.332996 0.486228 0.273985
0.316577 0.025000 0.146115
0.227647 0.738878 0.157064
0.358140 0.388056 0.213101
0.211534 0.116323 0.368462
0.247831 0.975000 0.220710
0.385501 0.025000 0.341873
0.038224 0.975000 0.299399
0.051591 0.907384 0.336113
0.339287 0.181087 0.132516
0.290369 0.081857 0.060188
0.152262 0.716589 0.380264
0.405684 0.092616 0.437290
0.203116 0.975000 0.132644
0.341151 0.222642 0.122923
0.337417 0.182973 0.268206
0.447769 0.907384 0.256948
0.414415 0.092616 0.417422
0.280394 0.458886 0.334338
0.128197 0.975000 0.282856
0.405181 0.975000 0.440553
0.445482 0.318617 0.394174
0.085100 0.907384 0.323952
0.276500 0.025000 0.151967
0.370116 0.744603 0.437632
0.136222 0.356962 0.420251
0.305982 0.147418 0.445391
0.103505 0.679928 0.382957
0.136329 0.092616 0.454077
0.140650 0.975000 0.498234
0.113008 0.092616 0.298656
0.516087 0.066348 0.452867
0.187785 0.256150 0.421796
0.202121 0.907384 0.166199
0.220810 0.245868 0.142335
0.292200 0.092616 0.439064
0.419221 0.326238 0.210229
0.241445 0.656449 0.375173
0.429652 0.055361 0.079030
0.371063 0.025000 0.071849
0.087594 0.975000 0.443165
0.127522 0.282234 0.377833
0.102806 0.524050 0.399092
0.409716 0.025000 0.509268
0.344354 0.762333 0.084135
0.137972 0.184404 0.253052
0.493644 0.092616 0.430758
0.520245 0.907384 0.255129
0.280709 0.926621 0.260684
0.444035 0.587217 0.414639
0.534623 0.081978 0.395820
0.469620 0.907384 0.210183
0.327692 0.122367 0.314027
0.387651 0.664805 0.381950
0.461120 0.143133 0.398853
0.092005 0.975000 0.198440
0.380078 0.092616 0.305311
0.074304 0.975000 0.184466
0.087256 0.851949 0.385293
0.288807 0.907384 0.461123
0.297016 0.975000 0.458754
0.504053 0.025000 0.133303
0.303653 0.907384 0.306417
0.397401 0.759567 0.425067
0.244371 0.195166 0.072387
0.028159 0.948118 0.293438
0.204883 0.092616 0.090625
0.342565 0.025000 0.464647
0.252784 0.092616 0.446902
0.545856 0.975000 0.364246
0.422950 0.749547 0.397917
0.496714 0.358913 0.388539
0.363896 0.025000 0.453272
0.269277 0.094191 0.249131
0.484165 0.597752 0.394885
0.388164 0.092616 0.088845
0.435761 0.975000 0.134004
0.531270 0.026838 0.192827
0.433495 0.261156 0.443282
0.481389 0.138915 0.405861
0.055574 0.235958 0.402066
0.332440 0.451463 0.105963
0.521298 0.092616 0.287203
0.440272 0.837598 0.260177
0.175133 0.025000 0.242151
0.285491 0.686727 0.260513
0.117951 0.907384 0.320200
0.303933 0.750928 0.037081
0.245427 0.141988 0.235066
0.327558 0.092616 0.391130
0.365349 0.975000 0.094478
0.302070 0.605859 0.371705
0.483104 0.540366 0.444177
0.486802 0.046808 0.478415
0.242133 0.667280 0.187548
0.329348 0.122530 0.174532
0.332212 0.916241 0.226359
0.533926 0.027779 0.397966
0.333724 0.473946 0.321016
0.367893 0.126345 0.408013
0.043612 0.026465 0.356764
0.315508 0.122367 0.213447
0.134596 0.092616 0.150588
0.118060 0.180361 0.340472
0.471540 0.907384 0.277284
0.412251 0.840093 0.207162
0.461311 0.907384 0.426854
0.385007 0.879350 0.202863
0.346307 0.924111 0.273800
0.040954 0.972225 0.346711
0.465864 0.195886 0.477938
0.131863 0.025000 0.141391
0.322513 0.801374 0.072341
0.435501 0.177205 0.450259
0.365249 0.975000 0.316352
0.224279 0.224715 0.141208
0.172092 0.864074 0.274286
0.320320 0.590877 0.271425
0.260870 0.688746 0.226769
0.250985 0.581443 0.264062
0.073747 0.597543 0.385640
0.451875 0.065825 0.503791
0.496274 0.547803 0.397756
0.439193 0.201744 0.474995
0.313247 0.610558 0.347818
0.209983 0.631527 0.301823
0.415060 0.975000 0.117061
0.204062 0.681467 0.387936
0.174021 0.092616 0.458669
0.129360 0.857207 0.387031
0.094700 0.092616 0.365188
0.216175 0.118442 0.215315
0.260844 0.907384 0.080213
0.285159 0.113029 0.109963
0.336824 0.446519 0.258521
0.102465 0.072791 0.413122
0.204599 0.373975 0.243395
0.179859 0.827386 0.207232
0.201938 0.025000 0.381212
0.275348 0.300087 0.051325
0.535651 0.913978 0.204435
0.406015 0.894157 0.315239
0.386728 0.696202 0.409649
0.159483 0.136607 0.319100
0.481884 0.025000 0.330749
0.284993 0.975000 0.495688
0.337837 0.344345 0.167111
0.096597 0.650888 0.412995
0.068619 0.764609 0.363442
0.297915 0.025000 0.382969
0.201856 0.041703 0.549423
0.448341 0.092616 0.319909
0.099608 0.907384 0.147919
0.225611 0.411248 0.283934
0.142161 0.361028 0.395133
0.423454 0.025000 0.338780
0.376012 0.216683 0.141048
0.473117 0.907384 0.300294
0.115544 0.025000 0.462499
0.457053 0.167237 0.338045
0.336146 0.025000 0.286404
0.146587 0.092616 0.353980
0.142203 0.975000 0.121852
0.090192 0.870945 0.376504
0.431323 0.025000 0.314312
0.315565 0.896864 0.397726
0.305313 0.248807 0.468192
0.211087 0.131267 0.343879
0.172859 0.975000 0.479838
0.291591 0.975000 0.391946
0.521446 0.975000 0.242866
0.069863 0.736092 0.418904
0.275853 0.736346 0.129745
0.126127 0.335333 0.362452
0.066957 0.975000 0.383813
0.077614 0.025000 0.196044
0.238571 0.320675 0.431868
0.182820 0.124195 0.252820
0.125278 0.093483 0.407757
0.232446 0.025000 0.532335
0.145075 0.025000 0.269679
0.123397 0.907384 0.433458
0.291523 0.025000 0.332971
0.247417 0.975000 0.557109
0.243598 0.685650 0.328357
0.442529 0.329511 0.269774
0.384539 0.265836 0.441116
0.443374 0.820666 0.240592
0.331598 0.621560 0.347639
0.506983 0.025000 0.189273
0.345924 0.907384 0.085527
0.324801 0.788098 0.449583
0.469278 0.975000 0.363798
0.233007 0.092616 0.291456
0.095257 0.025000 0.416780
0.239672 0.291192 0.443252
0.491905 0.711681 0.449578
0.282627 0.624678 0.232736
0.271767 0.209210 0.033420
0.351970 0.975000 0.046094
0.390011 0.907384 0.340719
0.555980 0.042303 0.330092
0.540390 0.025000 0.225214
0.321569 0.172725 0.458686
0.269943 0.975000 0.303883
0.256677 0.596973 0.319784
0.122001 0.907384 0.291252
0.076833 0.092616 0.169941
0.492618 0.975000 0.225593
0.204745 0.025000 0.281824
0.336491 0.449487 0.078298
0.293834 0.092616 0.172223
0.204808 0.234848 0.153008
0.323828 0.975000 0.453460
0.478637 0.943498 0.439672
0.200289 0.025000 0.323529
0.263151 0.558782 0.266431
0.393871 0.267119 0.157119
0.058202 0.035789 0.401669
0.126004 0.950818 0.494559
0.069183 0.040019 0.163504
0.150805 0.543611 0.395557
0.325098 0.521989 0.265972
0.251929 0.180494 0.318071
0.160693 0.907384 0.487514
0.087271 0.631569 0.383625
0.333894 0.975000 0.098423
0.344281 0.122367 0.257231
0.112385 0.027677 0.484418
0.199782 0.092616 0.204030
0.066362 0.955694 0.175861
0.276587 0.192038 0.335816
0.341765 0.406866 0.367213
0.349558 0.912987 0.363765
0.135469 0.092616 0.320406
0.525822 0.975000 0.417687
0.554460 0.925492 0.338446
0.266302 0.503958 0.289977
0.425610 0.279655 0.402681
0.259352 0.232690 0.042636
0.483597 0.892360 0.430074
0.316360 0.907384 0.529218
0.515151 0.194083 0.431189
0.433447 0.336714 0.252459
0.442789 0.100133 0.408647
0.428018 0.975000 0.341314
0.143056 0.762518 0.267963
0.127800 0.559167 0.381057
0.307334 0.353412 0.421807
0.143969 0.768436 0.322520
0.556999 0.944476 0.270138
0.349277 0.975000 0.480162
0.287252 0.183804 0.352287
0.451463 0.763922 0.355861
0.153483 0.193694 0.416523
0.132027 0.092616 0.284787
0.518990 0.088764 0.443932
0.517398 0.975000 0.187046
0.470797 0.204548 0.266878
0.383751 0.621522 0.320329
0.370502 0.704513 0.423319
0.437120 0.337709 0.319154
0.256143 0.171226 0.345429
0.103374 0.340814 0.347553
0.335096 0.607453 0.265299
0.360978 0.684091 0.174153
0.291970 0.122367 0.310729
0.428896 0.025000 0.117642
0.384115 0.092616 0.326498
0.123735 0.028187 0.106303
0.453344 0.244575 0.212987
0.148511 0.212776 0.219385
0.255826 0.336173 0.426458
0.371055 0.368514 0.388397
0.271463 0.289917 0.092070
0.047240 0.975000 0.259621
0.335858 0.134903 0.396517
0.397217 0.025000 0.069549
0.230927 0.975000 0.146138
0.351355 0.223738 0.104320
0.301015 0.070210 0.556709
0.147289 0.789965 0.314005
0.293342 0.353713 0.169343
0.201346 0.092616 0.326012
0.150989 0.813948 0.317092
0.035548 0.050602 0.331949
0.462162 0.185089 0.347893
0.526127 0.092616 0.414342
0.547579 0.042996 0.355946
0.476757 0.092616 0.139636
0.334156 0.975000 0.428532
0.492789 0.768165 0.388783
0.304719 0.092616 0.461048
0.348927 0.159857 0.357687
0.149107 0.801749 0.295488
0.417236 0.184942 0.437140
0.425979 0.343868 0.349832
0.148646 0.417188 0.393092
0.288671 0.493025 0.074094
0.236164 0.975000 0.166617
0.500294 0.346134 0.440813
0.256495 0.430961 0.256730
0.338596 0.907384 0.416118
0.322883 0.292230 0.080142
0.082650 0.261343 0.380839
0.340314 0.162024 0.245683
0.308219 0.195957 0.340729
0.251758 0.907384 0.486328
0.103529 0.710968 0.429479
0.498557 0.092616 0.452240
0.252085 0.025000 0.138612
0.330646 0.025000 0.125198
0.138730 0.430416 0.416166
0.032345 0.025000 0.313632
0.424393 0.975000 0.478009
0.327479 0.792626 0.101565
0.441918 0.561650 0.412304
0.222767 0.076976 0.042258
0.357482 0.667187 0.217991
0.085409 0.532931 0.388253
0.297607 0.592983 0.258002
0.418771 0.772634 0.436355
0.084297 0.120271 0.398148
0.254499 0.907384 0.406025
0.098814 0.907384 0.300715
0.166693 0.975000 0.499861
0.369967 0.131133 0.230913
0.119985 0.605405 0.366217
0.450019 0.397738 0.395148
0.135949 0.907384 0.229298
0.264822 0.156749 0.238327
0.121000 0.629880 0.373975
0.302559 0.025000 0.405044
0.501598 0.179944 0.440132
0.260293 0.727565 0.115860
0.233652 0.595417 0.311204
0.451401 0.975000 0.240190
0.310298 0.025000 0.291166
0.440203 0.722426 0.464806
0.388054 0.730761 0.168731
0.348152 0.240537 0.070023
0.437093 0.339449 0.413451
0.182109 0.361123 0.277032
0.225072 0.887066 0.211210
0.046512 0.047113 0.233277
0.270210 0.351610 0.419224
0.272252 0.092616 0.200558
0.415370 0.907384 0.124522
0.346062 0.092616 0.142404
0.234750 0.359341 0.398710
0.124769 0.911180 0.493661
0.467929 0.260733 0.324925
0.101917 0.025000 0.243015
0.238980 0.153049 0.435673
0.295063 0.801930 0.141837
0.233842 0.943756 0.557610
0.141621 0.025000 0.490798
0.395808 0.738796 0.421285
0.315769 0.648890 0.057021
0.440631 0.695407 0.318444
0.388876 0.025000 0.234997
0.395637 0.296715 0.423539
0.391346 0.657720 0.286168
0.362934 0.975000 0.359487
0.461566 0.092616 0.232081
0.525921 0.933251 0.174490
0.344439 0.226212 0.054766
0.424877 0.419003 0.413818
0.104764 0.925260 0.366677
0.470194 0.092616 0.410575
0.310203 0.669755 0.195483
0.400499 0.975000 0.395962
0.486753 0.180372 0.391400
0.511266 0.975000 0.332310
0.276463 0.947633 0.094264
0.314277 0.092616 0.418486
0.286946 0.259801 0.467322
0.520216 0.907384 0.282890
0.430259 0.211182 0.376922
0.025106 0.078262 0.299809
0.277759 0.439542 0.246674
0.375399 0.289181 0.438278
0.291261 0.695933 0.106776
0.311473 0.025000 0.074155
0.400694 0.890405 0.348154
0.388887 0.975000 0.107905
0.498020 0.907384 0.279052
0.125092 0.772954 0.347773
0.225604 0.975000 0.321990
0.424952 0.975000 0.266352
0.102952 0.695794 0.359145
0.257673 0.907384 0.056957
0.391375 0.025000 0.483239
0.097230 0.907384 0.277069
0.471290 0.025000 0.148587
0.394384 0.883920 0.370573
0.374719 0.702556 0.172528
0.390204 0.092616 0.410482
0.130240 0.582446 0.382203
0.390743 0.092616 0.280944
0.110541 0.907384 0.339992
0.245546 0.033419 0.042258
0.270535 0.203816 0.465928
0.335622 0.975000 0.400694
0.321523 0.065817 0.556709
0.464191 0.907384 0.379443
0.360774 0.907384 0.188937
0.347115 0.884441 0.406207
0.332195 0.397021 0.206457
0.264572 0.043117 0.042258
0.251467 0.755941 0.063471
0.139719 0.211119 0.239132
0.126077 0.148980 0.367845
0.234605 0.607909 0.332826
0.533080 0.964614 0.196523
0.200541 0.886410 0.352205
0.516013 0.968143 0.456775
0.450996 0.783452 0.343565
0.325359 0.025000 0.305711
0.177695 0.696826 0.363629
0.216458 0.783876 0.163804
0.242501 0.092616 0.097737
0.457770 0.298407 0.388154
0.396766 0.683781 0.241531
0.335613 0.598313 0.299915
0.318215 0.025000 0.491314
0.304318 0.226159 0.124102
0.510911 0.975000 0.380829
0.296724 0.650630 0.387454
0.222535 0.371372 0.375834
0.236841 0.111721 0.210802
0.448663 0.746164 0.231717
0.350528 0.129231 0.423234
0.497407 0.437057 0.449083
0.536852 0.092616 0.249027
0.343712 0.170770 0.455205
0.127234 0.246239 0.347909
0.202187 0.647872 0.331798
0.214175 0.025000 0.515577
0.493917 0.975000 0.281123
0.136909 0.092616 0.128450
0.122657 0.907384 0.411572
0.501403 0.025000 0.158228
0.406922 0.092616 0.264795
0.361801 0.160612 0.442394
0.220338 0.805690 0.164839
0.317110 0.907384 0.169096
0.030288 0.092362 0.283210
0.091235 0.453479 0.422976
0.311371 0.025000 0.098771
0.466936 0.223422 0.344338
0.317724 0.907384 0.508300
0.267159 0.092616 0.326911
0.500632 0.778324 0.446880
0.147285 0.175660 0.404926
0.081826 0.185745 0.342713
0.420088 0.241475 0.458774
0.344751 0.062023 0.042258
0.267610 0.686904 0.271814
0.337194 0.362815 0.090930
0.460853 0.582940 0.441214
0.516024 0.930835 0.144031
0.070547 0.044075 0.439662
0.475457 0.282424 0.432223
0.352398 0.819948 0.440294
0.261413 0.824432 0.439960
0.305938 0.122367 0.350770
0.438504 0.248388 0.466257
0.194183 0.758452 0.413818
0.181636 0.975000 0.159457
0.125611 0.927634 0.398979
0.446279 0.939678 0.091356
0.317610 0.907384 0.208745
0.206564 0.092616 0.534460
0.228242 0.907384 0.493395
0.210758 0.660860 0.353598
0.253541 0.694860 0.427726
0.498853 0.907384 0.253314
0.483395 0.132032 0.442000
0.440375 0.784873 0.370090
0.480314 0.092616 0.117570
0.374160 0.025000 0.435064
0.186248 0.025000 0.262974
0.130533 0.248773 0.327514
0.357975 0.122367 0.290729
0.242790 0.921124 0.290053
0.260433 0.092616 0.227095
0.462836 0.091593 0.495827
0.412427 0.907384 0.184917
0.485757 0.562268 0.434432
0.533678 0.060188 0.398730
0.095406 0.092616 0.219704
0.244592 0.122367 0.303623
0.167987 0.855689 0.319398
0.382138 0.199613 0.446546
0.142026 0.702871 0.394133
0.071992 0.975000 0.317167
0.433827 0.398298 0.409113
0.314390 0.647196 0.116313
0.267305 0.194954 0.286191
0.276559 0.122367 0.383286
0.155019 0.351440 0.362603
0.352692 0.092616 0.061891
0.271786 0.122011 0.096589
0.413558 0.975000 0.068395
0.254251 0.025000 0.523404
0.450803 0.598215 0.460641
0.406082 0.907384 0.204887
0.533574 0.025000 0.323038
0.214786 0.107240 0.337824
0.276097 0.907384 0.177317
0.089989 0.429115 0.425365
0.519409 0.312418 0.413785
0.454247 0.802744 0.452697
0.271228 0.025000 0.449288
0.151219 0.291034 0.348973
0.096969 0.258061 0.358195
0.462150 0.383306 0.440143
0.362150 0.224342 0.459355
0.330164 0.686267 0.232836
0.428496 0.792863 0.424202
0.307003 0.177195 0.358573
0.279375 0.896666 0.072441
0.144115 0.907384 0.153858
0.074947 0.361199 0.377103
0.506305 0.092616 0.195350
0.297650 0.975000 0.232816
0.184053 0.844379 0.374365
0.324709 0.945917 0.043160
0.126634 0.536179 0.364030
0.283510 0.824836 0.446931
0.296973 0.312261 0.028886
0.339255 0.768309 0.103668
0.189649 0.681578 0.372854
0.306048 0.122367 0.379746
0.058310 0.025000 0.313797
0.280605 0.975000 0.372403
0.243545 0.907384 0.426909
0.251865 0.025000 0.117425
0.362605 0.164271 0.334186
0.542490 0.907384 0.288400
0.346010 0.759773 0.140652
0.363744 0.636070 0.330728
0.428701 0.856611 0.341900
0.477625 0.092616 0.317169
0.275770 0.064857 0.042258
0.121200 0.462288 0.420957
0.185339 0.131049 0.371504
0.438278 0.681819 0.293343
0.229962 0.907384 0.245319
0.347311 0.361352 0.408171
0.396625 0.636597 0.313357
0.219701 0.749777 0.434419
0.100087 0.092616 0.195638
0.152746 0.025000 0.381679
0.412853 0.975000 0.091894
0.261554 0.599614 0.265179
0.206398 0.394232 0.300837
0.102726 0.975000 0.386380
0.284069 0.500983 0.327866
0.087740 0.092616 0.245724
0.261274 0.025000 0.251943
0.089589 0.947055 0.397205
0.520755 0.092616 0.362456
0.298187 0.025000 0.482116
0.189211 0.907384 0.149876
0.164669 0.739418 0.222429
0.312166 0.217001 0.144339
0.493520 0.907384 0.373019
0.346626 0.312932 0.111458
0.122838 0.837390 0.402659
0.182352 0.944040 0.065272
0.406680 0.707006 0.192845
0.279890 0.370243 0.184403
0.172599 0.907560 0.528412
0.488555 0.179744 0.457271
0.202316 0.092616 0.146566
0.263516 0.907384 0.465049
0.259186 0.772156 0.447802
0.316289 0.786810 0.118132
0.412964 0.211735 0.162384
0.434908 0.648431 0.403184
0.437181 0.115658 0.430231
0.353943 0.220109 0.075908
0.331054 0.469388 0.086758
0.475164 0.378662 0.422694
0.237324 0.975000 0.074951
0.195927 0.828638 0.193589
0.096043 0.895866 0.370326
0.360852 0.339367 0.173423
0.317743 0.171870 0.106850
0.349111 0.025000 0.524368
0.336978 0.182404 0.100383
0.348107 0.975000 0.158201
0.321006 0.975000 0.232763
0.170373 0.678951 0.306201
0.127645 0.690191 0.379140
0.313361 0.171137 0.133787
0.522863 0.957266 0.435691
0.502748 0.730323 0.450090
0.352455 0.025000 0.410509
0.317095 0.615438 0.244114
0.271617 0.145526 0.386884
0.389951 0.975000 0.086878
0.194006 0.025000 0.452606
0.467117 0.975000 0.173138
0.290634 0.233547 0.469735
0.222603 0.633006 0.284401
0.330603 0.975000 0.293321
0.419938 0.313032 0.460836
0.370667 0.092616 0.101897
0.314476 0.025000 0.437636
0.454980 0.301804 0.323231
0.472385 0.540146 0.399781
0.095874 0.441247 0.347784
0.335047 0.025000 0.325589
0.424498 0.907384 0.263062
0.124073 0.907384 0.362201
0.256886 0.592005 0.285639
0.193830 0.371078 0.262361
0.421572 0.245787 0.397158
0.320081 0.475212 0.107647
0.370315 0.649015 0.251996
0.407252 0.025000 0.432733
0.326580 0.925324 0.557610
0.437181 0.167871 0.425251
0.197638 0.907384 0.301822
0.214601 0.282076 0.435440
0.454308 0.786966 0.267023
0.417998 0.907384 0.299094
0.100145 0.025000 0.138987
0.352921 0.975000 0.379652
0.067351 0.773756 0.400342
0.312056 0.129035 0.065298
0.469838 0.239812 0.330683
0.289761 0.975000 0.284267
0.487037 0.092616 0.219884
0.334794 0.907384 0.180862
0.439619 0.152924 0.365341
0.162141 0.177253 0.202193
0.139287 0.171648 0.367699
0.312213 0.632368 0.388285
0.426074 0.600683 0.421998
0.388303 0.402372 0.306557
0.473163 0.700815 0.398461
0.469585 0.025000 0.245730
0.120141 0.487128 0.380378
0.367252 0.907384 0.478065
0.238225 0.025000 0.244907
0.352726 0.902379 0.215216
0.261911 0.907384 0.334925
0.157111 0.327046 0.283531
0.440710 0.450855 0.460960
0.486866 0.975000 0.336112
0.239112 0.975000 0.412557
0.269265 0.683306 0.370184
0.227034 0.092616 0.347672
0.128440 0.080524 0.496082
0.100360 0.294225 0.425732
0.275923 0.025000 0.269167
0.288623 0.025000 0.363775
0.494900 0.907384 0.321557
0.269598 0.535249 0.319996
0.440533 0.975000 0.284510
0.345102 0.578175 0.257713
0.468325 0.092616 0.474161
0.063102 0.025000 0.254161
0.553746 0.064736 0.336968
0.389408 0.025000 0.377932
0.275227 0.485118 0.097623
0.202618 0.688304 0.291805
0.438232 0.025000 0.239007
0.359947 0.761664 0.446317
0.199662 0.214636 0.434758
0.216079 0.895963 0.234533
0.439820 0.511493 0.427388
0.261475 0.128434 0.399608
0.120010 0.907384 0.171191
0.170348 0.345090 0.288446
0.262021 0.742769 0.144972
0.513564 0.909490 0.140242
0.155274 0.907384 0.086846
0.152248 0.025000 0.158461
0.340702 0.975000 0.536912
0.271265 0.907384 0.211349
0.427739 0.764545 0.457109
0.030104 0.961292 0.313320
0.293654 0.907384 0.527416
0.322326 0.975000 0.474476
0.295869 0.025000 0.201109
0.532835 0.942314 0.195768
0.049539 0.207352 0.384465
0.348267 0.621343 0.333708
0.173376 0.025000 0.315514
0.379168 0.975000 0.394412
0.052652 0.934937 0.218055
0.446950 0.374254 0.412659
0.454931 0.692665 0.410346
0.219026 0.724378 0.426097
0.174730 0.689347 0.288106
0.375666 0.929293 0.043160
0.427030 0.025000 0.361098
0.465421 0.530216 0.437111
0.398388 0.784267 0.420097
0.377901 0.662356 0.237657
0.271899 0.268254 0.083884
0.343217 0.315567 0.085237
0.491886 0.293444 0.416311
0.143440 0.753117 0.300127
0.369911 0.907384 0.331411
0.409655 0.907384 0.356465
0.514379 0.975000 0.294148
0.186632 0.862771 0.358026
0.261327 0.670449 0.178528
0.108710 0.092616 0.238206
0.129842 0.092616 0.232766
0.274950 0.924485 0.043160
0.150517 0.025000 0.130982
0.259053 0.907384 0.164287
0.102540 0.398306 0.422776
0.284593 0.364776 0.049429
0.290035 0.303284 0.130255
0.501740 0.356427 0.462980
0.293150 0.122367 0.215122
0.477427 0.092616 0.278034
0.095287 0.907384 0.210766
0.386620 0.890837 0.225788
0.256736 0.665112 0.204538
0.195938 0.907384 0.537694
0.195284 0.686966 0.335570
0.383900 0.221478 0.446797
0.362785 0.635636 0.266582
0.251229 0.870098 0.413150
0.360165 0.783652 0.442274
0.465541 0.246849 0.241495
0.106386 0.309117 0.336892
0.117417 0.069486 0.110894
0.275499 0.295865 0.112435
0.410090 0.658901 0.252792
0.265648 0.975000 0.105950
0.379638 0.346750 0.190522
0.451347 0.777443 0.246025
0.084295 0.118659 0.376918
0.054407 0.220414 0.365857
0.421331 0.176922 0.414080
0.421363 0.975000 0.318429
0.415442 0.658726 0.313729
0.171021 0.134062 0.348721
0.338069 0.025000 0.149380
0.144553 0.246798 0.364124
0.262535 0.473981 0.083043
0.433689 0.092616 0.302004
0.450277 0.294916 0.357143
0.126009 0.289870 0.414658
0.379375 0.899132 0.359015
0.248952 0.025000 0.324054
0.141547 0.287144 0.324142
0.133691 0.907384 0.206999
