0.709154 0.327181 0.109681
0.781403 0.192963 0.066393
0.699468 0.367628 0.082895
0.727090 0.320656 0.108850
0.505015 0.412382 0.048661
0.592461 0.157611 0.089117
0.329262 0.386983 0.119749
0.899712 0.044137 0.127172
0.234528 0.443035 0.086282
0.510653 0.340163 0.030427
0.420623 0.358426 0.105575
0.149271 0.355661 0.086883
0.540889 0.408538 0.148515
0.485536 0.359417 0.097888
0.813508 0.192516 0.072688
0.625038 0.330348 0.149714
0.842965 0.061138 0.125763
0.875431 0.265884 0.074439
0.221137 0.399962 0.085348
0.161709 0.413238 0.084417
0.537151 0.254565 0.092474
0.640819 0.368778 0.116300
0.829982 0.041237 0.061233
0.191873 0.443035 0.100826
0.431508 0.430928 0.078784
0.899528 0.027167 0.097546
0.586013 0.239806 0.091119
0.502405 0.434909 0.076554
0.146487 0.433396 0.082460
0.161437 0.378747 0.091025
0.929253 0.129114 0.071270
0.803124 0.281543 0.110063
0.923535 0.035965 0.120422
0.365042 0.414913 0.118509
0.620160 0.457388 0.098474
0.714542 0.279794 0.078567
0.230554 0.391534 0.075840
0.416752 0.445500 0.102336
0.596297 0.361056 0.113423
0.709990 0.267295 0.112537
0.815091 0.237260 0.077667
0.817700 0.071152 0.129192
0.776951 0.239881 0.075480
0.641556 0.319413 0.147774
0.214905 0.420361 0.088393
0.539919 0.357391 0.112634
0.415225 0.421646 0.094606
0.321570 0.390313 0.085940
0.485536 0.363016 0.039610
0.677732 0.238204 0.114482
0.649042 0.361010 0.120794
0.119158 0.435089 0.108133
0.495230 0.406081 0.150400
0.587480 0.362346 0.025899
0.733449 0.277838 0.111994
0.784157 0.308637 0.084067
0.653768 0.437762 0.076516
0.746642 0.158495 0.106482
0.786929 0.168705 0.065479
0.627088 0.387600 0.074771
0.163460 0.418472 0.115620
0.964127 0.056140 0.070372
0.618031 0.342474 0.027580
0.701583 0.421019 0.084988
0.058460 0.412194 0.119855
0.557971 0.416250 0.127920
0.805141 0.155018 0.118247
0.790693 0.058523 0.125417
0.613936 0.228418 0.077229
0.452830 0.278605 0.095665
0.899388 0.149882 0.067125
0.761168 0.048072 0.096136
0.519277 0.363545 0.112274
0.615960 0.137925 0.090873
0.581030 0.157092 0.088422
0.548564 0.351694 0.112492
0.570742 0.414055 0.135936
0.242652 0.369515 0.102244
0.291614 0.385976 0.112398
0.959676 0.063744 0.066139
0.391669 0.389680 0.115097
0.759684 0.124733 0.063510
0.836839 0.134396 0.068565
0.526070 0.443087 0.115220
0.462325 0.359660 0.094939
0.840329 0.104568 0.119577
0.619426 0.253640 0.113490
0.520754 0.297803 0.101117
0.560668 0.349613 0.112552
0.848481 0.172663 0.119178
0.585143 0.361877 0.166689
0.331371 0.375473 0.107368
0.928617 0.156483 0.090454
0.890926 0.140654 0.067235
0.050832 0.426613 0.100438
0.511075 0.418227 0.078992
0.445706 0.289688 0.107542
0.739197 0.175246 0.097293
0.412742 0.428212 0.082535
0.649042 0.343833 0.063636
0.203970 0.396096 0.069008
0.898008 0.222223 0.107000
0.449230 0.355986 0.086100
0.485536 0.359521 0.152561
0.485536 0.410326 0.120558
0.821276 0.115768 0.125551
0.258511 0.394932 0.105010
0.717115 0.321422 0.109441
0.310909 0.359917 0.096863
0.649042 0.348395 0.036932
0.509777 0.348623 0.078854
0.918478 0.170411 0.113690
0.564073 0.149174 0.088422
0.902217 0.027218 0.079098
0.308515 0.378793 0.100911
0.604660 0.357561 0.166776
0.075316 0.406483 0.085103
0.667610 0.270018 0.114244
0.109719 0.348252 0.088792
0.543904 0.186699 0.088422
0.832975 0.071572 0.126672
0.751457 0.314618 0.108319
0.459878 0.387024 0.072068
0.577241 0.364051 0.077352
0.069735 0.397043 0.117123
0.816403 0.178913 0.117220
0.582475 0.390814 0.034701
0.770609 0.048850 0.121021
0.556937 0.451436 0.074184
0.738559 0.313487 0.109178
0.649042 0.362197 0.059621
0.716540 0.203545 0.114877
0.441998 0.429815 0.077253
0.767477 0.059349 0.117928
0.381431 0.407374 0.084562
0.511637 0.457388 0.112556
0.699092 0.221066 0.115855
0.314095 0.393606 0.075047
0.359592 0.417355 0.075148
0.537107 0.386076 0.157439
0.268321 0.426952 0.098031
0.521039 0.309712 0.079901
0.723074 0.213026 0.116695
0.504340 0.330139 0.111264
0.799708 0.133152 0.064350
0.676617 0.421254 0.108576
0.329189 0.397300 0.117361
0.536313 0.290476 0.080415
0.499296 0.310963 0.080060
0.519531 0.305042 0.138999
0.845917 0.225707 0.068946
0.603987 0.319045 0.113365
0.444882 0.345539 0.105498
0.928488 0.118041 0.121504
0.123972 0.404565 0.074462
0.944605 0.115980 0.109186
0.324309 0.413155 0.106504
0.854815 0.235642 0.119669
0.464319 0.365618 0.085320
0.025041 0.390847 0.070242
0.910916 0.146690 0.066787
0.649024 0.358620 0.025314
0.231374 0.396817 0.085598
0.737532 0.208195 0.070983
0.620493 0.413725 0.052152
0.867486 0.284494 0.078818
0.192120 0.360336 0.096760
0.735182 0.313517 0.081295
0.203770 0.418579 0.115570
0.808759 0.295107 0.097073
0.940622 0.126071 0.099031
0.739484 0.101658 0.061964
0.440616 0.420835 0.102189
0.343619 0.375219 0.106764
0.795042 0.224515 0.076374
0.896470 0.145542 0.124415
0.263662 0.442829 0.108900
0.811733 0.261727 0.079184
0.839780 0.026018 0.112124
0.557940 0.404124 0.040328
0.522247 0.399350 0.155565
0.644164 0.298734 0.086526
0.628764 0.300321 0.084050
0.915341 0.113815 0.126465
0.448178 0.369236 0.086087
0.792295 0.069604 0.060278
0.649042 0.383517 0.047213
0.234796 0.403179 0.105689
0.871795 0.194905 0.066234
0.940500 0.126379 0.085520
0.804147 0.104201 0.123205
0.306009 0.432107 0.082564
0.529466 0.338851 0.078757
0.877680 0.228725 0.120254
0.610952 0.182409 0.098850
0.569432 0.368744 0.030193
0.617784 0.308513 0.143524
0.721487 0.429126 0.103410
0.397379 0.345076 0.090619
0.025012 0.419191 0.106323
0.727704 0.287292 0.111235
0.122714 0.378561 0.092405
0.103206 0.431159 0.082878
0.697379 0.381591 0.089720
0.444072 0.306134 0.081433
0.080371 0.387380 0.119718
0.173932 0.381869 0.115930
0.593459 0.236360 0.078573
0.386928 0.360500 0.096854
0.172895 0.410377 0.084630
0.215368 0.407511 0.116099
0.314107 0.427232 0.095761
0.825273 0.221221 0.120933
0.186845 0.431890 0.082581
0.038216 0.421702 0.096542
0.504061 0.264835 0.097184
0.307901 0.443035 0.099991
0.397412 0.419231 0.085810
0.893873 0.216015 0.115355
0.794709 0.271238 0.078987
0.200629 0.409550 0.084506
0.616367 0.393933 0.115097
0.088799 0.376681 0.094583
0.094647 0.441501 0.086530
0.496327 0.319134 0.110830
0.506668 0.430657 0.084986
0.524588 0.453431 0.116729
0.357030 0.432796 0.108090
0.376808 0.443035 0.095051
0.612687 0.364495 0.165060
0.513120 0.286956 0.109802
0.649042 0.330197 0.139224
0.578410 0.416746 0.060006
0.794779 0.211694 0.113786
0.203282 0.402061 0.105333
0.778946 0.034924 0.068665
0.629608 0.403607 0.152298
0.658783 0.230901 0.115653
0.649042 0.361832 0.036938
0.854387 0.126626 0.066902
0.583423 0.335414 0.078301
0.522674 0.373597 0.033451
0.557040 0.292266 0.110475
0.818774 0.148188 0.118947
0.328107 0.424026 0.108448
0.917418 0.101138 0.066068
0.485536 0.323425 0.113841
0.217280 0.390348 0.070501
0.610602 0.421568 0.067007
0.730904 0.218535 0.072108
0.681385 0.332528 0.077926
0.496387 0.365048 0.080302
0.184694 0.365329 0.104060
0.117847 0.380228 0.114378
0.605935 0.430555 0.108016
0.312682 0.383633 0.086479
0.759196 0.067800 0.082029
0.881419 0.248572 0.103336
0.485536 0.365563 0.135274
0.698535 0.214275 0.100000
0.612907 0.367434 0.029314
0.818857 0.289553 0.092688
0.265169 0.378375 0.097701
0.366161 0.388498 0.086086
0.529056 0.330937 0.150439
0.726843 0.202466 0.117516
0.855362 0.196504 0.117943
0.267194 0.401467 0.122891
0.523386 0.394765 0.034582
0.216981 0.375844 0.108175
0.690895 0.356311 0.110132
0.543969 0.314563 0.111123
0.430269 0.360871 0.096641
0.697524 0.229379 0.074497
0.909917 0.162612 0.067454
0.909268 0.068115 0.128862
0.325453 0.363726 0.104937
0.161350 0.442652 0.081712
0.256858 0.410470 0.084311
0.279116 0.432612 0.082523
0.757503 0.084723 0.100845
0.766176 0.041898 0.069626
0.674012 0.372388 0.078187
0.588277 0.398949 0.155873
0.536407 0.378728 0.077579
0.365303 0.427174 0.095364
0.527896 0.288231 0.110011
0.788244 0.204897 0.122215
0.543970 0.169906 0.100802
0.754293 0.248353 0.115029
0.499180 0.457388 0.103355
0.711398 0.331890 0.080972
0.733716 0.196133 0.076102
0.197561 0.442840 0.108901
0.466483 0.275318 0.095284
0.921523 0.220712 0.068260
0.332027 0.441588 0.081798
0.439528 0.433518 0.113547
0.485536 0.331322 0.091453
0.743419 0.137701 0.065632
0.306741 0.412196 0.077925
0.649042 0.425585 0.095012
0.224487 0.346302 0.089662
0.590268 0.389177 0.157517
0.757622 0.115885 0.079877
0.455187 0.454219 0.073705
0.213910 0.395639 0.104745
0.133998 0.396395 0.074337
0.531489 0.267584 0.109317
0.230067 0.409108 0.084421
0.513719 0.274890 0.081218
0.455664 0.308437 0.081071
0.485536 0.418868 0.085319
0.461331 0.387047 0.107098
0.634156 0.169813 0.090563
0.720863 0.201857 0.071569
0.813254 0.025508 0.105846
0.620412 0.260989 0.076463
0.141648 0.443035 0.085196
0.823337 0.287089 0.107761
0.532588 0.299660 0.127817
0.894611 0.175313 0.067551
0.906814 0.031842 0.070904
0.600974 0.254218 0.077878
0.627275 0.399226 0.036569
0.509747 0.300624 0.070264
0.793058 0.251165 0.070670
0.615385 0.396138 0.157691
0.271097 0.396473 0.074434
0.846693 0.032169 0.069194
0.565092 0.453293 0.116680
0.566187 0.297722 0.100904
0.956996 0.079939 0.117812
0.703964 0.358770 0.081919
0.649042 0.313360 0.047443
0.649042 0.308912 0.125950
0.117798 0.368787 0.090990
0.940367 0.031437 0.076922
0.073700 0.416408 0.117133
0.878214 0.187296 0.123528
0.760659 0.129054 0.113335
0.632647 0.329729 0.074947
0.354067 0.345383 0.099491
0.906842 0.262998 0.072523
0.576513 0.432101 0.096278
0.883511 0.168330 0.120451
0.808773 0.261765 0.115419
0.579870 0.411913 0.144037
0.215067 0.421692 0.107193
0.497666 0.431216 0.103001
0.183671 0.413552 0.084218
0.604913 0.234512 0.112339
0.587415 0.424169 0.120238
0.822891 0.096908 0.069615
0.807364 0.240091 0.069691
0.111438 0.375875 0.108167
0.387227 0.406281 0.069472
0.496565 0.417710 0.111542
0.636162 0.320324 0.074794
0.586887 0.348937 0.165641
0.627174 0.316494 0.075455
0.492741 0.269791 0.081630
0.598145 0.427152 0.117154
0.025022 0.376679 0.095777
0.829904 0.103582 0.119221
0.804735 0.282240 0.080395
0.467083 0.457388 0.073884
0.752262 0.077707 0.063005
0.108636 0.347123 0.101669
0.754658 0.220625 0.072793
0.854666 0.047864 0.061692
0.493811 0.375105 0.108295
0.777504 0.310088 0.091331
0.537039 0.412986 0.079774
0.649042 0.415705 0.094322
0.714837 0.446127 0.101173
0.924737 0.229978 0.071127
0.564857 0.397770 0.035452
0.507746 0.286651 0.080866
0.814393 0.271046 0.113811
0.759576 0.063995 0.105990
0.553807 0.431024 0.104454
0.494056 0.457388 0.092854
0.475494 0.321908 0.110318
0.782760 0.309174 0.102079
0.624392 0.340917 0.075411
0.227257 0.369412 0.092586
0.306159 0.421002 0.090014
0.960999 0.082430 0.093835
0.642607 0.441667 0.116338
0.494812 0.346614 0.111294
0.800912 0.200447 0.067059
0.162666 0.389626 0.076576
0.518787 0.430968 0.087348
0.050977 0.383826 0.081111
0.622417 0.297384 0.100023
0.659624 0.446299 0.110136
0.851734 0.154218 0.124027
0.577143 0.374802 0.076971
0.932046 0.147162 0.111293
0.560792 0.425326 0.071953
0.934665 0.141161 0.103192
0.928658 0.053225 0.126886
0.502272 0.353226 0.111619
0.886862 0.072469 0.124947
0.871662 0.240152 0.116815
0.183968 0.396987 0.085940
0.702734 0.276359 0.111791
0.590453 0.311874 0.112428
0.555395 0.388789 0.113726
0.781353 0.090265 0.070646
0.558151 0.422411 0.112183
0.688196 0.286558 0.077149
0.404005 0.355828 0.087014
0.477857 0.350879 0.080886
0.304548 0.345734 0.091568
0.351755 0.443035 0.093166
0.808022 0.194961 0.119891
0.892272 0.231334 0.107565
0.400213 0.375898 0.108447
0.499124 0.301248 0.075297
0.706709 0.315074 0.079729
0.443279 0.455447 0.093647
0.464532 0.300723 0.080962
0.441691 0.385774 0.083672
0.898706 0.294396 0.080076
0.525741 0.319279 0.147753
0.681252 0.251597 0.073504
0.445841 0.427231 0.096058
0.039184 0.387774 0.113579
0.804160 0.046950 0.126900
0.354649 0.366796 0.102759
0.924227 0.109079 0.122289
0.400854 0.373110 0.099003
0.550415 0.230194 0.088422
0.878796 0.251560 0.112760
0.770980 0.193448 0.073112
0.485536 0.339984 0.043493
0.362303 0.420479 0.088794
0.777163 0.127869 0.117861
0.382842 0.356610 0.105047
0.027151 0.383796 0.081131
0.790860 0.184090 0.065621
0.793567 0.292684 0.109505
0.680555 0.346883 0.110235
0.863569 0.091905 0.127085
0.911441 0.048908 0.126818
0.498474 0.428596 0.115658
0.537210 0.295385 0.094806
0.796127 0.241556 0.069932
0.680889 0.411771 0.082094
0.587715 0.387537 0.114196
0.579665 0.328798 0.044434
0.580054 0.372065 0.160352
0.458467 0.332122 0.080870
0.750353 0.130738 0.063788
0.470011 0.386203 0.073341
0.295706 0.419040 0.076391
0.055180 0.373612 0.088749
0.817215 0.237875 0.112121
0.760003 0.098091 0.078317
0.893377 0.304715 0.079800
0.118283 0.368558 0.101484
0.607121 0.156604 0.100802
0.282886 0.378709 0.079130
0.604782 0.245125 0.112467
0.826689 0.139670 0.124256
0.957543 0.088477 0.104411
0.394070 0.355388 0.088760
0.375973 0.419176 0.115248
0.378871 0.442152 0.108846
0.077662 0.440106 0.086427
0.247137 0.420596 0.113339
0.557223 0.349640 0.165734
0.849548 0.208010 0.067149
0.541070 0.176672 0.088422
0.568318 0.342674 0.112389
0.103883 0.441512 0.081752
0.583825 0.446382 0.074940
0.897878 0.027135 0.113327
0.485536 0.355233 0.052384
0.559424 0.367353 0.029260
0.491032 0.457388 0.083376
0.320379 0.419863 0.087274
0.586808 0.404669 0.075788
0.564133 0.388521 0.157501
0.132701 0.346953 0.090824
0.655421 0.291590 0.073736
0.534744 0.416008 0.111267
0.798688 0.168802 0.067955
0.488162 0.429784 0.113872
0.660531 0.173889 0.099394
0.485536 0.333147 0.052284
0.207306 0.346424 0.100091
0.056232 0.419942 0.114041
0.740660 0.290964 0.110889
0.507380 0.367761 0.029533
0.725474 0.206122 0.087572
0.650795 0.191735 0.097571
0.241322 0.420479 0.088699
0.456820 0.375575 0.107714
0.603691 0.423272 0.074944
0.676269 0.213316 0.115779
0.096163 0.402077 0.068690
0.252227 0.346105 0.090647
0.643705 0.290912 0.074556
0.481519 0.277026 0.109102
0.528433 0.325356 0.111335
0.609799 0.363085 0.114292
0.485536 0.384921 0.089393
0.706920 0.241106 0.075223
0.944364 0.116592 0.098009
0.874777 0.086886 0.127690
0.590012 0.439816 0.114698
0.814588 0.098750 0.062705
0.869471 0.134276 0.124857
0.952450 0.097391 0.080183
0.938639 0.131094 0.107618
0.800540 0.231671 0.069176
0.485536 0.409739 0.107091
0.132623 0.364943 0.104281
0.609724 0.415476 0.075168
0.648405 0.389781 0.034733
0.485536 0.354670 0.143185
0.559930 0.247633 0.107173
0.767679 0.291598 0.110477
0.566676 0.353758 0.166276
0.486818 0.359833 0.080939
0.485536 0.400842 0.049955
0.111131 0.442602 0.108893
0.391422 0.396200 0.122688
0.760145 0.173180 0.068094
0.649042 0.368359 0.148605
0.470096 0.354572 0.107930
0.862394 0.041418 0.126323
0.614245 0.456576 0.117123
0.485536 0.304677 0.124212
0.095814 0.381076 0.115260
0.494675 0.300083 0.121037
0.280452 0.345905 0.093761
0.485536 0.353241 0.132310
0.352191 0.382469 0.086573
0.840266 0.112235 0.125922
0.062875 0.408185 0.099362
0.861863 0.160002 0.065115
0.649042 0.371142 0.098167
0.649042 0.335986 0.069766
0.911952 0.254462 0.071703
0.849883 0.063802 0.060039
0.570497 0.313386 0.079225
0.933142 0.029466 0.085634
0.564567 0.431316 0.102241
0.843413 0.072749 0.126605
0.066560 0.405246 0.122236
0.848511 0.215874 0.121037
0.074185 0.421066 0.089984
0.675935 0.191794 0.098284
0.609060 0.386902 0.076029
0.851924 0.277948 0.091659
0.526690 0.402892 0.039383
0.937427 0.122007 0.114386
0.309640 0.423633 0.109381
0.163204 0.430332 0.082707
0.940016 0.048907 0.125845
0.465361 0.275543 0.084245
0.606907 0.319900 0.147851
0.395822 0.416486 0.074510
0.649042 0.318585 0.141472
0.182497 0.351893 0.089051
0.518202 0.325872 0.148794
0.337446 0.390429 0.115364
0.576155 0.309665 0.047206
0.485536 0.420219 0.108550
0.345878 0.426659 0.091441
0.372537 0.421263 0.091660
0.784079 0.285984 0.079746
0.851942 0.182685 0.118686
0.330060 0.345553 0.099275
0.559148 0.298525 0.086852
0.637307 0.298985 0.074922
0.295380 0.427018 0.107623
0.742197 0.228865 0.119820
0.756476 0.288755 0.111482
0.805188 0.139323 0.118689
0.402083 0.421724 0.096660
0.296223 0.390718 0.104691
0.579409 0.415576 0.130485
0.611484 0.341071 0.076305
0.759564 0.082476 0.116333
0.625352 0.399961 0.074771
0.667480 0.197159 0.088422
0.261476 0.421634 0.079628
0.862308 0.026451 0.099090
0.769755 0.030701 0.095753
0.691479 0.282122 0.112210
0.485536 0.401225 0.064698
0.603841 0.234456 0.091396
0.613696 0.373604 0.159395
0.407595 0.386527 0.086245
0.792902 0.047107 0.127056
0.885879 0.111761 0.123861
0.122154 0.347027 0.090021
0.866463 0.108917 0.120498
0.649042 0.366653 0.158763
0.307137 0.400681 0.074095
0.032118 0.373548 0.102043
0.649042 0.336320 0.056771
0.619962 0.208334 0.093536
0.199716 0.355712 0.104531
0.499156 0.299863 0.064129
0.499771 0.444602 0.075139
0.536056 0.199692 0.089963
0.850703 0.186641 0.069986
0.756040 0.111902 0.089506
0.407253 0.399557 0.085193
0.090441 0.356806 0.086362
0.479049 0.287405 0.109478
0.532991 0.412072 0.143427
0.927732 0.158724 0.108142
0.247911 0.402641 0.105654
0.661522 0.444320 0.078869
0.783803 0.218022 0.075131
0.792850 0.303856 0.087308
0.644409 0.230817 0.114756
0.588150 0.417737 0.061964
0.276976 0.401360 0.105551
0.699706 0.373445 0.100145
0.522891 0.431088 0.103969
0.648921 0.309067 0.144245
0.911295 0.200364 0.101753
0.546274 0.302159 0.110708
0.601896 0.448459 0.074650
0.867146 0.257742 0.114487
0.969995 0.045110 0.104379
0.366631 0.395484 0.105076
0.138875 0.387251 0.071722
0.571504 0.243030 0.080032
0.506899 0.402805 0.039316
0.145556 0.426560 0.090529
0.087134 0.384483 0.102771
0.229287 0.346268 0.099954
0.377964 0.411624 0.106380
0.824497 0.230827 0.075930
0.080645 0.416347 0.084275
0.636772 0.457388 0.097263
0.760016 0.263569 0.112745
0.842475 0.235036 0.069636
0.629132 0.303311 0.055486
0.897980 0.188754 0.120508
0.524946 0.407947 0.148968
0.782852 0.108278 0.117752
0.849574 0.243521 0.072556
0.276495 0.443035 0.087411
0.122433 0.404014 0.104923
0.774723 0.041935 0.062920
0.307702 0.414053 0.119124
0.224288 0.360108 0.094656
0.860944 0.149120 0.120078
0.759912 0.232766 0.115050
0.649042 0.390423 0.146411
0.498118 0.419095 0.124780
0.211111 0.372907 0.097315
0.301560 0.378387 0.093872
0.854819 0.034590 0.121028
0.760979 0.072090 0.060392
0.126228 0.413940 0.084614
0.602954 0.413158 0.050677
0.660973 0.188106 0.088422
0.645178 0.230583 0.075039
0.598366 0.399351 0.036666
0.112791 0.401250 0.104562
0.577366 0.317481 0.111684
0.485536 0.409715 0.142679
0.534435 0.417565 0.061738
0.538962 0.354055 0.025915
0.493398 0.331416 0.041207
0.610560 0.300526 0.083731
0.649042 0.318171 0.093569
0.782608 0.026417 0.095736
0.438672 0.425378 0.086635
0.855281 0.113828 0.066238
0.577257 0.356462 0.025598
0.633534 0.225545 0.085116
0.782959 0.102132 0.070832
0.789864 0.194663 0.114658
0.379390 0.364438 0.088029
0.546677 0.257090 0.090630
0.862125 0.058328 0.059949
0.400922 0.385921 0.104304
0.145762 0.443035 0.108249
0.648250 0.305210 0.053012
0.502384 0.265355 0.085164
0.649042 0.307912 0.106653
0.335716 0.354724 0.104083
0.502059 0.305621 0.110354
0.948502 0.087359 0.119980
0.420040 0.375764 0.108139
0.909449 0.028899 0.115685
0.841371 0.056854 0.059958
0.498736 0.420994 0.066251
0.514343 0.398561 0.081861
0.071921 0.393721 0.088791
0.884828 0.263733 0.076165
0.184059 0.375948 0.083105
0.889964 0.026983 0.100044
0.860924 0.189950 0.122767
0.778488 0.273090 0.111575
0.660214 0.446004 0.100180
0.060862 0.432452 0.085594
0.725658 0.205708 0.106883
0.048737 0.382866 0.108930
0.363538 0.384550 0.104193
0.529183 0.337145 0.158086
0.520955 0.259592 0.105819
0.120943 0.443035 0.100614
0.536973 0.245421 0.088422
0.603533 0.431335 0.090137
0.693759 0.328930 0.110572
0.438024 0.453476 0.085174
0.358675 0.390390 0.115365
0.953570 0.035037 0.106676
0.262050 0.394060 0.116809
0.827954 0.063295 0.129088
0.566736 0.245591 0.088248
0.568289 0.301957 0.081018
0.893263 0.082027 0.124212
0.847965 0.273298 0.111653
0.594270 0.339729 0.077513
0.244432 0.443035 0.085646
0.158131 0.366844 0.088489
0.613362 0.198742 0.096775
0.092780 0.411864 0.084887
0.502445 0.323726 0.045362
0.420382 0.386346 0.084870
0.821412 0.157499 0.067606
0.829583 0.025822 0.092139
0.665629 0.365502 0.112521
0.760061 0.059145 0.090662
0.476223 0.307936 0.110089
0.903576 0.137122 0.124977
0.400110 0.349895 0.101394
0.658860 0.324981 0.073173
0.485498 0.270595 0.091860
0.483010 0.457388 0.092851
0.864144 0.232620 0.119923
0.188146 0.384699 0.103411
0.918886 0.268396 0.074133
0.145641 0.347898 0.101710
0.574563 0.149189 0.088422
0.622792 0.416067 0.115781
0.549328 0.299911 0.123800
0.329090 0.399116 0.074132
0.538415 0.395851 0.078763
0.101965 0.402940 0.122567
0.532560 0.457388 0.073526
0.738202 0.075338 0.062963
0.372575 0.405578 0.122432
0.783547 0.256759 0.112507
0.492434 0.298914 0.110023
0.923134 0.086226 0.064458
0.765875 0.312111 0.108649
0.827402 0.120939 0.066334
0.456102 0.426983 0.097949
0.428592 0.390801 0.121409
0.799550 0.261807 0.111826
0.943077 0.068029 0.061967
0.534274 0.382244 0.113024
0.447267 0.287258 0.081758
0.840702 0.280552 0.082243
0.827615 0.080439 0.066053
0.669702 0.225335 0.115368
0.337111 0.386678 0.104365
0.560374 0.322777 0.045396
0.600670 0.298787 0.103683
0.905188 0.088890 0.123696
0.138081 0.421792 0.095499
0.062244 0.392452 0.121805
0.162472 0.351890 0.088994
0.856984 0.085620 0.061129
0.586719 0.246612 0.111359
0.485536 0.369027 0.145729
0.817877 0.134317 0.124407
0.195496 0.443035 0.083520
0.672076 0.289506 0.112713
0.810537 0.157423 0.069607
0.725220 0.436004 0.094439
0.729425 0.197232 0.084983
0.219079 0.407174 0.075317
0.830675 0.130344 0.119491
0.717359 0.290805 0.110869
0.059063 0.377808 0.080129
0.821381 0.219790 0.074876
0.602287 0.433551 0.074970
0.080142 0.454941 0.090080
0.852361 0.042803 0.127205
0.485536 0.323479 0.068758
0.857896 0.107124 0.126376
0.866614 0.062167 0.129023
0.285329 0.415713 0.106710
0.331437 0.431725 0.082595
0.817906 0.285281 0.081272
0.788819 0.033161 0.067098
0.511553 0.311257 0.110648
0.260282 0.421292 0.091795
0.471666 0.457388 0.114681
0.756850 0.095697 0.099086
0.891021 0.101914 0.121197
0.338955 0.399744 0.074057
0.386127 0.419817 0.087215
0.794347 0.163155 0.117192
0.313439 0.414052 0.106576
0.782034 0.082370 0.119097
0.626081 0.265434 0.114056
0.622468 0.196229 0.091422
0.819041 0.084770 0.063459
0.470012 0.408768 0.072251
0.461407 0.277033 0.108944
0.867678 0.269105 0.113460
0.586105 0.379598 0.157277
0.300206 0.407536 0.084548
0.917339 0.075488 0.063664
0.720861 0.330623 0.087146
0.649042 0.412030 0.083433
0.075209 0.423043 0.110014
0.715024 0.417222 0.086474
0.186765 0.413461 0.106394
0.916015 0.279236 0.077290
0.948557 0.105969 0.086048
0.909489 0.027358 0.103567
0.795236 0.212306 0.067765
0.504260 0.386029 0.157438
0.530431 0.317547 0.045584
0.525017 0.404453 0.081009
0.841322 0.280408 0.108212
0.455984 0.295293 0.081296
0.528780 0.344247 0.165024
0.152873 0.384450 0.087481
0.841100 0.270727 0.077450
0.646717 0.360906 0.073667
0.485536 0.346025 0.153367
0.956685 0.072150 0.124019
0.702724 0.279629 0.077592
0.699323 0.439478 0.086937
0.693660 0.240761 0.114339
0.603537 0.282320 0.077427
0.574157 0.457388 0.103932
0.147162 0.366318 0.103272
0.620679 0.336126 0.114625
0.522459 0.454333 0.073737
0.871281 0.264194 0.083693
0.166858 0.401883 0.085560
0.947608 0.058713 0.061058
0.879020 0.104154 0.120838
0.869409 0.143499 0.120377
0.461506 0.456261 0.117187
0.525411 0.315648 0.110957
0.548604 0.251032 0.082084
0.560350 0.331962 0.151702
0.546146 0.419719 0.064573
0.761018 0.049576 0.085908
0.591583 0.371335 0.031932
0.850574 0.263359 0.074634
0.912150 0.235327 0.072671
0.702351 0.364187 0.093657
0.623574 0.426614 0.117710
0.814525 0.025532 0.082296
0.798596 0.144812 0.124256
0.755273 0.193952 0.071711
0.177744 0.375142 0.106448
0.618893 0.297267 0.088814
0.554022 0.386061 0.034845
0.954686 0.093478 0.092342
0.382400 0.427168 0.096484
0.907102 0.073817 0.063554
0.714998 0.417174 0.096694
0.544720 0.317821 0.079352
0.649042 0.336548 0.084649
0.392629 0.366004 0.103706
0.687291 0.291135 0.112130
0.077528 0.405398 0.074535
0.301815 0.380383 0.076964
0.952751 0.054602 0.124776
0.451672 0.350273 0.095247
0.568114 0.389814 0.114096
0.857831 0.143074 0.064917
0.636145 0.430126 0.080949
0.512383 0.300471 0.110274
0.631498 0.363881 0.115656
0.076242 0.426815 0.098924
0.604777 0.231943 0.078739
0.746502 0.167765 0.111311
0.593672 0.276695 0.078167
0.592980 0.370629 0.161245
0.626939 0.245564 0.113855
0.763687 0.216336 0.073255
0.638017 0.376922 0.157332
0.655469 0.354993 0.073117
0.591476 0.329537 0.077806
0.079351 0.382911 0.074684
0.694734 0.415362 0.106708
0.787926 0.090968 0.126792
0.529320 0.303777 0.137351
0.736461 0.062276 0.062600
0.342802 0.432153 0.082560
0.488923 0.302944 0.055965
0.319345 0.443035 0.099143
0.636383 0.295325 0.091843
0.867525 0.270640 0.093652
0.791337 0.153349 0.121768
0.048309 0.373400 0.100935
0.693439 0.393236 0.108691
0.672565 0.246934 0.114527
0.517982 0.299793 0.063564
0.756640 0.099905 0.088079
0.680717 0.315009 0.111837
0.826739 0.213353 0.067905
0.737276 0.179568 0.108002
0.915309 0.190194 0.081736
0.667450 0.347954 0.112485
0.782606 0.073163 0.060409
0.591088 0.351066 0.112970
0.905292 0.157169 0.123902
0.622783 0.351151 0.075423
0.104641 0.422777 0.110384
0.445078 0.387319 0.119980
0.911487 0.148439 0.121456
0.323866 0.378759 0.091055
0.426278 0.408590 0.108830
0.485536 0.398467 0.122058
0.469414 0.291184 0.109549
0.433234 0.309088 0.102146
0.900237 0.206628 0.114757
0.527595 0.257531 0.098170
0.395830 0.425715 0.104422
0.649042 0.388670 0.156787
0.649042 0.367012 0.132196
0.357842 0.400662 0.105495
0.547966 0.431835 0.113564
0.494446 0.363676 0.110218
0.595005 0.387110 0.034813
0.656740 0.271272 0.116043
0.133979 0.386389 0.087423
0.543590 0.423618 0.120712
0.485536 0.379762 0.125070
0.175517 0.419029 0.115202
0.129547 0.398197 0.122745
0.509899 0.344832 0.165101
0.669452 0.399690 0.078493
0.379220 0.375761 0.108100
0.670733 0.322030 0.112288
0.889798 0.085144 0.064363
0.811655 0.183771 0.066168
0.698262 0.348285 0.109682
0.168420 0.378556 0.098998
0.798155 0.189455 0.122720
0.386846 0.345835 0.089537
0.236969 0.421480 0.098385
0.668407 0.354958 0.075798
0.587354 0.347138 0.077841
0.635881 0.224841 0.108827
0.695843 0.241322 0.075071
0.533425 0.217328 0.100211
0.590010 0.360986 0.077320
0.182100 0.428841 0.107771
0.838596 0.217152 0.073517
0.742309 0.188194 0.114424
0.773575 0.154224 0.065087
0.762632 0.123699 0.072977
0.723256 0.261357 0.076471
0.485536 0.367618 0.092062
0.660035 0.298256 0.115427
0.774179 0.285922 0.079276
0.569026 0.457388 0.093214
0.321334 0.373216 0.099748
0.485733 0.397484 0.035233
0.238441 0.443035 0.099423
0.289846 0.359432 0.096635
0.355047 0.423326 0.109865
0.843180 0.181344 0.123189
0.503447 0.311297 0.045808
0.103734 0.384121 0.080769
0.950142 0.064507 0.127238
0.638320 0.430620 0.107524
0.638918 0.330641 0.150075
0.339472 0.404357 0.122567
0.572991 0.312314 0.146653
0.564690 0.424581 0.119812
0.397602 0.416714 0.109684
0.161105 0.420101 0.103742
0.470787 0.279990 0.109130
0.335931 0.382107 0.075502
0.614322 0.270174 0.076797
0.856928 0.164109 0.119783
0.067088 0.416425 0.074205
0.326962 0.443035 0.091126
0.290596 0.378890 0.101537
0.088466 0.349134 0.101853
0.615465 0.457388 0.089780
0.754927 0.134172 0.104922
0.468846 0.367523 0.095345
0.567391 0.429917 0.079364
0.147587 0.403133 0.122577
0.754727 0.209974 0.072223
0.160484 0.359080 0.095318
0.642974 0.273530 0.074775
0.467105 0.447122 0.074748
0.963420 0.040091 0.099170
0.532823 0.310728 0.079735
0.649210 0.221564 0.114937
0.597017 0.391631 0.076155
0.499732 0.417610 0.079073
0.803118 0.190702 0.068905
0.473618 0.290682 0.081036
0.846542 0.144397 0.124197
0.644218 0.165577 0.088422
0.557716 0.438187 0.076116
0.890553 0.202467 0.119248
0.874767 0.041157 0.125927
0.689772 0.261530 0.113014
0.706307 0.442472 0.097313
0.112096 0.402372 0.122650
0.314461 0.384936 0.118394
0.520216 0.259821 0.089622
0.100931 0.357133 0.086235
0.485536 0.388952 0.098856
0.934578 0.090150 0.124085
0.775843 0.091709 0.125119
0.730984 0.253746 0.075435
0.386124 0.397889 0.105271
0.687670 0.306414 0.111682
0.640763 0.264922 0.114965
0.873143 0.028409 0.115849
0.769789 0.311430 0.098055
0.669624 0.199498 0.100802
0.620656 0.338270 0.159472
0.170364 0.346686 0.101617
0.525365 0.387114 0.157465
0.759165 0.304513 0.080820
0.204367 0.367655 0.088838
0.965544 0.052843 0.117905
0.523764 0.365471 0.164453
0.864708 0.123653 0.067713
0.105777 0.393090 0.103659
0.637535 0.299992 0.059812
0.507770 0.359116 0.078722
0.025793 0.405401 0.069072
0.810653 0.145318 0.124207
0.822948 0.276774 0.113769
0.248595 0.427242 0.095816
0.526632 0.320266 0.079464
0.649042 0.405887 0.096224
0.878837 0.120694 0.067311
0.657088 0.430209 0.113097
0.591825 0.315302 0.077920
0.649042 0.369983 0.084355
0.174701 0.443035 0.089938
0.920012 0.043363 0.125884
0.487090 0.415201 0.131489
0.889973 0.031500 0.070925
0.613390 0.231590 0.090716
0.147148 0.386919 0.103331
0.603218 0.330252 0.076984
0.270345 0.410906 0.076906
0.829589 0.273913 0.073879
0.662419 0.333777 0.114030
0.509797 0.428393 0.075990
0.628256 0.431275 0.074266
0.506574 0.337740 0.158819
0.861622 0.028007 0.115706
0.412767 0.393826 0.069471
0.586637 0.351333 0.026274
0.676525 0.436622 0.108243
0.570517 0.336602 0.034817
0.327302 0.386409 0.104343
0.814741 0.051160 0.061918
0.308298 0.388483 0.104511
0.919758 0.140482 0.067762
0.316779 0.375846 0.108257
0.645670 0.349181 0.026557
0.745745 0.177283 0.113477
0.538323 0.330312 0.042567
0.627703 0.377440 0.115593
0.332332 0.400719 0.085099
0.485536 0.355261 0.122204
0.786753 0.061498 0.063907
0.295696 0.391068 0.076084
0.603055 0.417363 0.061472
0.558740 0.399136 0.114003
0.540418 0.340318 0.078600
0.645755 0.337463 0.033755
0.654975 0.242374 0.115563
0.558319 0.308316 0.111059
0.685655 0.433620 0.105207
0.485536 0.316470 0.061799
0.421810 0.413789 0.072461
0.894018 0.104661 0.066977
0.354259 0.378177 0.095503
0.733015 0.450860 0.101848
0.910892 0.136217 0.066663
0.620678 0.402928 0.115481
0.531454 0.368204 0.077904
0.715014 0.305948 0.079942
0.290740 0.419503 0.114798
0.909979 0.166770 0.119893
0.091182 0.410924 0.070951
0.414239 0.444558 0.090382
0.831802 0.071791 0.060019
0.343959 0.443035 0.108401
0.661981 0.176502 0.088422
0.649042 0.314113 0.066000
0.553995 0.358285 0.025358
0.884355 0.026875 0.111840
0.256706 0.400330 0.123032
0.540202 0.301534 0.134427
0.658017 0.314273 0.073336
0.351608 0.394984 0.122497
0.591639 0.299574 0.061797
0.956809 0.080978 0.072632
0.619293 0.404477 0.151631
0.195109 0.379767 0.077682
0.776757 0.217765 0.068069
0.519073 0.339872 0.161446
0.950162 0.101902 0.100839
0.602381 0.439175 0.114745
0.820552 0.036704 0.063383
0.698762 0.403247 0.084826
0.468418 0.314450 0.109988
0.627044 0.290501 0.114437
0.474707 0.332210 0.110480
0.205617 0.418731 0.083644
0.680327 0.268536 0.113293
0.556766 0.338734 0.032189
0.485536 0.396314 0.088649
0.781841 0.052661 0.126341
0.785265 0.267749 0.078247
0.756943 0.093838 0.111548
0.916626 0.098128 0.124934
0.130041 0.443035 0.088442
0.771655 0.031677 0.074486
0.410901 0.432235 0.108081
0.395660 0.365356 0.087955
0.150488 0.378989 0.112791
0.588071 0.273574 0.111789
0.614786 0.383159 0.157366
0.893795 0.072715 0.063491
0.589343 0.430927 0.105190
0.588754 0.414738 0.133574
0.778264 0.051589 0.062381
0.143515 0.380354 0.087979
0.600806 0.308038 0.113025
0.643896 0.299469 0.105464
0.437729 0.335795 0.105955
0.816743 0.214670 0.121445
0.129542 0.426901 0.098315
0.308671 0.404443 0.105800
0.544132 0.365438 0.164474
0.375780 0.387197 0.104407
0.804900 0.234414 0.077611
0.467443 0.342896 0.109387
0.646739 0.299771 0.063392
0.494982 0.415044 0.055582
0.525678 0.440096 0.075814
0.760729 0.290276 0.079447
0.638438 0.394118 0.116476
0.951564 0.046488 0.067244
0.566464 0.411470 0.145726
0.603101 0.270916 0.077568
0.911073 0.049676 0.061746
0.757107 0.267891 0.077185
0.269460 0.443035 0.096190
0.816476 0.228111 0.068861
0.258015 0.443035 0.087522
0.734924 0.244638 0.074520
0.777436 0.247423 0.116757
0.772067 0.152619 0.117248
0.904371 0.303444 0.079797
0.463789 0.299962 0.109602
0.529739 0.386318 0.034837
0.685252 0.205869 0.072498
0.559104 0.360072 0.112906
0.426220 0.426093 0.088351
0.426221 0.449050 0.089475
0.805796 0.025364 0.112231
0.869985 0.223252 0.116891
0.515293 0.320876 0.111042
0.553934 0.242952 0.091579
0.860412 0.033707 0.067724
0.649042 0.406584 0.071580
0.094202 0.424616 0.084524
0.576064 0.242792 0.089406
0.732121 0.278939 0.077844
0.649042 0.422045 0.083316
0.637601 0.214682 0.098850
0.854949 0.093248 0.067519
0.624830 0.389667 0.034736
0.550339 0.312124 0.146623
0.641630 0.415560 0.116950
0.526809 0.293939 0.080397
0.672720 0.335680 0.111493
0.578073 0.404108 0.151914
0.805935 0.123736 0.069453
0.238787 0.407528 0.121930
0.905976 0.126490 0.121579
0.843678 0.026093 0.099117
0.254515 0.378169 0.095492
0.488329 0.405509 0.080829
0.179476 0.389265 0.103820
0.464669 0.364244 0.105551
0.769217 0.095246 0.071490
0.653250 0.369575 0.073130
0.185623 0.418834 0.115360
0.609103 0.339148 0.031678
0.717428 0.248990 0.075539
0.426549 0.420093 0.103969
0.053630 0.417415 0.074954
0.533228 0.395256 0.111134
0.200249 0.384082 0.110635
0.906787 0.197554 0.075927
0.835461 0.175618 0.118356
0.723342 0.440475 0.103065
0.840851 0.115220 0.068498
0.516305 0.331636 0.111463
0.214321 0.386126 0.112453
0.654486 0.398436 0.074569
0.254221 0.355647 0.089308
0.409220 0.439908 0.081934
0.815594 0.275692 0.080346
0.780476 0.218543 0.114691
0.477323 0.405517 0.080820
0.158885 0.399821 0.104763
0.619311 0.299887 0.124183
0.649042 0.352236 0.129563
0.230000 0.407569 0.069670
0.650938 0.261900 0.115561
0.163771 0.412783 0.071778
0.856831 0.117521 0.125748
0.060807 0.424946 0.104796
0.684670 0.396023 0.082215
0.901400 0.216835 0.096022
0.774355 0.140245 0.117733
0.773064 0.170127 0.123617
0.528608 0.355554 0.078208
0.204146 0.427211 0.096021
0.835774 0.143789 0.064922
0.485536 0.368572 0.102079
0.640276 0.336661 0.115854
0.595677 0.422234 0.067883
0.896550 0.093958 0.127488
0.832748 0.054180 0.126290
0.648892 0.369713 0.030844
0.148666 0.391246 0.070075
0.434237 0.390632 0.070554
0.221989 0.443035 0.096846
0.835184 0.276006 0.115549
0.611409 0.300007 0.106867
0.498953 0.412467 0.141923
0.907892 0.273118 0.073227
0.181791 0.346605 0.097828
0.834143 0.252507 0.112370
0.711535 0.430704 0.104408
0.575732 0.278346 0.111080
0.430597 0.382609 0.075191
0.636060 0.157908 0.088422
0.461179 0.380596 0.115128
0.687139 0.210788 0.110432
0.846224 0.146028 0.067457
0.747830 0.183679 0.070679
0.595959 0.457388 0.082135
0.759855 0.299526 0.111725
0.770933 0.181255 0.072681
0.568637 0.343556 0.027298
0.440446 0.454384 0.115403
0.769297 0.081558 0.069313
0.703376 0.335240 0.109722
0.086351 0.376066 0.082745
0.216244 0.419140 0.076405
0.833036 0.110140 0.063292
0.387643 0.385366 0.104259
0.593681 0.299867 0.132255
0.649042 0.376668 0.156273
0.056399 0.379201 0.102101
0.719118 0.219229 0.072655
0.117015 0.390194 0.103443
0.385381 0.416651 0.074628
0.558456 0.457388 0.095122
0.527022 0.335340 0.111688
0.279668 0.371668 0.102749
0.828495 0.030591 0.118259
0.485536 0.411450 0.050713
0.767274 0.276396 0.078195
0.690870 0.275694 0.077188
0.102056 0.360136 0.096715
0.258581 0.443035 0.097372
0.610419 0.402845 0.114990
0.518450 0.436603 0.114281
0.871134 0.033051 0.068718
0.188806 0.387332 0.071728
0.672788 0.356576 0.110994
0.096652 0.417445 0.106284
0.387191 0.418868 0.106868
0.451032 0.337402 0.107743
0.535661 0.436509 0.076344
0.199664 0.378350 0.097455
0.617962 0.439231 0.116361
0.204786 0.391590 0.086344
0.757733 0.274661 0.115153
0.546902 0.285609 0.080472
0.565300 0.365411 0.077435
0.320336 0.393757 0.104937
0.467957 0.395186 0.108280
0.386864 0.443035 0.098500
0.761412 0.230853 0.073982
0.566721 0.417364 0.112749
0.504401 0.457388 0.082599
0.907112 0.102269 0.066597
0.695944 0.386613 0.098695
0.678796 0.436713 0.098468
0.468377 0.336566 0.080217
0.336937 0.443035 0.090264
0.065968 0.400373 0.082056
0.794797 0.103271 0.118067
0.631496 0.211203 0.091422
0.623505 0.457388 0.083021
0.078545 0.387275 0.085427
0.234050 0.398954 0.117504
0.694393 0.253614 0.075581
0.602082 0.302983 0.136316
0.572336 0.370342 0.113416
0.596342 0.457388 0.102540
0.766845 0.310590 0.081548
0.534620 0.424939 0.071443
0.491874 0.295408 0.091715
0.760762 0.054978 0.112110
0.380518 0.345450 0.101085
0.974135 0.059602 0.106070
0.792588 0.036316 0.122952
0.703379 0.302440 0.078811
0.771825 0.130252 0.070436
0.522181 0.411458 0.046259
0.470013 0.398072 0.070933
0.304350 0.389821 0.085979
0.897530 0.091400 0.064907
0.640335 0.154036 0.096507
0.762049 0.039264 0.103274
0.469997 0.377468 0.092154
0.485536 0.312231 0.102633
0.575322 0.441763 0.114992
0.670513 0.440007 0.080952
0.649042 0.322754 0.102376
0.259834 0.357215 0.105201
0.374914 0.345235 0.089536
0.102921 0.418786 0.084624
0.339640 0.419584 0.086615
0.919845 0.044924 0.061201
0.669375 0.259440 0.114061
0.575363 0.329101 0.078614
0.474034 0.457388 0.088118
0.479602 0.457388 0.077445
0.841113 0.158172 0.065105
0.619121 0.282014 0.076349
0.879955 0.098923 0.063483
0.626959 0.367408 0.163249
0.056567 0.421527 0.093415
0.111372 0.411728 0.084957
0.946698 0.106509 0.112634
0.437582 0.373811 0.105186
0.649042 0.386256 0.098475
0.509507 0.412526 0.110778
0.127248 0.378262 0.111824
0.835864 0.266466 0.111098
0.376745 0.431648 0.107997
0.534100 0.280366 0.080799
0.517122 0.291832 0.080579
0.532999 0.457388 0.113591
0.513333 0.430560 0.107984
0.465018 0.457388 0.093626
0.595914 0.351941 0.077281
0.882714 0.175156 0.067858
0.152744 0.382098 0.075365
0.810480 0.223082 0.076375
0.493859 0.322792 0.148307
0.756212 0.141506 0.064479
0.555318 0.307509 0.050015
0.776932 0.061014 0.060133
0.607045 0.377643 0.035099
0.436972 0.395290 0.117181
0.743729 0.114531 0.062767
0.569385 0.328461 0.044849
0.179147 0.422916 0.081235
0.030773 0.419236 0.114930
0.968066 0.072337 0.091879
0.177349 0.354911 0.104103
0.649042 0.340389 0.128903
0.530498 0.361551 0.112550
0.510413 0.341086 0.111628
0.085627 0.416119 0.117365
0.118334 0.379090 0.101883
0.690111 0.409241 0.084224
0.724089 0.209238 0.097181
0.837106 0.209489 0.067514
0.787009 0.283797 0.110517
0.468596 0.426630 0.100637
0.543634 0.412223 0.048247
0.578942 0.455244 0.073645
0.486297 0.325950 0.045283
0.486846 0.378926 0.157260
0.485536 0.309767 0.135803
0.826243 0.038104 0.124248
0.920076 0.059479 0.126133
0.566565 0.398162 0.076396
0.897416 0.062544 0.062727
0.754320 0.171837 0.117314
0.430863 0.363528 0.086694
0.827989 0.224326 0.068473
0.662612 0.251207 0.115888
0.783172 0.140324 0.070029
0.743785 0.276247 0.077779
0.767581 0.122948 0.117473
0.756405 0.104611 0.108982
0.795692 0.295320 0.081087
0.619842 0.151864 0.088422
0.567778 0.378778 0.076929
0.842614 0.208623 0.116532
0.559636 0.271317 0.109986
0.140398 0.395964 0.122460
0.641289 0.436695 0.073308
0.888930 0.295739 0.077545
0.568357 0.403013 0.114339
0.379539 0.427855 0.082907
0.567631 0.315744 0.045649
0.287193 0.432366 0.108055
0.563749 0.387237 0.034809
0.675703 0.283771 0.073819
0.759366 0.200022 0.116856
0.855725 0.087895 0.121976
0.144326 0.389807 0.114954
0.181932 0.360063 0.094624
0.710248 0.218107 0.116188
0.247859 0.396404 0.085516
0.098155 0.452627 0.090157
0.420746 0.446997 0.080360
0.527027 0.356765 0.025559
0.850523 0.197736 0.069512
0.674947 0.300667 0.112208
0.517438 0.275084 0.109428
0.870880 0.095253 0.065460
0.394338 0.443035 0.089325
0.485536 0.381772 0.146922
0.461345 0.378097 0.084805
0.385887 0.369704 0.093662
0.589596 0.415358 0.115148
0.872624 0.163479 0.067839
0.719012 0.424568 0.091717
0.485536 0.323436 0.054708
0.207964 0.387860 0.077763
0.440802 0.302900 0.109017
0.505429 0.300144 0.120064
0.485536 0.340546 0.127856
0.539125 0.180615 0.100787
0.342989 0.426561 0.101064
0.808271 0.113128 0.125538
0.842037 0.122026 0.122878
0.868348 0.294299 0.078355
0.561511 0.310875 0.146425
0.631489 0.156529 0.100802
0.606017 0.400799 0.075730
0.555409 0.304711 0.138568
0.462042 0.425157 0.077946
0.118074 0.400813 0.086042
0.727097 0.305379 0.080479
0.832861 0.207010 0.121615
0.711257 0.283025 0.111384
0.494388 0.267836 0.097045
0.596966 0.251995 0.112067
0.850838 0.166009 0.067741
0.612806 0.318023 0.045567
0.593753 0.290040 0.112354
0.754248 0.141381 0.093654
0.131053 0.443035 0.107725
0.736626 0.183706 0.079952
0.825342 0.267412 0.109898
0.478981 0.440857 0.075670
0.163101 0.408938 0.105744
0.543159 0.457388 0.105365
0.939948 0.080595 0.126233
0.649042 0.395736 0.138140
0.207884 0.442609 0.108883
0.907808 0.027326 0.091052
0.676863 0.225384 0.072890
0.813565 0.029855 0.071128
0.176374 0.433438 0.082456
0.489939 0.337348 0.033897
0.489126 0.300052 0.132496
0.787186 0.266284 0.111714
0.710904 0.310874 0.110147
0.486213 0.450021 0.074339
0.450227 0.308595 0.109380
0.730224 0.306791 0.109807
0.897466 0.264892 0.075743
0.862127 0.041082 0.061175
0.608212 0.277408 0.113095
0.577843 0.300226 0.118753
0.643110 0.347574 0.116171
0.448339 0.424821 0.112614
0.086964 0.447412 0.088448
0.295170 0.396198 0.085464
0.926398 0.160438 0.079094
0.174434 0.394367 0.086285
0.649042 0.344048 0.138077
0.921114 0.175489 0.099750
0.782458 0.298077 0.080701
0.569979 0.430847 0.113405
0.674658 0.210284 0.088422
0.712579 0.239085 0.114656
0.568963 0.268355 0.110530
0.813437 0.088931 0.127248
0.451152 0.380465 0.114950
0.615880 0.430752 0.085707
0.778573 0.182780 0.115873
0.630975 0.326313 0.115141
0.485536 0.377290 0.135703
0.503482 0.380324 0.108947
0.867212 0.101338 0.126799
0.634926 0.300788 0.109742
0.552249 0.250331 0.098101
0.496334 0.354350 0.079125
0.194458 0.419536 0.086388
0.523822 0.413238 0.138980
0.547358 0.332521 0.078801
0.482799 0.429535 0.077323
0.666183 0.418996 0.078697
0.485536 0.350222 0.042802
0.646650 0.388252 0.073406
0.921520 0.256407 0.072691
0.593866 0.331866 0.151584
0.521811 0.299529 0.129930
0.544914 0.396027 0.157689
0.465183 0.457388 0.107131
0.578343 0.329147 0.112020
0.973467 0.063241 0.075083
0.800163 0.221028 0.068477
0.878199 0.295648 0.077389
0.710815 0.343179 0.081502
0.242811 0.425330 0.105232
0.485536 0.390093 0.139646
0.171941 0.363720 0.089194
0.789993 0.237244 0.076363
0.576472 0.402669 0.076041
0.649042 0.360636 0.100576
0.602661 0.363988 0.027001
0.557298 0.321533 0.111517
0.514919 0.334021 0.154238
0.579591 0.299530 0.061448
0.569156 0.256929 0.110396
0.576764 0.350859 0.165894
0.751357 0.190791 0.117741
0.211776 0.361580 0.086018
0.562692 0.165188 0.100802
0.189171 0.404349 0.117027
0.255765 0.422530 0.107261
0.164477 0.354926 0.104104
0.617329 0.430189 0.074562
0.498786 0.322541 0.079624
0.341860 0.403519 0.105725
0.649042 0.359343 0.140389
0.805165 0.079766 0.128763
0.485536 0.341803 0.142190
0.695018 0.427847 0.105757
0.629063 0.389233 0.115829
0.769123 0.107315 0.062552
0.467380 0.418957 0.106746
0.852333 0.077312 0.124366
0.863385 0.078343 0.124690
0.438769 0.343107 0.085651
0.485536 0.360727 0.062149
0.500861 0.454761 0.073659
0.500084 0.407051 0.109986
0.664556 0.279972 0.073215
0.106600 0.382869 0.102601
0.485536 0.313609 0.117828
0.637310 0.419723 0.124834
0.133213 0.393061 0.103864
0.248471 0.443035 0.096977
0.667361 0.379648 0.111776
0.577009 0.339059 0.160444
0.872242 0.026642 0.078489
0.845575 0.086926 0.121630
0.783492 0.160009 0.116695
0.452397 0.393026 0.107976
0.658442 0.446890 0.088954
0.598794 0.175102 0.098850
0.128387 0.367267 0.088884
0.485536 0.342576 0.096492
0.107215 0.446976 0.089868
0.575005 0.343283 0.078114
0.366806 0.429767 0.107845
0.608107 0.173419 0.093149
0.903216 0.057536 0.126134
0.543672 0.305768 0.052285
0.818473 0.248349 0.078701
0.350331 0.381413 0.076046
0.564212 0.457388 0.105416
0.953459 0.095625 0.111134
0.637742 0.300179 0.119505
0.633284 0.384052 0.034906
0.346603 0.414452 0.106608
0.580566 0.429219 0.115018
0.614694 0.231199 0.112776
0.647019 0.335168 0.155651
0.516009 0.436222 0.076372
0.487013 0.367388 0.163261
0.128063 0.384252 0.102908
0.852735 0.206445 0.121712
0.252585 0.425529 0.086854
0.817165 0.081897 0.121228
0.676441 0.437891 0.088828
0.485536 0.358749 0.110998
0.096403 0.389955 0.087321
0.675785 0.208693 0.073127
0.365959 0.345299 0.099405
0.539475 0.390920 0.034698
0.578025 0.293425 0.079090
0.450073 0.420795 0.089627
0.085006 0.423673 0.109109
0.570216 0.304301 0.054197
0.881915 0.160041 0.065229
0.786439 0.026652 0.074586
0.864995 0.160051 0.123893
0.924410 0.167139 0.103856
0.533845 0.298714 0.103493
0.813559 0.121418 0.122673
0.827496 0.263500 0.071602
0.916691 0.136594 0.121743
0.954569 0.072061 0.063113
0.761159 0.160621 0.117858
0.941319 0.058993 0.126985
0.829696 0.113726 0.119367
0.824486 0.257418 0.079221
0.112950 0.421377 0.083940
0.447382 0.374173 0.104321
0.555795 0.394524 0.157651
0.536879 0.328439 0.079061
0.649042 0.372417 0.052794
0.485536 0.416891 0.063696
0.820105 0.026259 0.114954
0.432893 0.423610 0.111416
0.906577 0.105482 0.124410
0.582274 0.159600 0.098254
0.820390 0.267061 0.080153
0.741703 0.303112 0.109937
0.417429 0.340022 0.092425
0.530646 0.231939 0.088422
0.061413 0.423067 0.081339
0.667553 0.215431 0.110857
0.781182 0.153912 0.124166
0.810408 0.038008 0.061654
0.852730 0.026267 0.103604
0.748196 0.237535 0.116151
0.512231 0.324035 0.045351
0.588141 0.339433 0.112637
0.756600 0.137514 0.079513
0.358992 0.369644 0.093249
0.527292 0.345343 0.112074
0.266702 0.443035 0.082896
0.779249 0.183476 0.067869
0.128293 0.355550 0.086912
0.559343 0.338778 0.112152
0.827584 0.134021 0.064643
0.731914 0.267836 0.076749
0.649042 0.349182 0.165458
0.485536 0.327957 0.144415
0.615175 0.368912 0.075779
0.555359 0.299705 0.062858
0.872725 0.111608 0.064010
0.425750 0.350166 0.101820
0.746263 0.263615 0.076579
0.485536 0.419010 0.098666
0.544913 0.381647 0.034978
0.091724 0.401941 0.085962
0.289251 0.404412 0.084801
0.900306 0.040328 0.061064
0.423602 0.378782 0.090964
0.611365 0.413164 0.115367
0.387361 0.440187 0.081911
0.882928 0.050720 0.126634
0.118301 0.347055 0.099303
0.762849 0.042761 0.114329
0.582778 0.271233 0.078976
0.576162 0.262293 0.079522
0.524573 0.401441 0.109151
0.548251 0.420120 0.111857
0.302726 0.368733 0.100591
0.268854 0.345987 0.092199
0.828482 0.202606 0.067250
0.897757 0.069486 0.126357
0.443523 0.400167 0.074134
0.434882 0.345840 0.103914
0.273606 0.410753 0.106310
0.767399 0.092506 0.061750
0.185211 0.400865 0.105071
0.505924 0.390341 0.082876
0.138902 0.355639 0.104453
0.648211 0.184644 0.088422
0.629178 0.256370 0.075899
0.550955 0.425171 0.071750
0.313344 0.345672 0.096041
0.924906 0.027655 0.112767
0.558350 0.248108 0.082543
0.775243 0.069868 0.066381
0.680196 0.318917 0.076882
0.930533 0.136073 0.114994
0.485536 0.429740 0.103740
0.485636 0.378586 0.035071
0.102345 0.432045 0.107825
0.777756 0.076577 0.129132
0.628196 0.352494 0.026121
0.932705 0.146127 0.090811
0.801334 0.114402 0.065723
0.430262 0.449238 0.113228
0.420478 0.386343 0.105746
0.926316 0.120036 0.066217
0.813589 0.213724 0.070481
0.649042 0.340498 0.045561
0.786856 0.080675 0.128629
0.870608 0.051810 0.061964
0.576534 0.454929 0.116910
0.830092 0.088772 0.120291
0.560860 0.380521 0.113684
0.328462 0.416868 0.116981
0.755319 0.126320 0.085334
0.267146 0.420497 0.113483
0.271428 0.369762 0.094015
0.519028 0.457388 0.083673
0.082345 0.397343 0.117173
0.881443 0.144071 0.067522
0.459850 0.396719 0.074550
0.509957 0.350699 0.026357
0.557704 0.418679 0.078959
0.675575 0.304982 0.074936
0.617875 0.379047 0.075493
0.257848 0.369024 0.099851
0.341427 0.356192 0.086813
0.586118 0.260924 0.078844
0.388951 0.406583 0.116620
0.623192 0.450580 0.116243
0.316841 0.352600 0.102178
0.568268 0.398851 0.155948
0.606475 0.457388 0.104439
0.369328 0.378743 0.091219
0.839469 0.040877 0.126244
0.733732 0.228815 0.072964
0.625558 0.392826 0.157608
0.649042 0.394483 0.044197
0.415526 0.359029 0.095715
0.871909 0.173329 0.068117
0.593464 0.301512 0.077427
0.546303 0.355185 0.166464
0.670987 0.215587 0.099113
0.645984 0.431281 0.115760
0.794228 0.026634 0.115646
0.649042 0.379475 0.036085
0.257743 0.417674 0.116307
0.740035 0.289195 0.078987
0.470167 0.406402 0.109913
0.577255 0.415591 0.114651
0.562091 0.333151 0.078616
0.722503 0.225553 0.115760
0.533624 0.306353 0.110717
0.760393 0.115065 0.114858
0.728238 0.288595 0.078844
0.601943 0.313529 0.077235
0.539363 0.227365 0.088422
0.239884 0.436017 0.108350
0.435751 0.413681 0.110999
0.152016 0.421452 0.098529
0.849057 0.130615 0.119986
0.319144 0.404528 0.105807
