0.283770 0.397799 0.283611
0.222330 0.422393 0.302083
0.201773 0.497995 0.090972
0.885689 0.688021 0.320859
0.777496 0.541116 0.302083
0.552119 0.605556 0.260384
0.720806 0.688021 0.258948
0.535284 0.605556 0.234424
0.429791 0.605556 0.081297
0.564318 0.354861 0.129877
0.800324 0.621091 0.064583
0.815018 0.128956 0.064583
0.280209 0.683454 0.025000
0.737500 0.338809 0.264492
0.746785 0.605556 0.235479
0.816667 0.481468 0.297998
0.530860 0.688021 0.119982
0.559443 0.605556 0.104052
0.169346 0.685098 0.341291
0.255229 0.605556 0.150850
0.897629 0.659353 0.341667
0.816667 0.542549 0.276818
0.686032 0.354861 0.134437
0.424708 0.688021 0.298846
0.222826 0.114115 0.275953
0.026788 0.686511 0.250413
0.472118 0.688021 0.336221
0.836896 0.688021 0.106686
0.814517 0.457024 0.064583
0.445883 0.183333 0.250434
0.446748 0.374653 0.167968
0.687628 0.356986 0.090972
0.688556 0.605556 0.242911
0.177466 0.045910 0.090972
0.681249 0.687948 0.338441
0.370255 0.374653 0.190962
0.308059 0.354861 0.202291
0.195870 0.658333 0.293783
0.897845 0.658333 0.288770
0.192999 0.624573 0.090972
0.183439 0.529703 0.090972
0.663698 0.183333 0.270496
0.100164 0.658333 0.103818
0.183883 0.379002 0.302083
0.207751 0.658333 0.198172
0.622753 0.183333 0.226700
0.792807 0.398249 0.275694
0.814532 0.603438 0.051389
0.537066 0.183333 0.247576
0.569162 0.658333 0.098139
0.220685 0.494365 0.090972
0.222917 0.626602 0.087939
0.439207 0.662267 0.025000
0.183333 0.637784 0.300492
0.095057 0.688021 0.177432
0.810283 0.688021 0.220276
0.215147 0.688021 0.104451
0.829861 0.594053 0.286029
0.153103 0.658333 0.156794
0.285425 0.183333 0.239840
0.830640 0.658333 0.150252
0.340304 0.605556 0.203657
0.233904 0.688021 0.122060
0.701606 0.354861 0.152453
0.449134 0.605556 0.145963
0.829428 0.579167 0.263671
0.203551 0.400473 0.064583
0.588798 0.156944 0.127011
0.298000 0.183333 0.214589
0.592873 0.688021 0.301280
0.358728 0.658333 0.281493
0.226070 0.658701 0.025000
0.777083 0.477715 0.282454
0.176832 0.579167 0.057612
0.815067 0.191561 0.064583
0.464321 0.658333 0.307083
0.407804 0.658333 0.171241
0.321345 0.602063 0.077778
0.222917 0.558043 0.083180
0.815331 0.235483 0.275694
0.816667 0.205352 0.090870
0.593669 0.658333 0.053249
0.222464 0.106814 0.064857
0.789599 0.658333 0.049520
0.222087 0.289662 0.302083
0.236111 0.603600 0.292178
0.235413 0.605556 0.266323
0.297575 0.156944 0.245452
0.351106 0.658333 0.157448
0.436334 0.156944 0.220805
0.254452 0.658333 0.227585
0.887083 0.658333 0.116921
0.580854 0.183333 0.213565
0.204292 0.104968 0.064583
0.370640 0.579167 0.172828
0.040271 0.688021 0.319940
0.183333 0.397537 0.073413
0.323863 0.579167 0.255801
0.669282 0.354861 0.142267
0.446376 0.374653 0.192077
0.975000 0.682342 0.025282
0.216160 0.688021 0.279796
0.817210 0.025000 0.277633
0.183333 0.550673 0.087564
0.778856 0.095452 0.065219
0.642628 0.688021 0.134594
0.706471 0.156944 0.187846
0.829638 0.605556 0.309461
0.025000 0.659107 0.313713
0.436499 0.658333 0.131090
0.133272 0.688021 0.047790
0.949636 0.688021 0.190832
0.324509 0.687618 0.027895
0.639714 0.688021 0.273931
0.839508 0.052388 0.090972
0.265585 0.359801 0.283611
0.777131 0.238362 0.275694
0.972304 0.658333 0.304836
0.447892 0.688021 0.302529
0.200121 0.584221 0.077778
0.169375 0.066716 0.277106
0.773143 0.579167 0.169567
0.714452 0.374551 0.283611
0.428627 0.579167 0.096817
0.170139 0.579298 0.078967
0.169697 0.067263 0.088167
0.870691 0.658333 0.167923
0.940776 0.658333 0.191450
0.758863 0.688021 0.322567
0.524412 0.658333 0.169432
0.760825 0.579167 0.225656
0.409337 0.374653 0.115293
0.816667 0.399167 0.279624
0.777083 0.442886 0.086690
0.288889 0.466564 0.282288
0.548945 0.605556 0.184496
0.496086 0.604841 0.288889
0.533570 0.688021 0.170880
0.025000 0.659407 0.104850
0.404403 0.579167 0.104555
0.735822 0.658333 0.075195
0.605821 0.374653 0.172231
0.273185 0.183333 0.186952
0.399583 0.354861 0.151306
0.856014 0.658333 0.323097
0.600192 0.688021 0.159605
0.643582 0.605556 0.175250
0.828177 0.067005 0.090972
0.730775 0.354861 0.207370
0.222917 0.365752 0.066571
0.219142 0.688021 0.136002
0.359903 0.688021 0.215101
0.711523 0.249391 0.262500
0.540442 0.374653 0.212767
0.222917 0.310408 0.298090
0.763889 0.594701 0.275445
0.777083 0.327642 0.295498
0.625423 0.374653 0.174267
0.518401 0.374653 0.153425
0.711283 0.206137 0.283611
0.556464 0.658333 0.083669
0.816667 0.480963 0.090668
0.724965 0.156944 0.112401
0.816667 0.504952 0.083122
0.270765 0.183333 0.143752
0.051112 0.688021 0.303366
0.189745 0.025000 0.278229
0.773475 0.681387 0.341667
0.792893 0.684449 0.341667
0.737500 0.389834 0.083362
0.699691 0.374653 0.155473
0.597987 0.183333 0.145662
0.929635 0.688021 0.045466
0.220449 0.411681 0.064583
0.291115 0.688021 0.337580
0.921579 0.658333 0.147533
0.753285 0.605556 0.150599
0.243506 0.666899 0.025000
0.425920 0.582836 0.077778
0.425835 0.658333 0.257808
0.711457 0.208122 0.262500
0.352126 0.658333 0.176362
0.794018 0.688021 0.317938
0.973916 0.685806 0.139992
0.659485 0.605556 0.166170
0.293560 0.354861 0.217069
0.816667 0.376592 0.064610
0.803472 0.579969 0.090220
0.341497 0.688021 0.278163
0.267497 0.579167 0.181241
0.656000 0.183333 0.106133
0.399062 0.688021 0.311515
0.231217 0.183333 0.263686
0.777083 0.624513 0.279700
0.110508 0.688021 0.190424
0.761953 0.688021 0.253705
0.089087 0.658333 0.302872
0.711111 0.555165 0.085584
0.671667 0.183333 0.094913
0.816667 0.126500 0.276900
0.786053 0.068441 0.087726
0.047191 0.688021 0.338051
0.214558 0.070043 0.068492
0.110339 0.688021 0.334499
0.566107 0.579167 0.141749
0.254848 0.183333 0.129152
0.281971 0.156944 0.117005
0.441648 0.605556 0.165468
0.754496 0.605556 0.255359
0.547346 0.354861 0.225318
0.451325 0.354861 0.135178
0.288889 0.489601 0.264943
0.816233 0.254275 0.064583
0.678678 0.374653 0.211097
0.683454 0.658333 0.198212
0.194342 0.688021 0.178976
0.273737 0.354861 0.216193
0.222917 0.218208 0.066166
0.951229 0.683039 0.025000
0.838392 0.688021 0.276505
0.332135 0.605556 0.221860
0.203284 0.503757 0.302083
0.682372 0.688021 0.206980
0.257702 0.688021 0.125246
0.762515 0.605556 0.166064
0.205268 0.158573 0.302083
0.708113 0.156944 0.286502
0.222529 0.446101 0.090972
0.154720 0.658333 0.259624
0.594524 0.605556 0.151173
0.530265 0.183333 0.139774
0.477811 0.658333 0.323450
0.701157 0.688021 0.125884
0.196528 0.162391 0.286512
0.718237 0.402287 0.104167
0.499838 0.605556 0.110204
0.791312 0.209300 0.275694
0.183333 0.331826 0.088803
0.718988 0.337305 0.283611
0.858001 0.026309 0.296928
0.598103 0.156944 0.256851
0.604394 0.183333 0.218951
0.930947 0.688021 0.197461
0.792801 0.658333 0.319144
0.671839 0.658333 0.278246
0.222917 0.140144 0.299110
0.584016 0.156944 0.106767
0.186964 0.658333 0.226939
0.324844 0.354861 0.189248
0.316709 0.605556 0.152244
0.796174 0.321449 0.302083
0.562034 0.579167 0.163359
0.816667 0.627157 0.296674
0.777719 0.156808 0.064583
0.573441 0.658333 0.320224
0.183333 0.240580 0.086507
0.461600 0.354861 0.185676
0.282221 0.658333 0.234137
0.531129 0.605556 0.258354
0.345001 0.688021 0.296128
0.680046 0.374653 0.112114
0.624359 0.658333 0.260777
0.214637 0.156944 0.108709
0.885918 0.658333 0.082460
0.471332 0.688021 0.249294
0.816461 0.277615 0.090972
0.814312 0.298032 0.090972
0.473023 0.183333 0.219284
0.777083 0.240769 0.299638
0.528618 0.579167 0.245091
0.777585 0.459055 0.302083
0.797259 0.288616 0.302083
0.954632 0.688021 0.172684
0.362777 0.688021 0.090581
0.428539 0.579167 0.115049
0.192534 0.586429 0.051389
0.846952 0.688021 0.131631
0.564456 0.686411 0.026689
0.061404 0.658333 0.152185
0.972240 0.687482 0.333231
0.490030 0.687885 0.338504
0.671293 0.183333 0.131314
0.342771 0.374653 0.161108
0.216411 0.579167 0.201038
0.262500 0.455035 0.263121
0.399287 0.658333 0.263410
0.407557 0.156944 0.082081
0.339690 0.374653 0.112441
0.860062 0.688021 0.029634
0.752061 0.183333 0.172328
0.211456 0.622451 0.275694
0.777083 0.278497 0.086420
0.943591 0.658333 0.066318
0.803472 0.605129 0.179890
0.700709 0.686374 0.026652
0.316648 0.605556 0.257882
0.769842 0.183333 0.194306
0.545952 0.658333 0.320759
0.332926 0.585457 0.288889
0.704002 0.183333 0.173061
0.312710 0.605556 0.226081
0.679604 0.605556 0.160697
0.626950 0.658333 0.319595
0.737500 0.225977 0.083384
0.623200 0.605556 0.169490
0.577029 0.156944 0.184539
0.508337 0.156944 0.135541
0.719230 0.658333 0.093029
0.826139 0.025000 0.090152
0.520352 0.156944 0.193438
0.211721 0.688021 0.255229
0.089747 0.685051 0.025329
0.639328 0.658333 0.334791
0.083338 0.658333 0.268571
0.053846 0.659395 0.025000
0.716551 0.688021 0.139166
0.204784 0.605556 0.147883
0.741186 0.183333 0.126605
0.141474 0.025540 0.298400
0.526254 0.661524 0.025000
0.816667 0.251882 0.083644
0.575609 0.658333 0.160870
0.582443 0.688021 0.170376
0.320046 0.688021 0.170219
0.235169 0.183333 0.090727
0.539883 0.156944 0.116455
0.144072 0.028160 0.090972
0.788866 0.490865 0.064583
0.089381 0.688021 0.253449
0.350864 0.661655 0.341667
0.472720 0.179261 0.077778
0.816667 0.135860 0.081118
0.777933 0.321035 0.064583
0.711111 0.394348 0.088757
0.204658 0.303844 0.302083
0.641858 0.156944 0.191278
0.683653 0.579167 0.256296
0.816667 0.328255 0.295342
0.481395 0.605556 0.207140
0.492501 0.658333 0.216189
0.816667 0.338271 0.276105
0.438908 0.605556 0.207492
0.285917 0.545577 0.262500
0.677340 0.374653 0.150206
0.563208 0.374653 0.213137
0.205803 0.545491 0.275694
0.657771 0.182137 0.288889
0.183333 0.288155 0.089828
0.220650 0.393564 0.064583
0.170495 0.068616 0.295130
0.497229 0.658333 0.124114
0.498049 0.579167 0.181933
0.025000 0.663633 0.025689
0.477365 0.605556 0.224822
0.394797 0.354861 0.273706
0.168200 0.688021 0.252387
0.654935 0.156944 0.238634
0.525174 0.156944 0.106123
0.395543 0.183333 0.215535
0.202369 0.132472 0.302083
0.280865 0.400956 0.083056
0.738453 0.178322 0.288889
0.719848 0.333853 0.262500
0.777083 0.524386 0.292278
0.253437 0.605556 0.269001
0.262031 0.605556 0.132038
0.293331 0.605556 0.101610
0.783342 0.658333 0.232210
0.262500 0.356621 0.091504
0.467684 0.354861 0.203739
0.669162 0.354861 0.122096
0.262500 0.386748 0.093553
0.712777 0.435689 0.283611
0.281915 0.688021 0.101600
0.777083 0.458769 0.281710
0.597370 0.605556 0.128110
0.222917 0.133496 0.069909
0.777083 0.509149 0.068975
0.825139 0.584897 0.104167
0.595099 0.680905 0.341667
0.801946 0.637329 0.302083
0.827671 0.658333 0.174790
0.352575 0.183089 0.288889
0.505279 0.183333 0.111831
0.832480 0.063714 0.065087
0.189046 0.297331 0.275694
0.843583 0.658422 0.341667
0.927727 0.688021 0.167338
0.389467 0.354861 0.111556
0.375157 0.354861 0.190948
0.196528 0.604014 0.165675
0.816667 0.242676 0.301339
0.154168 0.685719 0.025997
0.423038 0.183333 0.186343
0.236614 0.579167 0.192665
0.025000 0.684705 0.031215
0.419731 0.688021 0.274701
0.275351 0.156944 0.153484
0.746284 0.658333 0.281379
0.171128 0.605556 0.053032
0.183333 0.267485 0.084863
0.711111 0.392396 0.281826
0.222917 0.375722 0.090141
0.236244 0.156944 0.109589
0.119515 0.658333 0.150437
0.130940 0.658333 0.099702
0.922698 0.688021 0.276733
0.377816 0.658333 0.109253
0.926679 0.688021 0.127495
0.222694 0.373880 0.275694
0.380638 0.354861 0.255557
0.222869 0.554571 0.302083
0.170718 0.605556 0.283741
0.106482 0.658333 0.085385
0.421202 0.688021 0.256824
0.531252 0.658333 0.187196
0.829861 0.605126 0.070565
0.415624 0.374653 0.242162
0.557584 0.374653 0.236348
0.082768 0.658333 0.080883
0.067279 0.658333 0.293609
0.292813 0.605556 0.081382
0.270484 0.688021 0.294496
0.066790 0.688021 0.180982
0.609013 0.605482 0.288889
0.613396 0.183333 0.156575
0.212232 0.658333 0.321687
0.816667 0.351883 0.070287
0.574897 0.374653 0.108113
0.829861 0.591484 0.083279
0.408915 0.658333 0.232614
0.409385 0.579167 0.218998
0.816667 0.151159 0.298334
0.374526 0.688021 0.133123
0.497203 0.579167 0.163372
0.310493 0.688021 0.337038
0.679222 0.354861 0.162575
0.906746 0.688021 0.206440
0.254287 0.156944 0.101949
0.271848 0.583535 0.288889
0.699356 0.688021 0.159649
0.804851 0.033014 0.066154
0.874499 0.688021 0.254867
0.798939 0.113257 0.090972
0.790311 0.455228 0.064583
0.477566 0.156944 0.213918
0.201364 0.539018 0.090972
0.320115 0.658333 0.176644
0.194339 0.311309 0.090972
0.797422 0.523883 0.090972
0.780773 0.476705 0.302083
0.700294 0.579167 0.204040
0.140387 0.658333 0.248486
0.658052 0.579167 0.215167
0.735883 0.658333 0.301207
0.086176 0.688021 0.303797
0.778439 0.619406 0.090972
0.781151 0.084208 0.080082
0.768578 0.605556 0.052479
0.547373 0.658333 0.066694
0.395173 0.685676 0.025954
0.690927 0.156944 0.202783
0.169020 0.658333 0.229141
0.317370 0.688021 0.286643
0.251313 0.183333 0.196659
0.800885 0.688021 0.171746
0.544893 0.183333 0.128030
0.025000 0.672237 0.262447
0.176035 0.658333 0.142177
0.737324 0.528220 0.104167
0.595736 0.374214 0.275694
0.717460 0.579167 0.210693
0.224446 0.605556 0.145598
0.701029 0.374653 0.102157
0.712078 0.354861 0.204349
0.730260 0.354861 0.153505
0.616360 0.156944 0.131041
0.302877 0.688021 0.194499
0.519336 0.156944 0.236633
0.211878 0.233244 0.064583
0.721103 0.183333 0.126453
0.381281 0.658333 0.215706
0.792453 0.485569 0.275694
0.592874 0.156944 0.194082
0.511094 0.658333 0.211746
0.298255 0.156944 0.263417
0.430997 0.579167 0.132847
0.975000 0.658430 0.158486
0.188599 0.067872 0.275694
0.816667 0.547611 0.070491
0.332556 0.374653 0.225359
0.786368 0.418826 0.090972
0.287522 0.658333 0.307656
0.170269 0.688021 0.272591
0.433182 0.688021 0.087143
0.710905 0.354861 0.236971
0.318380 0.658333 0.147754
0.753881 0.579167 0.168893
0.705295 0.605556 0.106976
0.377796 0.674970 0.025000
0.948171 0.688021 0.046691
0.197374 0.183333 0.221918
0.137568 0.658333 0.117045
0.264021 0.156944 0.078809
0.784773 0.156944 0.218551
0.322484 0.666668 0.025000
0.777874 0.102799 0.300002
0.777636 0.156944 0.169979
0.676643 0.676598 0.025000
0.330022 0.579167 0.122734
0.653792 0.658333 0.282202
0.918287 0.688021 0.184620
0.584407 0.658333 0.221040
0.483757 0.579167 0.193485
0.417416 0.688021 0.072101
0.777787 0.103831 0.087377
0.043767 0.688021 0.070438
0.711182 0.507823 0.104167
0.183333 0.637587 0.081112
0.796105 0.051929 0.302083
0.662431 0.183333 0.231854
0.230391 0.183333 0.193082
0.579870 0.658333 0.118785
0.555492 0.688021 0.137536
0.251273 0.183333 0.217373
0.708592 0.688021 0.175402
0.538309 0.688021 0.195334
0.910914 0.684619 0.025000
0.518762 0.688021 0.196566
0.222917 0.512722 0.298761
0.447278 0.688021 0.280291
0.867295 0.688021 0.232524
0.214339 0.210839 0.090972
0.583781 0.354861 0.213528
0.258038 0.658333 0.167835
0.619514 0.688021 0.172912
0.883248 0.658521 0.025000
0.490317 0.688021 0.257358
0.255824 0.658333 0.306551
0.296528 0.183333 0.288806
0.499079 0.605556 0.210132
0.402418 0.183333 0.198392
0.863079 0.658333 0.064147
0.529273 0.688021 0.098422
0.575776 0.374653 0.228973
0.505505 0.156944 0.209125
0.302246 0.156944 0.147485
0.352027 0.374653 0.208817
0.047263 0.688021 0.132490
0.549631 0.688021 0.119622
0.781368 0.156944 0.113429
0.484257 0.183333 0.182926
0.795550 0.052899 0.275694
0.856538 0.688021 0.110983
0.702267 0.605556 0.176499
0.299986 0.156944 0.129704
0.183333 0.564327 0.073383
0.585770 0.354861 0.126758
0.206104 0.159391 0.077778
0.608111 0.183333 0.239270
0.264667 0.415763 0.262500
0.287003 0.231683 0.262500
0.025000 0.658757 0.176673
0.781398 0.156944 0.195325
0.956664 0.658333 0.295808
0.570209 0.688021 0.296025
0.288889 0.279352 0.283047
0.176114 0.688021 0.180765
0.278422 0.374653 0.130435
0.682146 0.183333 0.263870
0.478732 0.658333 0.295413
0.754746 0.183333 0.107273
0.553574 0.659457 0.341667
0.806841 0.688021 0.305358
0.708964 0.605556 0.126199
0.661712 0.688021 0.138472
0.365471 0.658333 0.123496
0.362769 0.579167 0.150714
0.531038 0.182045 0.288889
0.469933 0.374653 0.170639
0.102809 0.688021 0.046689
0.499385 0.605556 0.190500
0.221190 0.658333 0.042253
0.545600 0.183333 0.205467
0.145987 0.688021 0.259460
0.488209 0.183333 0.124163
0.816634 0.163456 0.090972
0.271277 0.221925 0.262500
0.436191 0.688021 0.028319
0.421478 0.658605 0.025000
0.204583 0.516612 0.090972
0.702529 0.658333 0.205462
0.816667 0.623568 0.277650
0.599101 0.354861 0.102950
0.222917 0.328702 0.299232
0.892831 0.658333 0.065694
0.183333 0.121085 0.275874
0.200427 0.605556 0.053720
0.541061 0.658333 0.209273
0.177436 0.658333 0.247579
0.820833 0.681021 0.025000
0.531370 0.688021 0.079005
0.527552 0.602677 0.077778
0.452041 0.688021 0.083495
0.779665 0.239670 0.064583
0.608608 0.156944 0.182827
0.461574 0.354861 0.269986
0.953964 0.688021 0.338174
0.043099 0.658333 0.113992
0.098270 0.688021 0.106780
0.740325 0.156944 0.232223
0.196528 0.161508 0.178140
0.580353 0.354861 0.231892
0.449807 0.602327 0.077778
0.864203 0.658333 0.197460
0.816667 0.606984 0.292642
0.835992 0.658333 0.295591
0.572646 0.579167 0.178752
0.149670 0.688021 0.285459
0.155542 0.666220 0.025000
0.287997 0.468514 0.083056
0.905331 0.658333 0.325245
0.198831 0.086707 0.275694
0.797512 0.255520 0.064583
0.616555 0.605556 0.119670
0.975000 0.661907 0.276783
0.379613 0.605556 0.163519
0.810561 0.071530 0.090972
0.816992 0.109800 0.066555
0.623118 0.156944 0.171167
0.651103 0.156944 0.220418
0.725915 0.579167 0.236075
0.803918 0.658333 0.026816
0.298272 0.658333 0.025351
0.675241 0.688021 0.159207
0.927416 0.688021 0.301738
0.586678 0.658333 0.303963
0.292551 0.354861 0.189165
0.848818 0.688021 0.159158
0.420866 0.605556 0.148783
0.770545 0.183333 0.083045
0.514663 0.354861 0.258713
0.824037 0.604804 0.262500
0.836752 0.025000 0.283976
0.183333 0.316895 0.077780
0.341868 0.605556 0.259328
0.191572 0.688021 0.139983
0.819071 0.044518 0.064583
0.288889 0.445833 0.103430
0.829861 0.581459 0.314725
0.608839 0.374653 0.151530
0.733636 0.688021 0.132482
0.357811 0.183333 0.161465
0.739298 0.688021 0.323809
0.222660 0.424575 0.090972
0.488451 0.579167 0.143900
0.202670 0.579167 0.312741
0.206407 0.658333 0.027106
0.264741 0.396845 0.262500
0.730592 0.605556 0.243335
0.164125 0.688021 0.234261
0.288625 0.489645 0.283611
0.383441 0.156944 0.122562
0.632842 0.605556 0.216553
0.710181 0.688021 0.042109
0.307815 0.183333 0.115020
0.779304 0.128748 0.090972
0.777601 0.344850 0.302083
0.912292 0.688021 0.051941
0.740146 0.183333 0.270858
0.478798 0.605556 0.105903
0.484330 0.605556 0.171090
0.185960 0.049891 0.275694
0.713437 0.687207 0.339182
0.219042 0.086866 0.275694
0.854371 0.658333 0.302220
0.260349 0.658333 0.026724
0.730903 0.356805 0.175800
0.714819 0.658333 0.323485
0.474024 0.183333 0.243339
0.704773 0.658333 0.249621
0.872378 0.688021 0.123330
0.711111 0.488909 0.103979
0.639229 0.374653 0.186592
0.498266 0.688021 0.234313
0.269530 0.295984 0.262500
0.327224 0.688021 0.150309
0.193932 0.289194 0.302083
0.953743 0.658333 0.275613
0.765578 0.688021 0.271431
0.324404 0.688021 0.127481
0.508050 0.605556 0.093556
0.208476 0.562495 0.064583
0.683806 0.605556 0.178756
0.737500 0.364650 0.277350
0.588417 0.183333 0.191359
0.271536 0.502246 0.283611
0.113406 0.658333 0.063695
0.464262 0.354861 0.221733
0.264675 0.204205 0.283611
0.389638 0.659956 0.341667
0.596082 0.658333 0.094283
0.214610 0.183333 0.133996
0.957268 0.658333 0.089717
0.729378 0.688021 0.040345
0.142531 0.025000 0.065092
0.208231 0.350836 0.064583
0.791619 0.338372 0.064583
0.222177 0.297333 0.064583
0.262500 0.291859 0.101024
0.560601 0.183333 0.216525
0.240478 0.688021 0.059073
0.638741 0.688021 0.086370
0.777083 0.559034 0.086505
0.717776 0.658333 0.298899
0.222917 0.313769 0.277320
0.560177 0.183333 0.081079
0.262500 0.222214 0.281404
0.400548 0.674218 0.341667
0.871490 0.688021 0.307628
0.562719 0.587681 0.077778
0.494829 0.374653 0.161387
0.292191 0.688021 0.172045
0.168027 0.658333 0.173989
0.222917 0.227574 0.081502
0.208232 0.688021 0.150336
0.707267 0.156944 0.100295
0.198968 0.156944 0.132717
0.289504 0.354861 0.239089
0.269097 0.355421 0.124172
0.026321 0.686043 0.140570
0.321179 0.156944 0.245346
0.529825 0.160854 0.288889
0.652448 0.183333 0.088493
0.194895 0.032601 0.299375
0.863173 0.658333 0.087337
0.696339 0.374653 0.224717
0.737500 0.495844 0.264731
0.447164 0.354994 0.090972
0.183333 0.160964 0.065386
0.816667 0.437951 0.069402
0.196528 0.158225 0.114071
0.507833 0.156944 0.115467
0.764516 0.605556 0.314316
0.568744 0.374653 0.148068
0.898453 0.688021 0.335418
0.975000 0.674315 0.294395
0.704054 0.688021 0.105391
0.853184 0.658333 0.246275
0.561263 0.685146 0.341243
0.621813 0.684480 0.025000
0.777083 0.349712 0.071912
0.474927 0.688021 0.167894
0.413099 0.579167 0.136019
0.087932 0.658333 0.176535
0.519736 0.605556 0.133590
0.190663 0.028329 0.090972
0.470766 0.684023 0.025000
0.914042 0.658333 0.129660
0.177950 0.599000 0.262500
0.356955 0.658333 0.195890
0.503427 0.579167 0.231860
0.659614 0.688021 0.254835
0.081102 0.688021 0.042485
0.929102 0.658333 0.168961
0.673576 0.156944 0.238478
0.608548 0.156944 0.203261
0.868631 0.658333 0.111987
0.026562 0.686284 0.078390
0.470547 0.579167 0.105367
0.698076 0.676100 0.341667
0.217244 0.183333 0.248849
0.183333 0.272542 0.299275
0.196528 0.181622 0.240074
0.664485 0.354861 0.247752
0.210194 0.605556 0.130138
0.825986 0.658333 0.101839
0.824340 0.658333 0.082146
0.677814 0.156944 0.151890
0.367844 0.374653 0.172530
0.459243 0.374653 0.154237
0.177442 0.025000 0.300700
0.385945 0.658333 0.177442
0.657427 0.354861 0.182661
0.196688 0.658333 0.107360
0.379185 0.183333 0.079879
0.798778 0.236748 0.064583
0.453809 0.688021 0.103798
0.822866 0.044847 0.090972
0.806703 0.070193 0.275694
0.713013 0.531350 0.104167
0.570234 0.658333 0.295071
0.578241 0.156944 0.285507
0.279921 0.183333 0.122653
0.389282 0.605556 0.124812
0.625392 0.688021 0.099595
0.060533 0.658333 0.275168
0.446148 0.370760 0.275694
0.711111 0.516322 0.087938
0.146486 0.688021 0.237853
0.275798 0.156944 0.227884
0.728023 0.688021 0.058699
0.562826 0.602917 0.288889
0.219398 0.086336 0.075021
0.285634 0.391326 0.104167
0.465598 0.156944 0.098087
0.522992 0.156944 0.214449
0.727220 0.596495 0.077778
0.481896 0.579167 0.288146
0.190426 0.658333 0.325142
0.185025 0.437398 0.064583
0.183333 0.172850 0.280057
0.795587 0.642473 0.064583
0.612532 0.605556 0.218111
0.382356 0.687294 0.339095
0.222917 0.197241 0.082698
0.883072 0.658333 0.194856
0.816667 0.398666 0.068136
0.204451 0.688021 0.029708
0.236117 0.658333 0.290115
0.202989 0.228306 0.090972
0.245125 0.160521 0.077778
0.262500 0.516226 0.276043
0.730133 0.324996 0.083056
0.972307 0.663249 0.341667
0.385907 0.579167 0.183364
0.196528 0.588444 0.197831
0.290127 0.374653 0.210248
0.831521 0.688021 0.169187
0.751608 0.183333 0.192618
0.313489 0.579167 0.109155
0.583655 0.156944 0.144596
0.975000 0.680130 0.043275
0.737500 0.339809 0.100852
0.202107 0.109011 0.275694
0.815475 0.025000 0.297974
0.582902 0.687432 0.027709
0.628653 0.374653 0.156282
0.067896 0.685635 0.340754
0.350336 0.156944 0.149910
0.751357 0.183333 0.081289
0.172412 0.034316 0.275694
0.816667 0.393987 0.298648
0.777190 0.495275 0.275694
0.265563 0.405317 0.104167
0.717060 0.309239 0.083056
0.162223 0.050070 0.275694
0.973643 0.686080 0.095679
0.363227 0.605556 0.203976
0.167555 0.025000 0.090729
0.799690 0.156592 0.302083
0.387247 0.658333 0.085721
0.361705 0.156944 0.129688
0.519269 0.354861 0.092048
0.183333 0.301222 0.066037
0.939420 0.658333 0.086782
0.171449 0.605556 0.071493
0.415991 0.683956 0.341667
0.688587 0.688021 0.176735
0.975000 0.683943 0.273607
0.763051 0.664265 0.341667
0.117511 0.658333 0.174787
0.196528 0.160128 0.233636
0.253141 0.686424 0.026702
0.595425 0.374653 0.223612
0.492387 0.579167 0.087301
0.737182 0.688021 0.305063
0.324075 0.156944 0.264432
0.201570 0.637417 0.302083
0.262500 0.422568 0.098539
0.202875 0.045630 0.082992
0.382128 0.156944 0.223908
0.803472 0.583109 0.132119
0.222917 0.335294 0.065907
0.187364 0.458116 0.064583
0.399107 0.688021 0.080587
0.777083 0.431537 0.301169
0.884810 0.688021 0.082285
0.183997 0.340047 0.275694
0.842950 0.684793 0.025071
0.585118 0.688021 0.251404
0.783117 0.642964 0.275694
0.783154 0.579167 0.103946
0.959708 0.688021 0.217091
0.825895 0.688021 0.090773
0.195117 0.596393 0.315278
0.183333 0.637926 0.278232
0.573567 0.579167 0.263019
0.870573 0.688021 0.149553
0.296274 0.156944 0.225794
0.135449 0.658845 0.341667
0.574968 0.658753 0.341667
0.619266 0.183333 0.204984
0.816370 0.381743 0.090972
0.964601 0.688021 0.056069
0.117914 0.658333 0.196746
0.785967 0.353873 0.090972
0.218934 0.394589 0.090972
0.489680 0.660470 0.341667
0.511624 0.354861 0.136056
0.816667 0.478393 0.276549
0.792326 0.505852 0.090972
0.372618 0.658333 0.335421
0.750615 0.605556 0.213150
0.791032 0.658333 0.211725
0.849383 0.688021 0.093525
0.807488 0.218072 0.275694
0.183333 0.483031 0.065237
0.904803 0.688021 0.093804
0.215336 0.072185 0.286972
0.185610 0.089689 0.302083
0.500236 0.658333 0.324811
0.237051 0.658333 0.320962
0.777083 0.274113 0.297084
0.222917 0.222537 0.279474
0.567875 0.579167 0.093239
0.759540 0.579167 0.109176
0.456694 0.354861 0.165681
0.426881 0.156944 0.288053
0.641868 0.658333 0.267113
0.816667 0.499241 0.301016
0.512635 0.688021 0.222591
0.183697 0.524308 0.302083
0.547453 0.579167 0.252760
0.287344 0.261499 0.283611
0.202073 0.353044 0.275694
0.780636 0.132433 0.275694
0.420552 0.658333 0.144792
0.808802 0.658333 0.218962
0.222908 0.379771 0.302083
0.220667 0.464602 0.090972
0.135687 0.682088 0.025000
0.777083 0.414042 0.279331
0.197046 0.156944 0.214842
0.656069 0.374653 0.203574
0.754217 0.686214 0.340175
0.816295 0.045837 0.302083
0.037239 0.688021 0.157184
0.222917 0.263811 0.298237
0.640209 0.585844 0.077778
0.195635 0.688021 0.284387
0.806010 0.473358 0.064583
0.118635 0.658333 0.318987
0.324136 0.688021 0.324929
0.270160 0.579167 0.162509
0.712181 0.274589 0.283611
0.142196 0.025585 0.275694
0.931910 0.686802 0.027080
0.453523 0.688021 0.260176
0.080096 0.688021 0.268756
0.188456 0.147990 0.302083
0.051703 0.688021 0.195243
0.725738 0.605556 0.180397
0.695844 0.156944 0.172814
0.128715 0.688021 0.247874
0.657724 0.579167 0.077831
0.301536 0.658333 0.232204
0.484539 0.183333 0.286614
0.492712 0.658333 0.198127
0.939439 0.688021 0.287544
0.258984 0.579167 0.264227
0.729854 0.354861 0.128045
0.718755 0.688021 0.310520
0.375747 0.688021 0.321290
0.136622 0.658333 0.266651
0.657137 0.183333 0.250523
0.217480 0.605556 0.164719
0.719321 0.376940 0.083056
0.590492 0.183333 0.165803
0.235743 0.658333 0.066776
0.760863 0.658333 0.123118
0.335249 0.658333 0.187442
0.534725 0.579167 0.197769
0.900850 0.662481 0.025000
0.781333 0.662257 0.341667
0.577074 0.605556 0.108704
0.206013 0.410621 0.090972
0.513313 0.658333 0.097805
0.725655 0.374653 0.220401
0.280476 0.156944 0.095476
0.276300 0.156944 0.247844
0.763889 0.581592 0.312516
0.629814 0.579167 0.256645
0.894196 0.688021 0.137183
0.779446 0.658333 0.121304
0.487045 0.688021 0.036758
0.218657 0.083465 0.300822
0.210662 0.613626 0.090972
0.921688 0.667693 0.025000
0.344485 0.354861 0.185960
0.265239 0.237744 0.083056
0.198918 0.181007 0.288889
0.588426 0.183333 0.230169
0.808280 0.027453 0.087286
0.041181 0.658333 0.094689
0.480949 0.605556 0.272830
0.723314 0.658333 0.235795
0.798947 0.175085 0.302083
0.779233 0.282608 0.275694
0.196528 0.182134 0.169594
0.453298 0.156944 0.154593
0.319791 0.374653 0.113623
0.746453 0.605556 0.090704
0.437982 0.688021 0.249831
0.474874 0.374653 0.195464
0.737377 0.307887 0.083056
0.542221 0.605556 0.094974
0.827830 0.605556 0.096659
0.297270 0.605556 0.156681
0.346399 0.579167 0.209983
0.336169 0.658333 0.141717
0.509368 0.156944 0.153920
0.816667 0.487277 0.073510
0.951438 0.688021 0.155057
0.500869 0.658333 0.275164
0.638090 0.183333 0.186608
0.567684 0.354861 0.257424
0.491321 0.354861 0.217565
0.351145 0.354861 0.130672
0.460673 0.156944 0.174003
0.787546 0.064532 0.289162
0.756885 0.688021 0.235115
0.318735 0.658333 0.197381
0.029763 0.658333 0.080075
0.856366 0.025000 0.278011
0.218406 0.688021 0.301846
0.190061 0.327200 0.064583
0.558088 0.183333 0.100635
0.674270 0.183333 0.152572
0.680819 0.688021 0.248228
0.829815 0.688021 0.066650
0.257818 0.602652 0.288889
0.296357 0.605556 0.235882
0.237375 0.579167 0.215609
0.795036 0.600659 0.051389
0.184777 0.688021 0.097788
0.797033 0.688021 0.232864
0.129927 0.688021 0.273392
0.724021 0.658333 0.060019
0.763135 0.658333 0.043833
0.564649 0.354861 0.220501
0.185576 0.129415 0.090972
0.405603 0.156944 0.112809
0.170139 0.580203 0.263531
0.308141 0.658333 0.050689
0.155230 0.688021 0.049344
0.697811 0.354861 0.171916
0.402793 0.183333 0.270516
0.353376 0.156944 0.173138
0.564074 0.156944 0.201044
0.634831 0.354861 0.133346
0.025000 0.683890 0.059597
0.391273 0.374653 0.131664
0.221870 0.603654 0.104167
0.183333 0.251843 0.296047
0.606850 0.688021 0.100462
0.688378 0.156944 0.098472
0.800172 0.364881 0.090972
0.355333 0.658333 0.025905
0.735428 0.524753 0.283611
0.741739 0.595563 0.288889
0.705301 0.156944 0.265561
0.846137 0.688021 0.238836
0.288889 0.250196 0.263013
0.640981 0.686508 0.026786
0.491835 0.177764 0.077778
0.223345 0.688021 0.046963
0.706828 0.688021 0.060691
0.401910 0.688021 0.252045
0.465122 0.658333 0.188446
0.786115 0.664791 0.025000
0.777083 0.332624 0.089470
0.109226 0.688021 0.164319
0.202961 0.370905 0.302083
0.766842 0.658333 0.278524
0.816667 0.565305 0.088390
0.807331 0.640611 0.275694
0.557873 0.183333 0.245522
0.687147 0.688021 0.225186
0.108318 0.658333 0.043676
0.636289 0.374653 0.096415
0.659259 0.658333 0.338659
0.365136 0.579167 0.225241
0.207812 0.324665 0.064583
0.848826 0.658333 0.099709
0.777265 0.221436 0.302083
0.737500 0.239098 0.100158
0.616944 0.374653 0.229165
0.375913 0.580279 0.288889
0.446404 0.183333 0.135837
0.289627 0.658333 0.093136
0.043250 0.658333 0.176715
0.384056 0.605556 0.209459
0.288869 0.508081 0.104167
0.345318 0.183333 0.251625
0.632430 0.579167 0.169932
0.551125 0.354861 0.248955
0.729865 0.179580 0.077778
0.462405 0.183333 0.264553
0.816667 0.294827 0.070841
0.816667 0.458922 0.276488
0.300911 0.688021 0.116300
0.975000 0.684565 0.118370
0.222446 0.203465 0.275694
0.414898 0.687084 0.027362
0.809020 0.040905 0.275694
0.648768 0.156944 0.258698
0.762255 0.658333 0.192995
0.907470 0.688021 0.265913
0.576526 0.658333 0.179694
0.933060 0.688021 0.149132
0.814741 0.643105 0.090972
0.600270 0.182662 0.288889
0.650148 0.183333 0.133754
0.435168 0.181662 0.288889
0.301120 0.658333 0.321058
0.222917 0.461151 0.069621
0.573244 0.605556 0.135982
0.202290 0.562462 0.302083
0.817052 0.658333 0.189452
0.503892 0.157455 0.077778
0.822030 0.658333 0.260336
0.405536 0.605556 0.161474
0.627936 0.183333 0.169527
0.814664 0.381754 0.275694
0.618821 0.688021 0.300168
0.924601 0.688021 0.253340
0.488430 0.183333 0.104328
0.182815 0.658333 0.159328
0.429961 0.666110 0.341667
0.585483 0.579167 0.097368
0.210395 0.239734 0.275694
0.204148 0.371017 0.090972
0.183333 0.357342 0.280347
0.660744 0.658333 0.087972
0.356336 0.658333 0.082117
0.583346 0.183333 0.130413
0.777083 0.312994 0.080760
0.786300 0.076453 0.064583
0.816667 0.222935 0.293449
0.816667 0.523360 0.295338
0.323882 0.374653 0.154005
0.183133 0.579167 0.313254
0.299223 0.374653 0.095527
0.349311 0.605556 0.287994
0.415183 0.658333 0.048082
0.513130 0.658333 0.256847
0.262906 0.307895 0.083056
0.732392 0.663530 0.025000
0.203518 0.455952 0.275694
0.222917 0.516643 0.090064
0.830594 0.658333 0.244130
0.653115 0.374653 0.116531
0.462036 0.658333 0.058864
0.732076 0.343563 0.083056
0.518973 0.605556 0.244756
0.725919 0.605556 0.094179
0.043853 0.658333 0.222072
0.419458 0.605556 0.096005
0.777083 0.215324 0.285183
0.364297 0.584927 0.077778
0.707188 0.579167 0.160690
0.461780 0.658333 0.282678
0.518624 0.156944 0.275078
0.207299 0.285996 0.064583
0.318610 0.658333 0.258163
0.586490 0.157024 0.077778
0.459659 0.605556 0.162373
0.177140 0.668784 0.341667
0.048318 0.688021 0.088836
0.425079 0.183333 0.269524
0.576299 0.579167 0.243643
0.303654 0.579167 0.254996
0.788306 0.183333 0.202693
0.270213 0.511874 0.104167
0.596839 0.658333 0.322846
0.777083 0.389886 0.067515
0.701775 0.354861 0.219611
0.510307 0.658333 0.186560
0.151624 0.688021 0.334577
0.158923 0.048751 0.302083
0.391297 0.658333 0.321718
0.446097 0.658333 0.197893
0.555460 0.183333 0.263405
0.175566 0.598340 0.315278
0.046674 0.679606 0.025000
0.402470 0.354861 0.255769
0.560598 0.374653 0.120026
0.674233 0.374653 0.192278
0.816667 0.233174 0.090613
0.913782 0.688021 0.077092
0.183608 0.496117 0.275694
0.487652 0.156944 0.113116
0.748104 0.589423 0.077778
0.856946 0.688021 0.212061
0.663122 0.658333 0.064756
0.672788 0.354861 0.263756
0.717259 0.442412 0.083056
0.147096 0.658333 0.223691
0.916003 0.658333 0.297968
0.183333 0.189958 0.088837
0.971755 0.687967 0.202465
0.205349 0.284626 0.090972
0.574243 0.688021 0.044470
0.239277 0.605556 0.108685
0.196528 0.579238 0.129018
0.576237 0.374653 0.274821
0.676067 0.183333 0.284847
0.547258 0.156944 0.192620
0.465886 0.658333 0.169818
0.255675 0.156944 0.122774
0.816667 0.127485 0.301348
0.528638 0.183333 0.108727
0.495131 0.374653 0.142740
0.584301 0.374653 0.124355
0.550297 0.658333 0.118524
0.511671 0.374653 0.120644
0.936707 0.658333 0.105323
0.293770 0.579167 0.239643
0.608393 0.579167 0.205559
0.925032 0.658333 0.225653
0.474946 0.579167 0.079665
0.329101 0.579167 0.200583
0.737500 0.478864 0.087658
0.941127 0.658333 0.215852
0.737500 0.506245 0.281428
0.675902 0.354861 0.180570
0.812186 0.311580 0.064583
0.183333 0.619269 0.076753
0.561132 0.156944 0.276964
0.167105 0.688021 0.323666
0.568442 0.658333 0.060032
0.841850 0.049981 0.072473
0.216030 0.074361 0.090574
0.402905 0.662786 0.025000
0.201800 0.200042 0.275694
0.039856 0.658333 0.037811
0.797749 0.284558 0.090972
0.748748 0.658333 0.263337
0.482832 0.658333 0.275321
0.861786 0.688021 0.324716
0.214460 0.605556 0.250534
0.025000 0.680377 0.174256
0.337736 0.658333 0.122678
0.485693 0.354861 0.200559
0.136350 0.658333 0.143098
0.811209 0.502535 0.064583
0.412587 0.354861 0.165086
0.510711 0.579167 0.198595
0.066943 0.688021 0.292907
0.697768 0.374653 0.205413
0.573560 0.374653 0.191296
0.415443 0.658333 0.125985
0.821984 0.688021 0.269297
0.744179 0.688021 0.103763
0.306006 0.183333 0.271568
0.725755 0.161244 0.288889
0.674488 0.658333 0.152679
0.320328 0.579167 0.183168
0.840991 0.658333 0.116967
0.377812 0.354861 0.235118
0.681677 0.374653 0.175523
0.970563 0.688021 0.312824
0.350238 0.688021 0.028370
0.195355 0.658333 0.184968
0.858806 0.025000 0.089721
0.856614 0.658333 0.227869
0.256183 0.658333 0.118892
0.195809 0.658333 0.243846
0.797748 0.686820 0.027098
0.655836 0.658333 0.193920
0.306225 0.183333 0.191976
0.750929 0.688021 0.127842
0.213002 0.183333 0.207665
0.100607 0.658333 0.159361
0.288889 0.201358 0.101976
0.824161 0.658333 0.132449
0.719384 0.605556 0.162348
0.396354 0.176607 0.077778
0.283170 0.688021 0.188454
0.762179 0.156944 0.183538
0.392839 0.658333 0.121899
0.393669 0.156944 0.203813
0.555558 0.688021 0.043808
0.239473 0.605556 0.127743
0.766839 0.605556 0.232674
0.682559 0.605556 0.224005
0.183333 0.354072 0.300504
0.653186 0.686484 0.339905
0.183333 0.462720 0.278441
0.262500 0.440549 0.083919
0.403940 0.688021 0.291923
0.635705 0.354861 0.275214
0.393526 0.156944 0.270830
0.602257 0.374653 0.190144
0.685739 0.688021 0.104539
0.622215 0.605556 0.188537
0.714051 0.659063 0.025000
0.973670 0.686052 0.161109
0.543920 0.374653 0.192942
0.201859 0.688021 0.052867
0.227326 0.605556 0.179942
0.809024 0.068720 0.064583
0.812576 0.658333 0.117416
0.805669 0.688021 0.287425
0.390123 0.156944 0.103753
0.855407 0.025000 0.068828
0.267878 0.460522 0.083056
0.183333 0.149261 0.277391
0.207730 0.640421 0.275694
0.365059 0.579167 0.206856
0.925293 0.658333 0.321134
0.762767 0.156944 0.119632
0.463606 0.579167 0.182677
0.317036 0.183333 0.210487
0.694969 0.667332 0.025000
0.768862 0.579167 0.056637
0.237571 0.688021 0.264415
0.234323 0.688021 0.032556
0.777083 0.389275 0.276531
0.264847 0.578877 0.104167
0.635096 0.676255 0.341667
0.734027 0.183333 0.168900
0.378866 0.688021 0.264199
0.810677 0.605556 0.314730
0.583312 0.173828 0.288889
0.763265 0.166258 0.077778
0.793378 0.397994 0.064583
0.674263 0.183333 0.173999
0.715306 0.336100 0.083056
0.711111 0.412978 0.084296
0.338093 0.658333 0.308092
0.183333 0.506034 0.292837
0.817428 0.105281 0.291164
0.638282 0.658333 0.235807
0.613839 0.156944 0.154692
0.285397 0.238631 0.083056
0.952802 0.688021 0.319331
0.465165 0.183333 0.134069
0.560976 0.579167 0.233968
0.487909 0.688021 0.181143
0.219107 0.688021 0.165521
0.395146 0.579167 0.131705
0.816667 0.459837 0.300981
0.471801 0.688021 0.053491
0.778095 0.202580 0.302083
0.397737 0.354861 0.233859
0.803472 0.596874 0.281204
0.650133 0.605556 0.146967
0.287447 0.354861 0.165631
0.372802 0.605556 0.187119
0.590033 0.688021 0.093905
0.828669 0.070121 0.301904
0.288481 0.563724 0.283611
0.119516 0.658333 0.242309
0.703689 0.183333 0.101753
0.711563 0.688021 0.079224
0.182695 0.106160 0.069665
0.779675 0.687534 0.027812
0.644865 0.183333 0.273948
0.790531 0.688021 0.214159
0.298987 0.658333 0.205542
0.711111 0.268939 0.263085
0.422997 0.658333 0.181799
0.673983 0.658333 0.134771
0.544699 0.599706 0.288889
0.182616 0.658333 0.306793
0.545053 0.688021 0.028560
0.795915 0.459890 0.302083
0.230786 0.658333 0.267209
0.273159 0.158164 0.288889
0.205317 0.308814 0.275694
0.719822 0.667390 0.341667
0.777083 0.367378 0.083267
0.381353 0.579167 0.155316
0.236111 0.594293 0.315061
0.286038 0.688021 0.237173
0.771097 0.688021 0.068425
0.816667 0.187413 0.082997
0.332057 0.374653 0.204605
0.066953 0.666873 0.341667
0.803472 0.175357 0.152862
0.379425 0.688021 0.115367
0.796092 0.085733 0.090972
0.311096 0.183179 0.077778
0.700135 0.688021 0.320623
0.221249 0.199503 0.064583
0.354207 0.658333 0.139102
0.025000 0.669759 0.341546
0.939331 0.688021 0.241538
0.680510 0.183333 0.112420
0.234110 0.667650 0.341667
0.743708 0.579167 0.238358
0.722851 0.680872 0.025000
0.254988 0.156944 0.214489
0.520177 0.605556 0.110982
0.803472 0.181731 0.215712
0.812272 0.634822 0.064583
0.591032 0.579167 0.279501
0.222917 0.245442 0.075866
0.650672 0.579167 0.183596
0.430524 0.658333 0.238367
0.777083 0.254398 0.287434
0.784339 0.078475 0.275694
0.611840 0.156944 0.269309
0.443848 0.658333 0.275351
0.777083 0.396981 0.293900
0.183333 0.375094 0.086538
0.503607 0.156944 0.260260
0.614036 0.183333 0.183994
0.519305 0.658333 0.115793
0.186718 0.688021 0.330199
0.970049 0.688021 0.182813
0.196528 0.582526 0.147090
0.699592 0.658333 0.231617
0.340640 0.658333 0.070496
0.365322 0.374653 0.151738
0.350395 0.579167 0.169073
0.537374 0.658333 0.257479
0.595145 0.579167 0.171956
0.737500 0.551020 0.263223
0.025000 0.665688 0.245074
0.025000 0.681781 0.278374
0.288889 0.466236 0.101283
0.185798 0.047242 0.064583
0.493506 0.658333 0.307056
0.779283 0.150580 0.302083
0.680429 0.658333 0.091224
0.725444 0.183333 0.107241
0.222917 0.632786 0.285182
0.891579 0.658333 0.269924
0.806616 0.261205 0.302083
0.193711 0.030682 0.065059
0.361750 0.579167 0.095127
0.181944 0.688021 0.042268
0.711111 0.255711 0.281830
0.713204 0.288142 0.262500
0.481408 0.183333 0.141942
0.184116 0.306235 0.302083
0.908189 0.674085 0.341667
0.816667 0.145969 0.276308
0.236275 0.579167 0.258336
0.807588 0.398421 0.090972
0.805544 0.277062 0.064583
0.869226 0.688021 0.279827
0.765344 0.156944 0.219596
0.275504 0.489849 0.104167
0.654178 0.166821 0.077778
0.620524 0.605556 0.079364
0.560043 0.605556 0.122658
0.222917 0.208360 0.299576
0.652019 0.658333 0.174659
0.054498 0.658333 0.253185
0.043112 0.658333 0.199154
0.446907 0.658333 0.171021
0.605868 0.374653 0.243904
0.597026 0.666306 0.025000
0.457100 0.605556 0.218168
0.254460 0.579167 0.148425
0.288889 0.482752 0.094016
0.793848 0.156944 0.181934
0.803472 0.601169 0.219682
0.239583 0.605556 0.200677
0.256801 0.156944 0.277963
0.777539 0.137958 0.064583
0.854554 0.688021 0.299454
0.507797 0.372343 0.090972
0.975000 0.660426 0.047956
0.222917 0.174661 0.070347
0.573305 0.688021 0.186159
0.106402 0.688021 0.124512
0.816667 0.346820 0.297373
0.470695 0.688021 0.077897
0.693450 0.579167 0.172484
0.897160 0.688021 0.281089
0.439544 0.658333 0.106850
0.571989 0.658333 0.207405
0.336008 0.183333 0.146645
0.265692 0.658333 0.148863
0.698149 0.603837 0.288889
0.204326 0.688021 0.125198
0.832475 0.658333 0.221878
0.285750 0.156944 0.210405
0.222917 0.317640 0.072623
0.604856 0.688021 0.246956
0.381735 0.658333 0.236274
0.479949 0.374653 0.215375
0.552086 0.658333 0.223841
0.846990 0.686037 0.340352
0.222709 0.440773 0.302083
0.222389 0.579167 0.125563
0.067791 0.686453 0.026731
0.222673 0.226989 0.302083
0.897260 0.658333 0.096637
0.730039 0.156944 0.271150
0.282622 0.658333 0.289334
0.686969 0.156944 0.250888
0.748575 0.658333 0.137540
0.639907 0.688021 0.252438
0.210770 0.258050 0.275694
0.523193 0.374653 0.193083
0.779421 0.579167 0.221956
0.494240 0.605556 0.081310
0.379962 0.658333 0.031768
0.222917 0.540596 0.285463
0.951843 0.688021 0.128915
0.110197 0.659204 0.025000
0.247807 0.687272 0.339117
0.402024 0.156944 0.288010
0.741025 0.658333 0.114694
0.650460 0.688021 0.232254
0.526002 0.687496 0.027774
0.264149 0.688021 0.311267
0.803472 0.579659 0.243929
0.222917 0.508792 0.073119
0.757951 0.658333 0.219666
0.771341 0.183333 0.216997
0.975000 0.676871 0.068196
0.656436 0.658333 0.139645
0.290689 0.374653 0.187249
0.186550 0.610282 0.275694
0.797283 0.382980 0.090972
0.183333 0.374916 0.275694
0.670607 0.354861 0.199250
0.314966 0.374653 0.132278
0.636673 0.579167 0.094263
0.230493 0.579167 0.232312
0.647846 0.579167 0.252968
0.711855 0.535894 0.083056
0.196528 0.159991 0.255862
0.975000 0.669820 0.197889
0.633398 0.354861 0.223799
0.433672 0.688021 0.107441
0.358443 0.590071 0.288889
0.461465 0.183333 0.111719
0.421252 0.605556 0.257380
0.269523 0.688021 0.175992
0.338547 0.156944 0.198834
0.361289 0.605527 0.077778
0.272466 0.531436 0.283611
0.755761 0.156944 0.241391
0.663084 0.579167 0.233823
0.655275 0.674621 0.025000
0.419360 0.579167 0.259055
0.731807 0.579167 0.173354
0.206057 0.374090 0.064583
0.371769 0.183333 0.282187
0.670894 0.605556 0.261137
0.505993 0.685954 0.026232
0.326819 0.183333 0.127903
0.222917 0.534267 0.085217
0.488341 0.156944 0.131179
0.202700 0.282327 0.275694
0.764214 0.183333 0.259866
0.287962 0.270049 0.262500
0.570600 0.688021 0.273093
0.483605 0.658333 0.059712
0.351706 0.156944 0.105154
0.974292 0.658333 0.181864
0.436803 0.579167 0.263184
0.222917 0.261015 0.088106
0.332054 0.579167 0.104205
0.698776 0.658333 0.186029
0.698020 0.658333 0.041198
0.753259 0.183333 0.210555
0.278994 0.605556 0.284074
0.797054 0.688021 0.145555
0.683610 0.658333 0.260572
0.531196 0.183333 0.229711
0.721367 0.658333 0.264494
0.104758 0.658333 0.227863
0.276685 0.605556 0.174337
0.656407 0.354861 0.223661
0.222917 0.280829 0.083730
0.197558 0.562113 0.090972
0.222072 0.579167 0.171447
0.736789 0.347737 0.283611
0.803472 0.158999 0.197236
0.053545 0.658333 0.049674
0.705252 0.658333 0.058769
0.446125 0.658333 0.315780
0.653610 0.605556 0.252774
0.790690 0.605556 0.162916
0.687352 0.579167 0.189569
0.222917 0.335372 0.089947
0.385531 0.374653 0.164611
0.716569 0.230678 0.083056
0.601127 0.684860 0.025138
0.729749 0.408299 0.083056
0.748120 0.686676 0.026953
0.617021 0.156944 0.099444
0.308043 0.688021 0.138789
0.805720 0.416411 0.090972
0.711537 0.605556 0.080483
0.558065 0.605556 0.242071
0.813858 0.255861 0.275694
0.179333 0.688021 0.292228
0.460611 0.665251 0.025000
0.621391 0.374653 0.138548
0.269744 0.484382 0.283611
0.975000 0.661595 0.029721
0.208958 0.063904 0.302083
0.388280 0.658333 0.198079
0.328082 0.688021 0.302774
0.465741 0.605556 0.287492
0.554415 0.688021 0.067722
0.307950 0.183333 0.096482
0.314888 0.658333 0.122209
0.505791 0.355756 0.275694
0.174896 0.589903 0.104167
0.767374 0.658333 0.260453
0.682281 0.658333 0.118448
0.471864 0.658333 0.217242
0.741012 0.658333 0.191714
0.373732 0.156944 0.267181
0.130506 0.658333 0.027121
0.543529 0.183333 0.186531
0.263205 0.658333 0.247416
0.186865 0.403992 0.302083
0.397208 0.183333 0.148281
0.730903 0.374207 0.127044
0.304228 0.354861 0.259009
0.700883 0.688021 0.238349
0.527238 0.374653 0.130898
0.327040 0.183333 0.108825
0.822175 0.688021 0.129114
0.548638 0.579167 0.270730
0.777083 0.230012 0.089398
0.901417 0.658333 0.196670
0.276749 0.471653 0.262500
0.182152 0.658333 0.026827
0.201874 0.143457 0.090972
0.785249 0.658333 0.291335
0.643497 0.658333 0.026968
0.410016 0.156944 0.211319
0.616153 0.658333 0.335040
0.726322 0.354861 0.225705
0.381949 0.157204 0.288889
0.342338 0.374653 0.142754
0.080596 0.658333 0.099320
0.528325 0.354861 0.246334
0.816667 0.545075 0.300745
0.256823 0.688021 0.255575
0.825037 0.658333 0.026158
0.262500 0.296556 0.279666
0.183333 0.401983 0.284101
0.612642 0.605556 0.238333
0.446316 0.605556 0.287055
0.418984 0.688021 0.135987
0.349489 0.688021 0.049789
0.361791 0.374653 0.107831
0.436454 0.688021 0.125595
0.393942 0.156944 0.185861
0.262709 0.531227 0.262500
0.803373 0.070303 0.302083
0.469626 0.670973 0.341667
0.737500 0.481940 0.282245
0.186509 0.166305 0.302083
0.222917 0.556665 0.276169
0.465296 0.183333 0.202766
0.198983 0.395629 0.275694
0.640847 0.688021 0.115176
0.268652 0.373597 0.083056
0.256889 0.156944 0.163779
0.631569 0.688021 0.320897
0.188498 0.688021 0.256049
0.366431 0.183333 0.263658
0.931046 0.688021 0.216085
0.391376 0.175808 0.288889
0.605612 0.688021 0.048003
0.360642 0.658333 0.103682
0.777140 0.115337 0.066115
0.079293 0.658333 0.160074
0.777083 0.495624 0.299978
0.202913 0.250508 0.302083
0.370901 0.605556 0.124675
0.353962 0.658333 0.320217
0.728311 0.298088 0.262500
0.794906 0.318512 0.090972
0.151949 0.658333 0.280570
0.437395 0.605556 0.269815
0.774995 0.688021 0.231922
0.701841 0.590193 0.077778
0.693603 0.658333 0.336425
0.183333 0.335591 0.300701
0.470734 0.688021 0.150104
0.190933 0.072041 0.302083
0.673007 0.156944 0.214917
0.798925 0.205845 0.064583
0.799906 0.116477 0.064583
0.605695 0.156944 0.235268
0.457637 0.688021 0.040838
0.431840 0.605556 0.237874
0.678186 0.370214 0.275694
0.078065 0.688021 0.233914
0.745216 0.579167 0.187290
0.266848 0.266962 0.262500
0.473970 0.374653 0.129100
0.533848 0.688021 0.245235
0.789698 0.579167 0.257860
0.450961 0.579167 0.245394
0.765069 0.183333 0.122614
0.752996 0.688021 0.068486
0.325296 0.354861 0.208497
0.488588 0.579167 0.211142
0.431211 0.182930 0.077778
0.204654 0.213745 0.064583
0.711111 0.209628 0.084829
0.737323 0.198980 0.104167
0.798695 0.120801 0.275694
0.778542 0.184410 0.302083
0.571370 0.156944 0.093125
0.953230 0.658333 0.168206
0.205228 0.688021 0.197589
0.160037 0.041276 0.090972
0.645076 0.658333 0.155349
0.494950 0.354861 0.143117
0.427081 0.603317 0.288889
0.129878 0.688021 0.223184
0.224748 0.658333 0.305325
0.193811 0.206151 0.090972
0.305158 0.590081 0.077778
0.589855 0.156944 0.164929
0.664296 0.688021 0.282645
0.468412 0.354861 0.152033
0.565350 0.156944 0.135823
0.554045 0.671730 0.025000
0.671631 0.156944 0.081791
0.659908 0.605556 0.125438
0.711111 0.253126 0.083928
0.777083 0.438629 0.283952
0.188082 0.281321 0.064583
0.316560 0.605556 0.129949
0.654399 0.658333 0.047888
0.433490 0.374653 0.225754
0.080820 0.688021 0.067618
0.322516 0.354861 0.256013
0.800265 0.658333 0.341261
0.591815 0.579167 0.230993
0.816667 0.200549 0.277292
0.262500 0.312126 0.102912
0.787816 0.259923 0.302083
0.975000 0.668263 0.134428
0.666309 0.156944 0.137430
0.243352 0.605556 0.247990
0.234062 0.605556 0.090841
0.382578 0.688021 0.095299
0.387342 0.374653 0.233951
0.195977 0.612972 0.302083
0.183333 0.489158 0.089477
0.276023 0.374653 0.152166
0.350490 0.374653 0.237511
0.188616 0.579167 0.265980
0.222917 0.520280 0.277403
0.323044 0.183333 0.182223
0.815350 0.321783 0.090972
0.862764 0.666020 0.025000
0.424765 0.688021 0.230761
0.280134 0.354861 0.144119
0.619423 0.156944 0.218168
0.095592 0.688021 0.278162
0.958161 0.658333 0.041779
0.539204 0.183333 0.083867
0.138092 0.658333 0.321603
0.777446 0.183333 0.170286
0.553402 0.156944 0.215885
0.423158 0.605556 0.195045
0.777083 0.547099 0.276587
0.590069 0.374653 0.149510
0.348788 0.688021 0.192502
0.909920 0.688021 0.161444
0.409540 0.579167 0.191601
0.133175 0.688021 0.205217
0.183333 0.134430 0.290086
0.476259 0.605556 0.189713
0.290120 0.357188 0.275694
0.383844 0.354861 0.171263
