0.295839 0.163983 0.328143
0.310366 0.188463 0.289991
0.264743 0.618685 0.240044
0.377710 0.113839 0.214707
0.236963 0.835780 0.335038
0.409672 0.546913 0.290558
0.337717 0.434655 0.403688
0.122156 0.802973 0.243924
0.254591 0.183587 0.210020
0.244884 0.092878 0.203188
0.204973 0.056085 0.313114
0.201842 0.196963 0.302919
0.249576 0.067396 0.375756
0.253037 0.209512 0.198436
0.397552 0.180237 0.242757
0.378916 0.931376 0.383698
0.393328 0.192610 0.342328
0.265286 0.037046 0.384939
0.188354 0.858471 0.407326
0.289093 0.099104 0.391200
0.247579 0.096983 0.375855
0.383414 0.192360 0.239231
0.412091 0.616476 0.394874
0.277445 0.049856 0.189688
0.353853 0.484507 0.297382
0.281773 0.441933 0.440129
0.372797 0.481871 0.354279
0.201724 0.077207 0.282188
0.217518 0.058550 0.344184
0.224431 0.067071 0.352468
0.403532 0.223558 0.285868
0.316589 0.224294 0.290723
0.386072 0.038181 0.351175
0.261913 0.166373 0.193803
0.282127 0.086252 0.187048
0.334346 0.362487 0.293992
0.394107 0.062727 0.236348
0.340514 0.383846 0.292555
0.053499 0.803222 0.228773
0.240492 0.064121 0.370123
0.292795 0.394427 0.288163
0.268846 0.153333 0.190876
0.377715 0.191584 0.231364
0.300321 0.185818 0.184741
0.400594 0.027220 0.248100
0.374361 0.163983 0.331089
0.317860 0.146002 0.185179
0.392422 0.530966 0.293911
0.407557 0.166854 0.302539
0.363041 0.163983 0.294078
0.309702 0.844127 0.312615
0.264184 0.139046 0.384248
0.178946 0.798753 0.252327
0.225116 0.098703 0.221501
0.204235 0.056740 0.263407
0.307985 0.185388 0.195742
0.206802 0.086069 0.253271
0.200895 0.163845 0.279966
0.345199 0.167569 0.384147
0.329224 0.804308 0.263504
0.289135 0.477113 0.282445
0.211481 0.192953 0.286018
0.265044 0.443113 0.451882
0.224104 0.104069 0.353816
0.279020 0.169068 0.377435
0.407477 0.196648 0.301251
0.262919 0.106232 0.383254
0.211315 0.211702 0.277680
0.369571 0.093186 0.368694
0.295661 0.419921 0.286655
0.233176 0.217525 0.360428
0.386583 0.219344 0.229894
0.270418 0.483529 0.353453
0.326983 0.314907 0.293478
0.287037 0.671472 0.368283
0.203143 0.175246 0.311938
0.317865 0.252924 0.288986
0.394351 0.224455 0.248146
0.210370 0.503791 0.343237
0.345300 0.569349 0.313352
0.361792 0.173168 0.375588
0.366023 0.173041 0.204783
0.408841 0.495825 0.351846
0.370719 0.212818 0.209850
0.338137 0.202829 0.190313
0.285915 0.470590 0.367752
0.387599 0.046385 0.228597
0.378180 0.167792 0.344156
0.289652 0.124022 0.185430
0.433616 0.501085 0.341215
0.340903 0.176716 0.374053
0.241384 0.096807 0.371276
0.273505 0.223881 0.195521
0.273007 0.057296 0.190599
0.211405 0.171217 0.292987
0.224504 0.158141 0.222721
0.209182 0.118636 0.329536
0.257511 0.221392 0.376467
0.315958 0.202196 0.195997
0.340309 0.831762 0.230548
0.328249 0.096246 0.186735
0.365572 0.929501 0.378062
0.327587 0.544320 0.271503
0.328634 0.163983 0.367423
0.297053 0.192433 0.185057
0.226726 0.494493 0.352458
0.208959 0.635423 0.209908
0.200989 0.141540 0.292763
0.249179 0.201020 0.363344
0.357289 0.458614 0.424242
0.407041 0.179797 0.306454
0.313630 0.295155 0.335636
0.251607 0.210192 0.377638
0.316250 0.518185 0.325008
0.239933 0.136156 0.369681
0.281863 0.103194 0.186583
0.219682 0.191847 0.250322
0.299168 0.202265 0.195550
0.338467 0.842154 0.244900
0.269502 0.118532 0.190777
0.201027 0.053632 0.296871
0.304283 0.099542 0.392363
0.386956 0.086165 0.352083
0.378114 0.177915 0.214804
0.331493 0.166463 0.188334
0.370597 0.204882 0.222243
0.394475 0.586268 0.332286
0.212384 0.785158 0.255156
0.207194 0.789570 0.250631
0.229219 0.101671 0.359275
0.401905 0.063453 0.254713
0.306337 0.837700 0.312524
0.325603 0.169714 0.186295
0.375274 0.517668 0.293889
0.340687 0.904236 0.338061
0.362254 0.204588 0.361642
0.290858 0.746916 0.291280
0.345903 0.182315 0.371252
0.256619 0.187850 0.196584
0.313107 0.184887 0.391696
0.363860 0.188586 0.202990
0.416480 0.619058 0.399792
0.294144 0.173044 0.185429
0.406867 0.172929 0.308533
0.407815 0.062726 0.292495
0.330369 0.163983 0.355143
0.236726 0.128605 0.366885
0.395030 0.085388 0.337758
0.201464 0.039989 0.296841
0.201396 0.099185 0.303807
0.293791 0.375014 0.283445
0.227971 0.163983 0.252382
0.269027 0.770309 0.215984
0.227159 0.078441 0.219111
0.342350 0.160192 0.191727
0.316980 0.650855 0.335173
0.355374 0.060441 0.378788
0.393234 0.171520 0.234420
0.232462 0.169559 0.213457
0.215213 0.163983 0.271114
0.307256 0.182179 0.286613
0.251458 0.113527 0.378074
0.201361 0.203148 0.277965
0.310071 0.060716 0.392253
0.393408 0.134770 0.343051
0.262857 0.194429 0.383845
0.255806 0.200692 0.367962
0.394867 0.093904 0.338752
0.213346 0.186839 0.238826
0.349427 0.163983 0.289906
0.386998 0.570897 0.167921
0.346192 0.158562 0.383569
0.306780 0.809734 0.303302
0.310088 0.124162 0.184818
0.251325 0.163983 0.273192
0.299010 0.041501 0.391531
0.270605 0.208861 0.190383
0.341644 0.103997 0.385007
0.275134 0.163983 0.343071
0.371900 0.053467 0.366261
0.354764 0.174078 0.197503
0.274425 0.198261 0.189181
0.389966 0.057270 0.230649
0.353444 0.189176 0.196905
0.271135 0.132175 0.190146
0.224523 0.058831 0.222217
0.280358 0.163983 0.370436
0.295474 0.437770 0.427841
0.325720 0.163983 0.337667
0.399214 0.855256 0.225600
0.400176 0.121183 0.248053
0.355303 0.210687 0.198236
0.308284 0.214870 0.307556
0.377108 0.183908 0.231045
0.393813 0.188998 0.263417
0.352416 0.458174 0.418049
0.450802 0.638469 0.455556
0.244935 0.160631 0.202907
0.221998 0.176131 0.351610
0.410737 0.605035 0.365051
0.202868 0.156307 0.311487
0.343594 0.163983 0.285381
0.371123 0.193899 0.368032
0.203626 0.218362 0.291743
0.478954 0.553658 0.279889
0.284992 0.610454 0.254359
0.252162 0.149887 0.198771
0.381946 0.170371 0.338494
0.396934 0.067354 0.240817
0.415285 0.618784 0.388862
0.213054 0.116663 0.239223
0.325672 0.199449 0.390332
0.280710 0.138927 0.389863
0.361226 0.128938 0.376189
0.370146 0.537171 0.265325
0.306198 0.069970 0.184713
0.240021 0.829773 0.332639
0.082458 0.802942 0.239181
0.407780 0.057307 0.278260
0.279547 0.719167 0.270023
0.252263 0.772001 0.150319
0.226750 0.039707 0.355984
0.353775 0.513146 0.292384
0.393768 0.143324 0.342262
0.374186 0.477440 0.370574
0.403604 0.049949 0.318442
0.304748 0.232426 0.288503
0.208215 0.195799 0.328154
0.326889 0.643665 0.341882
0.260063 0.778875 0.156810
0.234974 0.211764 0.364840
0.203125 0.165330 0.312131
0.201438 0.135453 0.272652
0.262543 0.163983 0.314220
0.324998 0.556224 0.248436
0.339665 0.425383 0.389863
0.392623 0.080634 0.342656
0.205958 0.033627 0.258532
0.318344 0.200811 0.391209
0.232482 0.064470 0.213796
0.278079 0.134286 0.187678
0.243668 0.073314 0.205149
0.265492 0.027954 0.191989
0.332248 0.040991 0.189207
0.391943 0.126410 0.231054
0.200385 0.035775 0.288130
0.214904 0.182099 0.264357
0.331407 0.060362 0.188409
0.315568 0.092010 0.185757
0.310438 0.174432 0.381291
0.363931 0.562221 0.243244
0.296428 0.805042 0.311265
0.189252 0.791213 0.246883
0.211971 0.193106 0.335121
0.218877 0.780742 0.262517
0.390582 0.055406 0.345223
0.359936 0.168547 0.200281
0.257524 0.181493 0.381108
0.369099 0.222815 0.215125
0.216682 0.840326 0.354825
0.241200 0.113164 0.205866
0.312562 0.281599 0.331146
0.249527 0.078410 0.376111
0.405318 0.106989 0.314662
0.204245 0.072414 0.260789
0.283363 0.178039 0.390513
0.327640 0.025663 0.388083
0.403016 0.178853 0.320546
0.397350 0.140275 0.335027
0.399871 0.854092 0.208080
0.259040 0.167448 0.368605
0.362412 0.219482 0.206297
0.274212 0.481180 0.367344
0.402277 0.148548 0.322651
0.439705 0.630537 0.432061
0.278708 0.764452 0.214916
0.394580 0.207837 0.312868
0.299059 0.661270 0.352831
0.496224 0.553829 0.267689
0.240096 0.163983 0.343337
0.465035 0.877448 0.182314
0.218785 0.058077 0.230853
0.384662 0.204233 0.354188
0.293409 0.758691 0.293738
0.287412 0.180194 0.185929
0.289079 0.493033 0.282044
0.206296 0.224096 0.278937
0.336794 0.579989 0.310655
0.304418 0.163983 0.233685
0.289408 0.163983 0.280758
0.382133 0.207935 0.340987
0.258281 0.774972 0.173565
0.394413 0.143361 0.236437
0.229086 0.157865 0.359956
0.282811 0.119111 0.186124
0.200708 0.027873 0.286357
0.270833 0.776609 0.186349
0.321317 0.163983 0.227365
0.328432 0.563509 0.282419
0.312359 0.163983 0.371128
0.404617 0.059997 0.314996
0.236828 0.210450 0.223688
0.217681 0.135934 0.230139
0.391339 0.213473 0.250522
0.267769 0.200652 0.191155
0.385062 0.194582 0.334820
0.402467 0.033875 0.256992
0.382592 0.040965 0.356541
0.214526 0.167444 0.339877
0.265148 0.482651 0.365432
0.202350 0.195195 0.268275
0.234502 0.193208 0.349469
0.321196 0.875673 0.317005
0.315180 0.786466 0.250873
0.235969 0.816710 0.327216
0.268260 0.754090 0.305819
0.223610 0.210763 0.335506
0.329339 0.819879 0.244712
0.507084 0.554714 0.266674
0.408625 0.183384 0.289062
0.399035 0.121295 0.331333
0.315034 0.838524 0.308362
0.399365 0.161794 0.246243
0.220803 0.079769 0.349149
0.311967 0.645399 0.330819
0.297090 0.149967 0.392078
0.248057 0.125921 0.376390
0.402309 0.155535 0.322631
0.394558 0.214329 0.317916
0.382080 0.031722 0.356777
0.340721 0.164492 0.201991
0.321703 0.589780 0.266042
0.228183 0.051730 0.217823
0.298690 0.777601 0.297127
0.201520 0.135455 0.302216
0.366978 0.132856 0.371906
0.215176 0.177815 0.311657
0.247807 0.202430 0.214505
0.399015 0.157702 0.331682
0.390422 0.145834 0.229143
0.307751 0.430076 0.409375
0.204254 0.859223 0.391584
0.175755 0.874355 0.449288
0.375756 0.455687 0.438837
0.292198 0.163983 0.353527
0.252597 0.176433 0.211845
0.314984 0.786088 0.261561
0.303661 0.079235 0.392316
0.215808 0.062424 0.236952
0.272500 0.215537 0.198925
0.230820 0.224687 0.353545
0.213577 0.163983 0.280099
0.262640 0.042592 0.193175
0.241681 0.163983 0.231118
0.351959 0.121419 0.380706
0.244654 0.208387 0.216857
0.400942 0.173515 0.327461
0.224255 0.059861 0.352115
0.385659 0.025444 0.351063
0.257608 0.184684 0.368326
0.215417 0.168909 0.311441
0.093533 0.799718 0.234152
0.220474 0.169451 0.349793
0.326455 0.042985 0.388574
0.266490 0.193336 0.191556
0.200809 0.066241 0.295310
0.374770 0.111093 0.364630
0.274069 0.027177 0.190277
0.268626 0.441525 0.443157
0.398583 0.025031 0.331691
0.305929 0.046581 0.392532
0.206903 0.065971 0.320950
0.231846 0.187544 0.345962
0.297745 0.163983 0.296851
0.293872 0.427606 0.287014
0.342994 0.417815 0.295694
0.386203 0.193716 0.224455
0.381496 0.143068 0.218739
0.340951 0.171708 0.202440
0.274371 0.111379 0.387840
0.281214 0.163983 0.252230
0.349822 0.441288 0.400622
0.313138 0.218678 0.287527
0.254059 0.767580 0.198744
0.250836 0.163983 0.217588
0.385580 0.568439 0.190144
0.279259 0.713558 0.277200
0.261121 0.755743 0.223571
0.404381 0.152632 0.316432
0.323522 0.288127 0.289668
0.389367 0.202344 0.249938
0.266565 0.614325 0.234642
0.224122 0.052444 0.351965
0.202339 0.079537 0.274221
0.265569 0.163983 0.295318
0.358981 0.184531 0.213197
0.406606 0.073064 0.299890
0.304120 0.053506 0.392504
0.331939 0.826561 0.246674
0.374354 0.077112 0.211526
0.282755 0.163983 0.265059
0.338074 0.193107 0.190332
0.384266 0.934350 0.389154
0.393580 0.180775 0.263804
0.408376 0.192128 0.293203
0.267417 0.221849 0.198471
0.252075 0.216819 0.375430
0.259751 0.771028 0.309152
0.386199 0.486207 0.351609
0.236795 0.077938 0.367259
0.170278 0.803332 0.255092
0.349348 0.163983 0.231898
0.406358 0.541330 0.294510
0.321909 0.496866 0.342045
0.206316 0.211434 0.320517
0.340722 0.224551 0.196964
0.211281 0.855532 0.398603
0.234979 0.168365 0.226537
0.235912 0.843444 0.350490
0.371812 0.845123 0.242101
0.312921 0.163983 0.207647
0.207164 0.132538 0.252918
0.264101 0.745152 0.298475
0.324977 0.553516 0.254924
0.250186 0.059019 0.375748
0.241604 0.098343 0.206002
0.290931 0.124894 0.391664
0.481168 0.883233 0.175936
0.339314 0.039879 0.190649
0.309055 0.601228 0.270502
0.397766 0.034556 0.332853
0.257765 0.114962 0.381087
0.408146 0.178744 0.296260
0.362764 0.083616 0.374608
0.204971 0.065320 0.313936
0.265082 0.091740 0.192303
0.346172 0.410826 0.295010
0.221598 0.212095 0.244332
0.401711 0.224520 0.273607
0.282204 0.093981 0.186762
0.368089 0.533769 0.310409
0.228807 0.176910 0.341493
0.378407 0.208749 0.214958
0.289048 0.163983 0.302691
0.250520 0.774930 0.113955
0.337692 0.200069 0.375623
0.259361 0.163983 0.249055
0.223774 0.074046 0.352082
0.262639 0.140612 0.193515
0.238858 0.070775 0.369142
0.243276 0.199973 0.372213
0.373249 0.163983 0.296861
0.201760 0.117987 0.308544
0.257550 0.101544 0.195855
0.343307 0.438617 0.399492
0.324229 0.583789 0.268836
0.234918 0.163983 0.303158
0.345974 0.149647 0.383650
0.323304 0.177837 0.185998
0.301667 0.163983 0.343574
0.344345 0.209414 0.192132
0.395893 0.184817 0.337747
0.398180 0.165379 0.289020
0.391839 0.186650 0.257155
0.391576 0.177610 0.256319
0.267551 0.775678 0.138171
0.201085 0.132309 0.294856
0.336929 0.377665 0.294922
0.318789 0.163983 0.337921
0.374735 0.570350 0.181243
0.396306 0.203801 0.306934
0.200889 0.200339 0.293925
0.378478 0.131221 0.361395
0.312120 0.163983 0.347586
0.390479 0.204266 0.347069
0.300331 0.828769 0.317785
0.331488 0.202519 0.188340
0.397967 0.208382 0.285659
0.212242 0.207530 0.302928
0.377063 0.556382 0.247892
0.390803 0.594256 0.335456
0.277046 0.213780 0.378901
0.383792 0.043601 0.223191
0.391233 0.063123 0.344381
0.304102 0.206915 0.382120
0.277202 0.205355 0.188418
0.361785 0.144300 0.201092
0.376905 0.569649 0.232274
0.278937 0.163983 0.206795
0.391062 0.854134 0.227550
0.397052 0.205177 0.300074
0.386974 0.850210 0.233783
0.296293 0.045327 0.185189
0.335459 0.195337 0.201027
0.341338 0.151223 0.191461
0.384086 0.458101 0.463433
0.402410 0.075416 0.323271
0.203987 0.130735 0.261955
0.322531 0.217485 0.382925
0.403219 0.607354 0.359455
0.221176 0.119663 0.226061
0.369233 0.458618 0.441302
0.204515 0.030678 0.266262
0.458039 0.875059 0.185210
0.290654 0.172346 0.379497
0.294484 0.736021 0.276564
0.270053 0.678095 0.381375
0.345710 0.066566 0.193195
0.350914 0.208990 0.207402
0.256424 0.075940 0.196293
0.344786 0.210789 0.203930
0.350753 0.172692 0.381155
0.221569 0.771282 0.277379
0.376111 0.190933 0.363968
0.256020 0.025075 0.197896
0.396075 0.064202 0.335196
0.220762 0.497224 0.349668
0.400963 0.030967 0.327870
0.244414 0.104165 0.203144
0.311095 0.248467 0.316136
0.213862 0.039817 0.337634
0.394193 0.858854 0.217831
0.322943 0.264047 0.291628
0.366497 0.120234 0.204737
0.397067 0.190366 0.285336
0.353394 0.199022 0.209078
0.315704 0.653560 0.342465
0.344617 0.143352 0.192519
0.337809 0.205503 0.201223
0.394177 0.201902 0.340634
0.216928 0.190259 0.319209
0.336203 0.610268 0.320764
0.404321 0.083171 0.317755
0.202206 0.058213 0.279410
0.268933 0.167861 0.190789
0.397247 0.208436 0.278132
0.340117 0.163983 0.253209
0.204288 0.161453 0.261721
0.227026 0.833832 0.335818
0.089808 0.803545 0.239672
0.281884 0.040635 0.188657
0.330705 0.134066 0.389311
0.270809 0.139636 0.190233
0.402242 0.094840 0.323535
0.404346 0.026213 0.310841
0.417826 0.610298 0.380160
0.253119 0.769835 0.173854
0.355119 0.099767 0.379311
0.394585 0.035938 0.238596
0.317830 0.792594 0.249013
0.265985 0.744477 0.238022
0.382294 0.153290 0.356816
0.232142 0.759620 0.278484
0.291764 0.144884 0.391782
0.218629 0.223498 0.335331
0.405475 0.039801 0.304694
0.349783 0.918322 0.365774
0.338974 0.368403 0.293291
0.333891 0.213019 0.377985
0.393865 0.169455 0.341693
0.325832 0.163983 0.247971
0.354072 0.165746 0.197056
0.269817 0.209783 0.375457
0.399506 0.049096 0.246020
0.402206 0.206953 0.323631
0.362800 0.179402 0.360043
0.200849 0.105850 0.293324
0.322945 0.106768 0.185564
0.404775 0.212271 0.264333
0.380524 0.197358 0.234485
0.210912 0.164375 0.289593
0.377873 0.588079 0.339399
0.385596 0.211110 0.335418
0.382419 0.082705 0.357166
0.212216 0.089844 0.336123
0.232644 0.844142 0.342861
0.201248 0.170904 0.296292
0.252330 0.040841 0.376464
0.236573 0.052498 0.211010
0.391360 0.195516 0.230897
0.332094 0.565073 0.276543
0.218025 0.781417 0.269597
0.401243 0.189987 0.249969
0.408572 0.207954 0.286782
0.309618 0.163983 0.330583
0.243079 0.163983 0.302259
0.263732 0.186460 0.192734
0.313215 0.104485 0.391917
0.280002 0.730437 0.255715
0.315507 0.180527 0.185179
0.226941 0.194004 0.357543
0.388496 0.032771 0.347238
0.310746 0.855524 0.315666
0.401730 0.037810 0.325615
0.395869 0.078329 0.238691
0.152802 0.886655 0.480166
0.407590 0.105500 0.300747
0.258179 0.732500 0.273960
0.313196 0.288693 0.333137
0.243210 0.197925 0.218478
0.407616 0.141073 0.276960
0.315330 0.193302 0.391496
0.368440 0.482546 0.366541
0.338353 0.088516 0.190262
0.315161 0.193925 0.196184
0.301230 0.216968 0.284683
0.404015 0.124545 0.258510
0.407895 0.107235 0.293862
0.345890 0.136375 0.383638
0.344844 0.026012 0.384510
0.382597 0.187283 0.219908
0.235150 0.203695 0.226307
0.287886 0.078548 0.185780
0.086597 0.800986 0.233901
0.266760 0.614977 0.245995
0.408532 0.156806 0.288984
0.375643 0.177372 0.348197
0.322517 0.362491 0.358931
0.259043 0.094331 0.381016
0.337888 0.051221 0.189996
0.400944 0.214728 0.322179
0.260459 0.779051 0.117003
0.231320 0.094339 0.214700
0.208072 0.166265 0.249635
0.233283 0.113002 0.213105
0.214411 0.049094 0.239455
0.273708 0.723392 0.289755
0.252276 0.193694 0.365725
0.390682 0.139400 0.347488
0.355074 0.101507 0.197958
0.295741 0.095545 0.391331
0.211126 0.224626 0.257428
0.396537 0.208924 0.270251
0.345319 0.549005 0.305307
0.281641 0.163983 0.244802
0.407627 0.136610 0.303950
0.420286 0.621242 0.405275
0.336866 0.908208 0.359380
0.397862 0.140091 0.243545
0.307787 0.025614 0.392058
0.253968 0.201858 0.209900
0.324172 0.803510 0.258583
0.398357 0.213383 0.298024
0.252871 0.032847 0.199701
0.389636 0.065148 0.229932
0.382685 0.185315 0.237970
0.323751 0.411846 0.367622
0.405902 0.188190 0.265289
0.325032 0.575919 0.276970
0.222115 0.181650 0.246551
0.369183 0.846208 0.223654
0.293109 0.165921 0.185514
0.321279 0.025159 0.187546
0.327615 0.115211 0.390331
0.362806 0.463639 0.372242
0.394246 0.167979 0.268121
0.329104 0.534545 0.291682
0.350183 0.519823 0.291850
0.413038 0.615538 0.381562
0.283984 0.182881 0.379098
0.304395 0.843674 0.319140
0.289317 0.032258 0.389635
0.212870 0.176964 0.336658
0.290080 0.457603 0.287434
0.221630 0.163983 0.302555
0.213452 0.108630 0.238633
0.404532 0.037842 0.311802
0.402241 0.094399 0.255433
0.231275 0.207644 0.230700
0.242350 0.163983 0.352233
0.323264 0.178952 0.390881
0.349256 0.106602 0.382092
0.242897 0.081515 0.372395
0.405243 0.950299 0.415390
0.210488 0.049687 0.332855
0.204630 0.085284 0.314808
0.267021 0.028486 0.385344
0.330195 0.028122 0.189217
0.341939 0.913162 0.358186
0.201560 0.097485 0.280172
0.312004 0.422167 0.399230
0.317779 0.881206 0.320334
0.215351 0.070815 0.237322
0.107423 0.799883 0.248577
0.280315 0.756667 0.223081
0.249957 0.191049 0.200138
0.249611 0.163983 0.332902
0.347239 0.186095 0.383120
0.405071 0.046006 0.310434
0.350388 0.530847 0.302211
0.257148 0.179900 0.196330
0.342779 0.533985 0.289144
0.311730 0.210686 0.195214
0.261710 0.163983 0.242052
0.388458 0.163983 0.280977
0.169894 0.795986 0.266403
0.200624 0.119254 0.288423
0.211145 0.099387 0.333808
0.330130 0.177858 0.187938
0.412724 0.545718 0.275561
0.352331 0.216167 0.205925
0.406912 0.047772 0.275450
0.373816 0.119586 0.365686
0.377715 0.136042 0.214670
0.347652 0.124246 0.194043
0.386178 0.187809 0.332288
0.258007 0.777676 0.150308
0.254441 0.058088 0.197688
0.281641 0.634102 0.282371
0.282506 0.187169 0.390148
0.335820 0.419068 0.371790
0.284071 0.206132 0.186405
0.403804 0.222089 0.292715
0.334670 0.060471 0.386556
0.337651 0.621457 0.330233
0.394110 0.191822 0.236316
0.320532 0.530684 0.303963
0.234371 0.087041 0.212629
0.296770 0.093626 0.184887
0.228933 0.199817 0.343032
0.305808 0.199656 0.195092
0.386412 0.038314 0.227077
0.387285 0.079134 0.226757
0.375713 0.850199 0.222895
0.256619 0.060460 0.379245
0.298769 0.224393 0.386729
0.231620 0.163983 0.268910
0.357597 0.453239 0.434102
0.364922 0.079881 0.203748
0.405786 0.131662 0.263447
0.406907 0.162597 0.308869
0.288352 0.737793 0.289625
0.215029 0.067267 0.340960
0.287892 0.040315 0.389321
0.201802 0.175439 0.302512
0.339038 0.587950 0.314374
0.268102 0.180231 0.385668
0.344804 0.434391 0.371667
0.392077 0.073353 0.232702
0.406005 0.216001 0.296340
0.276909 0.677191 0.379393
0.281576 0.081947 0.389975
0.369906 0.044298 0.208445
0.300945 0.444514 0.365089
0.347415 0.186008 0.206352
0.311778 0.025197 0.185659
0.251738 0.161392 0.199060
0.396363 0.043548 0.334897
0.378819 0.098409 0.216095
0.228473 0.766166 0.261005
0.405850 0.180947 0.264926
0.205821 0.139579 0.256898
0.238832 0.211879 0.356001
0.283364 0.166322 0.186315
0.267102 0.085010 0.191876
0.363529 0.925504 0.386095
0.201211 0.210509 0.296643
0.393431 0.944963 0.404733
0.291298 0.463617 0.359495
0.385654 0.565115 0.323393
0.373716 0.537937 0.311952
0.340170 0.440854 0.409077
0.373475 0.188630 0.226347
0.382199 0.599477 0.348399
0.239959 0.841273 0.345076
0.232585 0.830511 0.332798
0.370130 0.210456 0.368616
0.370775 0.205982 0.208719
0.406065 0.540951 0.278807
0.204923 0.213174 0.313724
0.250375 0.742348 0.272102
0.228544 0.142632 0.359271
0.162808 0.796213 0.246092
0.248816 0.060112 0.201366
0.321229 0.191631 0.380046
0.201588 0.144117 0.271858
0.297843 0.102662 0.391630
0.358645 0.922452 0.380766
0.289420 0.211732 0.390582
0.329023 0.163983 0.275930
0.269942 0.164126 0.375389
0.335069 0.163983 0.320800
0.296916 0.034634 0.391140
0.367343 0.482048 0.359377
0.173446 0.800248 0.260632
0.215171 0.040860 0.238263
0.142208 0.796715 0.241986
0.350495 0.158738 0.195257
0.320810 0.163983 0.362012
0.305721 0.863158 0.327689
0.361352 0.180449 0.375745
0.253876 0.777551 0.119392
0.435718 0.867594 0.205432
0.373092 0.163983 0.279897
0.247618 0.191105 0.215127
0.343652 0.448026 0.413300
0.407536 0.105041 0.271425
0.258158 0.151780 0.381427
0.221608 0.180041 0.329908
0.285285 0.646914 0.283334
0.389775 0.073030 0.347631
0.257101 0.082311 0.379714
0.381248 0.163983 0.272014
0.406105 0.145844 0.264896
0.345333 0.112473 0.383948
0.317610 0.163983 0.220295
0.346266 0.839910 0.234831
0.316420 0.317862 0.341406
0.320910 0.899786 0.336113
0.305013 0.183484 0.392537
0.363446 0.459356 0.431739
0.402723 0.196588 0.254681
0.231741 0.163983 0.326794
0.201717 0.853911 0.387579
0.186149 0.869466 0.426123
0.190714 0.867264 0.416689
0.258444 0.125111 0.195560
0.208618 0.025691 0.328970
0.338795 0.068721 0.190341
0.241419 0.039502 0.369800
0.220176 0.092669 0.349067
0.295025 0.163983 0.250665
0.404690 0.217446 0.304077
0.355388 0.177290 0.378660
0.401209 0.064179 0.326806
0.210112 0.146934 0.331340
0.408115 0.074136 0.290775
0.231887 0.163983 0.281189
0.240549 0.152886 0.206368
0.352101 0.165491 0.380393
0.228904 0.125279 0.359574
0.371914 0.186675 0.209731
0.197166 0.506291 0.340141
0.299161 0.163983 0.353439
0.328851 0.902441 0.353489
0.328362 0.163983 0.348201
0.359293 0.186018 0.363311
0.316733 0.170638 0.380159
0.323284 0.060156 0.390095
0.319445 0.896094 0.344991
0.328301 0.645316 0.326945
0.210189 0.037192 0.331982
0.396046 0.125013 0.337631
0.349508 0.551300 0.310452
0.343069 0.436375 0.365282
0.223773 0.033887 0.224772
0.312358 0.780114 0.253841
0.397937 0.081377 0.332296
0.291920 0.037651 0.186307
0.259953 0.755000 0.302425
0.207478 0.221033 0.313151
0.342980 0.163983 0.236514
0.355720 0.163983 0.228453
0.408074 0.025783 0.291862
0.396627 0.198010 0.302090
0.276795 0.483069 0.358035
0.297400 0.443731 0.372012
0.335618 0.095034 0.189325
0.209464 0.059069 0.246922
0.264855 0.441901 0.464357
0.201027 0.144203 0.278840
0.385512 0.054134 0.225830
0.202006 0.110493 0.309699
0.290577 0.606199 0.261418
0.386223 0.163786 0.352239
0.236989 0.060215 0.210765
0.206953 0.155123 0.324148
0.327651 0.575213 0.265337
0.274319 0.163983 0.294038
0.200771 0.073919 0.294089
0.305250 0.217834 0.187284
0.397497 0.031085 0.243232
0.368958 0.140875 0.370163
0.322960 0.138131 0.185670
0.348327 0.201369 0.382596
0.306748 0.174559 0.292224
0.385878 0.163983 0.306437
0.406837 0.192020 0.307514
0.351816 0.463952 0.292973
0.273274 0.218224 0.384255
0.503202 0.555658 0.273401
0.306078 0.604278 0.257448
0.399012 0.486942 0.360583
0.368242 0.194605 0.206714
0.324086 0.059384 0.187088
0.381836 0.160119 0.219028
0.293753 0.163983 0.360254
0.202318 0.065764 0.278993
0.239083 0.163983 0.285110
0.352558 0.447472 0.371641
0.306283 0.209350 0.184399
0.327282 0.160985 0.186820
0.297728 0.450900 0.365660
0.282826 0.196686 0.186700
0.114684 0.803193 0.244955
0.220458 0.105125 0.226734
0.357114 0.208571 0.210876
0.322078 0.224591 0.385374
0.303915 0.163983 0.359805
0.392455 0.202118 0.233184
0.430055 0.554754 0.280310
0.311639 0.779714 0.261476
0.360162 0.524737 0.276012
0.202874 0.075813 0.267122
0.320219 0.208680 0.185893
0.296833 0.440851 0.420505
0.331347 0.181735 0.199749
0.248172 0.170508 0.376086
0.215626 0.853322 0.391158
0.204503 0.859247 0.406596
0.431081 0.621879 0.410706
0.358139 0.163983 0.354774
0.406124 0.054037 0.270459
0.322928 0.641574 0.322913
0.356852 0.213918 0.367746
0.368089 0.525280 0.306621
0.407569 0.180005 0.278110
0.217105 0.501778 0.344905
0.245121 0.163983 0.326164
0.389977 0.168015 0.347993
0.220897 0.210203 0.349844
0.213485 0.179750 0.238465
0.234081 0.764162 0.270148
0.300504 0.236235 0.284612
0.448860 0.872140 0.198008
0.229338 0.186632 0.360395
0.335488 0.159362 0.189682
0.305813 0.802838 0.301615
0.212107 0.057729 0.336035
0.405172 0.127768 0.314679
0.362457 0.841516 0.223795
0.332155 0.067941 0.188311
0.372959 0.211280 0.352742
0.404993 0.154106 0.261321
0.266623 0.163983 0.271602
0.346828 0.918081 0.356488
0.263361 0.778997 0.181327
0.249866 0.486343 0.361156
0.306993 0.159531 0.184529
0.226149 0.185210 0.238691
0.298546 0.216022 0.186962
0.386068 0.853838 0.218721
0.367321 0.163983 0.263582
0.233768 0.060865 0.364632
0.259544 0.762609 0.305531
0.353582 0.176879 0.210143
0.288943 0.061158 0.186134
0.332475 0.198104 0.388348
0.317706 0.173632 0.185365
0.366542 0.050541 0.369852
0.225093 0.085268 0.221454
0.292678 0.156634 0.391804
0.464329 0.552462 0.283787
0.211087 0.128470 0.333341
0.275343 0.121670 0.388108
0.274620 0.762520 0.220956
0.301932 0.225465 0.285599
0.266375 0.201764 0.385240
0.240427 0.066670 0.208442
0.115062 0.799244 0.251003
0.395547 0.174652 0.271824
0.346583 0.447530 0.405861
0.400032 0.537654 0.292888
0.391293 0.224775 0.334885
0.285746 0.169916 0.390956
0.340818 0.163983 0.346003
0.324117 0.561189 0.238411
0.202200 0.103286 0.309881
0.371065 0.454853 0.430504
0.313669 0.776275 0.267453
0.393961 0.178594 0.341379
0.236921 0.218889 0.219770
0.351226 0.034887 0.196743
0.394258 0.178336 0.312477
0.374165 0.169200 0.350286
0.264340 0.163983 0.204790
0.332119 0.515939 0.329829
0.311066 0.875617 0.325508
0.404067 0.184761 0.317082
0.357673 0.163983 0.242246
0.340336 0.433354 0.395877
0.221350 0.163604 0.226308
0.245200 0.164197 0.374134
0.323003 0.506724 0.339482
0.227813 0.207080 0.342044
0.261545 0.163983 0.287665
0.201127 0.178820 0.295425
0.380242 0.218349 0.221770
0.231310 0.219363 0.225633
0.320694 0.161091 0.391144
0.289983 0.196282 0.185778
0.384132 0.206471 0.239654
0.203491 0.048349 0.269363
0.237883 0.192136 0.367805
0.195214 0.802811 0.260151
0.302390 0.170548 0.381661
0.204251 0.108073 0.315828
0.170292 0.877445 0.454443
0.210248 0.207148 0.244803
0.407597 0.100050 0.295870
0.375008 0.547108 0.255646
0.297298 0.790360 0.301749
0.224851 0.180821 0.222269
0.399242 0.128105 0.246224
0.405844 0.216239 0.281677
0.391800 0.135659 0.230900
0.384385 0.217991 0.342394
0.222366 0.201990 0.351765
0.320073 0.046770 0.390299
0.276803 0.202699 0.388335
0.383113 0.214083 0.234782
0.345150 0.128978 0.384008
0.269959 0.224303 0.380558
0.238615 0.163983 0.264791
0.336119 0.099708 0.386870
0.211820 0.198256 0.280889
0.374891 0.216280 0.214887
0.304208 0.168795 0.285939
0.233234 0.141133 0.212901
0.371448 0.163983 0.236157
0.318989 0.184404 0.196885
0.314493 0.196511 0.380686
0.318345 0.046146 0.187039
0.400448 0.196766 0.247971
0.176860 0.794133 0.247106
0.289535 0.163983 0.238590
0.274316 0.771067 0.210685
0.212152 0.172404 0.240792
0.257354 0.157828 0.196309
0.400124 0.537027 0.282125
0.402264 0.860714 0.213498
0.231844 0.210571 0.347219
0.351307 0.163983 0.328332
0.329456 0.074716 0.187553
0.322012 0.547124 0.267851
0.203454 0.096899 0.262900
0.289864 0.763701 0.299503
0.393237 0.069632 0.340492
0.397839 0.217124 0.328227
0.265651 0.163983 0.213397
0.373131 0.068532 0.210389
0.208440 0.064383 0.328457
0.348675 0.163983 0.223640
0.209534 0.076917 0.246935
0.300768 0.264290 0.288935
0.278249 0.712595 0.284760
0.404417 0.049062 0.265343
0.313291 0.594295 0.275585
0.371319 0.172784 0.368070
0.212423 0.201436 0.273576
0.295422 0.215986 0.389810
0.289645 0.163983 0.245689
0.200980 0.113182 0.282635
0.237048 0.174713 0.209391
0.402389 0.055451 0.256993
0.292184 0.508367 0.285400
0.254703 0.073595 0.378317
0.301172 0.144060 0.392268
0.206349 0.120879 0.322071
0.258755 0.026509 0.380822
0.212719 0.193341 0.273242
0.201454 0.030151 0.295187
0.357778 0.454290 0.411361
0.212453 0.025666 0.334710
0.398970 0.211346 0.245946
0.394767 0.208443 0.237400
0.215401 0.778309 0.276468
0.293097 0.435568 0.404496
0.304999 0.190184 0.381221
0.209108 0.090801 0.329629
0.313849 0.163983 0.314956
0.405640 0.199023 0.311968
0.396563 0.132282 0.336609
0.244678 0.491776 0.348162
0.396450 0.097522 0.240065
0.389706 0.163983 0.287971
0.216283 0.025495 0.236498
0.252404 0.794347 0.318554
0.260958 0.122138 0.382640
0.201937 0.169990 0.270389
0.246221 0.152592 0.201797
0.211934 0.185996 0.289104
0.219388 0.029315 0.231615
0.275458 0.672654 0.373495
0.228685 0.153686 0.217693
0.302030 0.127383 0.184756
0.315919 0.178683 0.380711
0.347503 0.114445 0.194049
0.393820 0.490749 0.354387
0.357160 0.148864 0.198604
0.374038 0.556420 0.320622
0.371443 0.923980 0.372415
0.370345 0.164968 0.368927
0.262294 0.163983 0.224581
0.363412 0.476714 0.364316
0.259207 0.206825 0.206971
0.408054 0.098929 0.280514
0.261334 0.728805 0.279886
0.212837 0.134928 0.239523
0.389207 0.183933 0.251146
0.392108 0.200794 0.256555
0.264617 0.217958 0.375629
0.239454 0.026517 0.208974
0.246092 0.028073 0.372483
0.108661 0.798470 0.236263
0.201568 0.190205 0.300052
0.387966 0.025294 0.229320
0.320404 0.854946 0.310935
0.156651 0.799769 0.248369
0.271719 0.163983 0.206084
0.226977 0.201772 0.357497
0.332557 0.109984 0.188305
0.391266 0.575284 0.118418
0.330612 0.140687 0.187841
0.359879 0.518543 0.281682
0.367409 0.076770 0.370002
0.255927 0.194827 0.196931
0.228147 0.174328 0.218239
0.378458 0.064298 0.215342
0.201576 0.086299 0.283102
0.407079 0.030744 0.296780
0.250622 0.090289 0.199134
0.404576 0.135135 0.316231
0.303791 0.036377 0.392503
0.450638 0.506439 0.337512
0.390615 0.216678 0.329581
0.299292 0.802482 0.304974
0.303378 0.849365 0.324025
0.412009 0.552331 0.285066
0.204688 0.859640 0.399715
0.231429 0.187507 0.214299
0.324990 0.145512 0.185942
0.311665 0.164994 0.380891
0.205687 0.124976 0.256982
0.248309 0.163983 0.317876
0.233293 0.025880 0.363852
0.239987 0.495576 0.352444
0.230486 0.043457 0.361554
0.337553 0.088847 0.385974
0.335704 0.835612 0.245974
0.263917 0.175534 0.192679
0.456894 0.554985 0.275809
0.236372 0.093242 0.366804
0.284130 0.025238 0.188266
0.347611 0.562740 0.313747
0.291944 0.413494 0.283467
0.229837 0.105220 0.216267
0.249675 0.201712 0.200291
0.244642 0.053308 0.372480
0.408049 0.140865 0.284089
0.372764 0.077618 0.365580
0.321659 0.633675 0.319729
0.282000 0.194353 0.378587
0.231452 0.170916 0.344368
0.288275 0.160301 0.185748
0.408037 0.134742 0.296970
0.354913 0.108435 0.197647
0.249590 0.178656 0.376794
0.209545 0.846902 0.370567
0.377249 0.571064 0.171211
0.275048 0.163983 0.265739
0.305762 0.856203 0.323762
0.399503 0.129760 0.330423
0.366716 0.148790 0.372000
0.262783 0.163983 0.280526
0.254897 0.779940 0.073352
0.216843 0.106987 0.345630
0.389461 0.192059 0.348330
0.205578 0.057615 0.256512
0.299877 0.025531 0.391764
0.372623 0.026419 0.210947
0.359032 0.184397 0.199917
0.228080 0.058761 0.357850
0.381404 0.090180 0.358258
0.337900 0.191961 0.386804
0.374458 0.163983 0.244991
0.407955 0.086615 0.277879
0.379970 0.111837 0.359740
0.412159 0.863607 0.212232
0.496056 0.555346 0.274897
0.223405 0.776087 0.269439
0.291433 0.117926 0.391664
0.225602 0.178145 0.240413
0.337661 0.163983 0.337830
0.200487 0.062852 0.288125
0.289974 0.163983 0.323410
0.337286 0.163983 0.245682
0.321157 0.163983 0.214106
0.235481 0.054315 0.366199
0.355618 0.454073 0.370820
0.216302 0.195232 0.260048
0.259192 0.207797 0.381804
0.266731 0.738017 0.295606
0.242368 0.163983 0.250605
0.414022 0.959119 0.433447
0.201485 0.112395 0.272305
0.329610 0.626076 0.321517
0.210725 0.146467 0.243856
0.397380 0.201352 0.283149
0.354241 0.198978 0.379376
0.213710 0.123653 0.338865
0.218891 0.065904 0.230245
0.248050 0.444094 0.484528
0.267183 0.163983 0.365428
0.220349 0.132648 0.350068
0.397285 0.185597 0.291392
0.297371 0.163983 0.239198
0.401231 0.041753 0.250926
0.258917 0.193462 0.369356
0.405189 0.167251 0.313825
0.301737 0.180537 0.290706
0.341957 0.216476 0.193802
0.295695 0.797007 0.308055
0.281610 0.073805 0.389717
0.375285 0.457778 0.451422
0.362521 0.207659 0.215412
0.273327 0.163983 0.213399
0.202311 0.191457 0.308695
0.227244 0.112659 0.219202
0.235367 0.153607 0.210920
0.314139 0.415053 0.385839
0.388534 0.168344 0.328121
0.382898 0.129356 0.356306
0.245785 0.207245 0.202656
0.201469 0.126696 0.302351
0.369128 0.113645 0.207027
0.408443 0.095290 0.287421
0.357333 0.035488 0.200827
0.357624 0.155835 0.198914
0.351832 0.138487 0.380641
0.363321 0.197533 0.360467
0.400348 0.112939 0.248318
0.168153 0.798636 0.249785
0.218239 0.025794 0.343381
0.203695 0.215998 0.274438
0.283758 0.163983 0.376837
0.214974 0.786596 0.263015
0.365762 0.088065 0.203996
0.285283 0.439903 0.416888
0.370506 0.201739 0.368455
0.329381 0.490041 0.343073
0.280766 0.668088 0.366621
0.308545 0.771388 0.257033
0.378174 0.547739 0.316082
0.341574 0.191852 0.203077
0.292027 0.068020 0.185299
0.355759 0.163983 0.221146
0.427518 0.620405 0.404658
0.318485 0.644728 0.327858
0.467901 0.511418 0.334502
0.384093 0.170422 0.241362
0.295657 0.163983 0.288211
0.341977 0.205777 0.374042
0.210669 0.201851 0.332785
0.345757 0.190918 0.192868
0.316146 0.602340 0.267012
0.331604 0.224481 0.383289
0.205487 0.177112 0.319869
0.267439 0.163983 0.320442
0.286959 0.045173 0.187048
0.299184 0.257985 0.284348
0.237471 0.181623 0.209115
0.279352 0.165662 0.389198
0.371551 0.848883 0.236229
0.406867 0.079872 0.269967
0.274351 0.102233 0.387869
0.338622 0.069008 0.385739
0.421156 0.867125 0.206516
0.264315 0.146373 0.384341
0.328116 0.065553 0.388709
0.208038 0.192798 0.249407
0.374560 0.163983 0.303706
0.348312 0.449141 0.295572
0.308761 0.167197 0.184593
0.300640 0.170987 0.195287
0.220405 0.173030 0.328378
0.266974 0.077738 0.191875
0.225542 0.204571 0.238461
0.225737 0.180033 0.356209
0.402782 0.170789 0.321232
0.357854 0.224691 0.205098
0.287918 0.470328 0.360552
0.401531 0.049287 0.326054
0.206177 0.074534 0.318005
0.365679 0.196840 0.372388
0.323691 0.210309 0.390685
0.257588 0.163983 0.353467
0.407027 0.185908 0.271787
0.405506 0.054804 0.309683
0.407353 0.092726 0.296281
0.226384 0.040711 0.220471
0.332250 0.071492 0.387369
0.392132 0.090295 0.231814
0.239638 0.049263 0.368984
0.385976 0.071993 0.225675
0.236059 0.162177 0.366185
0.214765 0.212282 0.237949
0.293208 0.163983 0.374612
0.267740 0.132527 0.385375
0.307112 0.163983 0.262684
0.311252 0.163983 0.216235
0.408437 0.047516 0.284131
0.289853 0.189011 0.391260
0.405137 0.114302 0.315053
0.263038 0.748640 0.231782
0.368017 0.163983 0.356680
0.299296 0.067395 0.391491
0.426220 0.496195 0.350642
0.390177 0.039645 0.344929
0.380344 0.074076 0.359528
0.396265 0.189910 0.303154
0.215740 0.174469 0.234258
0.385120 0.164952 0.333392
0.197430 0.798974 0.267140
0.310003 0.202674 0.381360
0.392636 0.192983 0.316955
0.219401 0.065008 0.346962
0.406993 0.085361 0.299825
0.281729 0.163983 0.352135
0.279602 0.079026 0.188228
0.423104 0.619113 0.397870
0.220462 0.084206 0.226840
0.202977 0.137129 0.264970
0.217458 0.207347 0.254330
0.395624 0.220645 0.321974
0.378837 0.138219 0.360993
0.436573 0.626799 0.423522
0.361065 0.219542 0.367209
0.407974 0.148495 0.283107
0.370076 0.025360 0.367600
0.395813 0.129834 0.239137
0.251465 0.185234 0.364883
0.264253 0.165653 0.384391
0.317038 0.148363 0.391434
0.334244 0.163983 0.362423
0.370949 0.201732 0.354010
0.253379 0.489397 0.350796
0.207049 0.080715 0.321417
0.366152 0.068415 0.370813
0.323676 0.163983 0.301720
0.239223 0.076900 0.209125
0.269857 0.747132 0.302358
0.222623 0.123736 0.352594
0.206853 0.198501 0.253325
0.365844 0.224484 0.365382
0.245385 0.219233 0.369705
0.533058 0.557432 0.266448
0.314643 0.892784 0.328945
0.231321 0.196255 0.362507
0.254584 0.803600 0.327898
0.218720 0.036283 0.232552
0.263590 0.224766 0.377816
0.263593 0.061441 0.383903
0.386277 0.187065 0.352099
0.348923 0.909228 0.346927
0.397329 0.592086 0.334743
0.225148 0.065694 0.221286
0.309407 0.124827 0.392020
0.245007 0.182290 0.359388
0.213456 0.148584 0.337948
0.301923 0.163983 0.247821
0.429194 0.626192 0.421697
0.407754 0.205437 0.279002
0.308827 0.131218 0.184727
0.350897 0.442434 0.295135
0.310705 0.199383 0.392002
0.204521 0.047251 0.311109
0.320646 0.519425 0.330982
0.380944 0.939397 0.393747
0.281131 0.171830 0.199455
0.297758 0.163983 0.281598
0.318926 0.163983 0.319961
0.246410 0.208307 0.361436
0.248486 0.163983 0.266107
0.395128 0.028112 0.336844
0.321549 0.038010 0.389720
0.273524 0.726871 0.260558
0.329212 0.185449 0.187670
0.330155 0.194109 0.187976
0.367802 0.207465 0.357184
0.275380 0.194731 0.376408
0.201571 0.193410 0.275363
0.397349 0.604394 0.348790
0.407305 0.164409 0.274184
0.255972 0.689755 0.399942
0.381841 0.097631 0.357730
0.246460 0.824505 0.334631
0.218948 0.162659 0.347977
0.271666 0.138255 0.386703
0.343349 0.027664 0.191851
0.343012 0.557918 0.306923
0.221258 0.163983 0.327336
0.296347 0.086489 0.184884
0.337808 0.145687 0.386839
0.296673 0.208792 0.381462
0.332350 0.826040 0.238060
0.460799 0.509963 0.335980
0.363605 0.163983 0.326841
0.237364 0.624860 0.228449
0.224767 0.209945 0.222205
0.314755 0.214099 0.186582
0.273878 0.163983 0.272662
0.157028 0.881557 0.469177
0.205221 0.202733 0.258764
0.222339 0.199098 0.225264
0.207332 0.210824 0.252228
0.323372 0.400117 0.369828
0.331465 0.519354 0.323030
0.294493 0.109219 0.391713
0.374885 0.571273 0.189845
0.320919 0.453389 0.354529
0.256099 0.203316 0.196802
0.304003 0.045827 0.184320
0.404601 0.090201 0.262152
0.202649 0.111819 0.265390
0.399896 0.945135 0.407461
0.282051 0.617884 0.285935
0.266134 0.203693 0.373562
0.360244 0.135531 0.200178
0.246642 0.172115 0.201639
0.305387 0.147084 0.184491
0.348130 0.062084 0.382820
0.275510 0.444638 0.441690
0.274152 0.163983 0.366014
0.407215 0.098107 0.268738
0.397137 0.117932 0.241702
0.294392 0.342382 0.288959
0.280215 0.687408 0.279901
0.347218 0.193498 0.370656
0.256808 0.088189 0.196158
0.269667 0.192827 0.386181
0.389080 0.936733 0.393732
0.401309 0.072566 0.251884
0.299584 0.080174 0.184685
0.431035 0.553492 0.287019
0.350387 0.544447 0.307991
0.338607 0.832930 0.252376
0.423770 0.623207 0.411054
0.322370 0.163983 0.234795
0.406703 0.197384 0.268254
0.403013 0.185162 0.255376
0.252086 0.175665 0.198998
0.238128 0.163983 0.331337
0.290504 0.188952 0.380228
0.201197 0.092524 0.300619
0.306031 0.164370 0.194951
0.319873 0.868757 0.315478
0.341844 0.199196 0.202921
0.298946 0.057985 0.391456
0.282816 0.163983 0.324276
0.327352 0.294121 0.291847
0.371485 0.090321 0.209017
0.257917 0.778717 0.141478
0.338265 0.184716 0.190420
0.326989 0.207299 0.197821
0.228595 0.071518 0.217471
0.390820 0.184695 0.346882
0.387074 0.163983 0.295585
0.406744 0.087258 0.308303
0.407853 0.186419 0.298453
0.234402 0.163983 0.255089
0.319704 0.163983 0.251545
0.263595 0.779953 0.163223
0.390863 0.850232 0.210945
0.218552 0.172926 0.252134
0.407999 0.209292 0.295539
0.381245 0.855120 0.223952
0.231443 0.197983 0.214236
0.396612 0.172965 0.295876
0.324038 0.067120 0.186844
0.379033 0.123876 0.360690
0.393275 0.104681 0.343032
0.489088 0.554677 0.276902
0.265655 0.163983 0.358613
0.310320 0.163983 0.338314
0.222558 0.196160 0.244650
0.322695 0.106321 0.391393
0.040444 0.804288 0.226941
0.346576 0.163983 0.216736
0.219093 0.152940 0.348270
0.255347 0.163983 0.223053
0.400326 0.135019 0.248223
0.372534 0.177408 0.210276
0.303293 0.796141 0.300721
0.234352 0.184690 0.364908
0.272911 0.124543 0.189546
0.257368 0.163983 0.360581
0.267183 0.216298 0.193796
0.206116 0.194783 0.321560
0.284412 0.210957 0.196739
0.241541 0.211148 0.206460
0.407413 0.198920 0.275947
0.357434 0.163983 0.310874
0.319896 0.163983 0.205923
0.228315 0.163983 0.305397
0.213232 0.217108 0.332291
0.200917 0.186603 0.293698
0.217424 0.196126 0.231503
0.392740 0.112285 0.344454
0.291422 0.163983 0.219830
0.238658 0.091386 0.209033
0.404265 0.057368 0.264189
0.284842 0.609898 0.285277
0.282878 0.698318 0.282709
0.257703 0.045301 0.380037
0.222234 0.092539 0.224684
0.322778 0.088522 0.186129
0.439204 0.500901 0.345646
0.385688 0.163983 0.313786
0.400504 0.204126 0.248018
0.290912 0.098662 0.185225
0.264173 0.778474 0.146403
0.323161 0.204084 0.380200
0.300098 0.819662 0.313131
0.395662 0.181888 0.270629
0.290672 0.464900 0.366262
0.330083 0.051074 0.387502
0.237024 0.118705 0.209598
0.304904 0.163983 0.375181
0.344442 0.193550 0.384670
0.263245 0.172376 0.371258
0.293027 0.051666 0.185632
0.255108 0.735464 0.279483
0.546888 0.558146 0.263145
0.202747 0.053503 0.305484
0.291838 0.163983 0.197739
0.393850 0.150846 0.235383
0.229537 0.211351 0.360027
0.202480 0.034627 0.301067
0.310310 0.174253 0.184648
0.353158 0.914613 0.354670
0.329532 0.907242 0.337083
0.282512 0.110601 0.186198
0.361387 0.113290 0.200634
0.231020 0.095029 0.362000
0.272834 0.486438 0.362681
0.335416 0.219621 0.196938
0.287870 0.440322 0.434238
0.316942 0.309431 0.338424
0.282991 0.719615 0.286743
0.323344 0.885059 0.318910
0.295534 0.441688 0.410150
0.302018 0.192572 0.290323
0.345954 0.423307 0.292455
0.260668 0.169805 0.206755
0.206183 0.112462 0.321417
0.201967 0.144552 0.308719
0.242657 0.216950 0.361354
0.315092 0.065441 0.186463
0.382921 0.573814 0.174158
0.177280 0.512516 0.333343
0.259646 0.200401 0.382113
0.378467 0.042868 0.361792
0.248822 0.163983 0.280439
0.404419 0.204924 0.316155
0.367558 0.100268 0.370866
0.311672 0.158177 0.391746
0.394548 0.163983 0.305014
0.349726 0.209815 0.370148
0.335942 0.909624 0.350845
0.334984 0.902306 0.333646
0.203780 0.105151 0.262064
0.329262 0.104486 0.389580
0.318723 0.480876 0.345766
0.227473 0.149959 0.358123
0.337018 0.163983 0.232968
0.261886 0.182517 0.206268
0.303648 0.434597 0.405333
0.321093 0.069824 0.390845
0.241692 0.163983 0.294012
0.378729 0.204830 0.361506
0.404278 0.217730 0.272038
0.404640 0.113591 0.260391
0.246849 0.782159 0.029101
0.359099 0.842612 0.246334
0.273493 0.775903 0.202905
0.353702 0.178074 0.367059
0.237319 0.183508 0.352474
0.189190 0.801108 0.257048
0.266021 0.195193 0.203996
0.341849 0.405115 0.293144
0.291911 0.776930 0.303357
0.265619 0.208814 0.385043
0.328472 0.095037 0.389559
0.286467 0.221205 0.190166
0.295711 0.196241 0.196139
0.354088 0.075249 0.198409
0.407290 0.128051 0.307666
0.319836 0.357405 0.354893
0.359557 0.846785 0.231907
0.170116 0.793711 0.245158
0.319948 0.330618 0.347775
0.338143 0.081309 0.385788
0.375268 0.224684 0.220220
0.298986 0.240217 0.290075
0.396518 0.164003 0.297571
0.222548 0.041430 0.226173
0.234644 0.150306 0.364982
0.402935 0.542530 0.285240
0.299975 0.212949 0.290244
0.398084 0.214074 0.305073
0.309450 0.224760 0.190274
0.367639 0.058775 0.369084
0.238691 0.800995 0.320838
0.265356 0.761296 0.221633
0.227338 0.048193 0.356809
0.279352 0.223787 0.383900
0.396693 0.197986 0.277008
0.238082 0.163983 0.323932
0.324287 0.300422 0.293006
0.264495 0.773758 0.209180
0.327624 0.517494 0.335256
0.292508 0.132195 0.391773
0.392343 0.208012 0.256552
0.251867 0.207301 0.365922
0.397763 0.053677 0.332735
0.394476 0.156239 0.340771
0.356675 0.841418 0.228261
0.280385 0.058143 0.188631
0.296723 0.380508 0.287304
0.146441 0.803433 0.249847
0.294305 0.188147 0.196492
0.358091 0.081472 0.200027
0.378313 0.072565 0.215177
0.290638 0.498542 0.286252
0.305133 0.135075 0.392343
0.341262 0.201990 0.385743
0.213200 0.154327 0.238601
0.375473 0.483474 0.365242
0.329966 0.081402 0.388549
0.400026 0.596812 0.341866
0.403612 0.068052 0.319936
0.250658 0.163983 0.287156
0.312306 0.189321 0.380623
0.232892 0.163983 0.292902
0.441607 0.868710 0.191200
0.310294 0.817237 0.303979
0.402731 0.073057 0.258663
0.397842 0.208582 0.292972
0.397730 0.199794 0.291286
0.363622 0.163983 0.315363
0.216233 0.105193 0.232815
0.387424 0.177926 0.246675
0.206895 0.041135 0.252597
0.408244 0.039852 0.290751
0.222864 0.163983 0.271154
0.353305 0.456811 0.295602
0.338805 0.136934 0.190683
0.252384 0.815091 0.334095
0.385275 0.570169 0.181881
0.391620 0.041193 0.233858
0.407035 0.174446 0.270556
0.278759 0.053886 0.388502
0.364545 0.163983 0.249321
0.401992 0.087452 0.324328
0.346489 0.104596 0.193883
0.217848 0.176713 0.322603
0.244852 0.139367 0.202777
0.375795 0.163983 0.229938
0.273805 0.747289 0.240472
0.345346 0.163983 0.340182
0.318381 0.163983 0.294912
0.395333 0.163983 0.274348
0.366214 0.455325 0.425193
0.308223 0.421587 0.391789
0.382374 0.182479 0.356884
0.349258 0.046064 0.195477
0.318453 0.532061 0.296466
0.207082 0.174179 0.252866
0.405426 0.027429 0.271296
0.299445 0.608472 0.256497
0.237684 0.199689 0.367680
0.403298 0.459539 0.485177
0.259691 0.773151 0.198687
0.364184 0.190132 0.359463
0.344633 0.163983 0.262870
0.255832 0.163983 0.282294
0.276004 0.167797 0.188489
0.270002 0.060480 0.386505
0.249423 0.163983 0.360389
0.267575 0.163983 0.250104
0.281825 0.706752 0.283808
0.279789 0.025014 0.387767
0.352996 0.085580 0.197554
0.391373 0.025283 0.342485
0.306067 0.149193 0.392298
0.374859 0.575511 0.333444
0.304139 0.827353 0.310523
0.299153 0.216248 0.383565
0.357156 0.461264 0.368222
0.367344 0.163983 0.301809
0.203443 0.041626 0.272886
0.356236 0.107918 0.378741
0.408431 0.134999 0.289413
0.383377 0.169257 0.355572
0.292297 0.406028 0.283487
0.393459 0.575353 0.105608
0.284241 0.163983 0.215998
0.297510 0.138103 0.392055
0.305189 0.117786 0.184586
0.275803 0.163983 0.224163
0.213395 0.033013 0.336543
0.224712 0.128900 0.222194
0.233860 0.844133 0.358777
0.225556 0.115916 0.355807
0.344149 0.843583 0.240562
0.218018 0.051100 0.232974
0.407539 0.158147 0.277610
0.200785 0.156425 0.291346
0.240481 0.163983 0.308987
0.352059 0.067485 0.197442
0.211594 0.170343 0.334253
0.307188 0.079927 0.184946
0.225655 0.121353 0.221061
0.264824 0.163983 0.307432
0.413520 0.494688 0.345431
0.286072 0.720350 0.278091
0.337209 0.602655 0.318087
0.408387 0.172659 0.292881
0.317398 0.172989 0.197266
0.286601 0.628376 0.283975
0.320931 0.099948 0.185704
0.344599 0.074669 0.192489
0.302729 0.176941 0.392472
0.400595 0.034863 0.248169
0.203326 0.033833 0.273330
0.274124 0.210074 0.387569
0.336218 0.163983 0.274603
0.252717 0.770660 0.164309
0.313922 0.067265 0.392018
0.357894 0.216543 0.201867
0.361076 0.146243 0.376133
0.293253 0.209616 0.185389
0.408768 0.614664 0.387982
0.271106 0.111322 0.190312
0.220059 0.112841 0.349688
0.318253 0.487931 0.343546
0.237884 0.109901 0.368075
0.303254 0.092431 0.392185
0.243029 0.179594 0.372059
0.354155 0.186384 0.379368
0.312561 0.163983 0.199682
0.235099 0.039810 0.365591
0.341331 0.910787 0.365052
0.256336 0.192874 0.380365
0.463349 0.877617 0.189097
0.280461 0.751509 0.229314
0.360905 0.106114 0.200470
0.379210 0.594484 0.342633
0.217497 0.167686 0.322067
0.362160 0.163983 0.340008
0.380126 0.200620 0.216995
0.206057 0.221765 0.270810
0.353346 0.163983 0.348383
0.206569 0.108402 0.254182
0.249843 0.776876 0.093515
0.205122 0.217963 0.307396
0.317210 0.862167 0.314685
0.224078 0.163983 0.311942
0.358529 0.164181 0.377226
0.266817 0.173937 0.203305
0.326697 0.163983 0.209773
0.455334 0.552945 0.284352
0.390942 0.573063 0.133080
0.241342 0.193115 0.206103
0.286745 0.163983 0.359442
0.408039 0.026302 0.284638
0.396220 0.200975 0.270005
0.350054 0.837387 0.229049
0.392674 0.484635 0.363030
0.287684 0.163983 0.316795
0.230363 0.178563 0.361488
0.390660 0.047039 0.344429
0.407100 0.093066 0.303523
0.345484 0.201426 0.192695
0.330715 0.890108 0.318197
0.317522 0.163983 0.274547
